# .PCD v0.7 - Point Cloud Data file format
VERSION 0.7
FIELDS x y z
SIZE 4 4 4
TYPE F F F
COUNT 1 1 1
WIDTH 837
HEIGHT 1
VIEWPOINT 0 0 0 1 0 0 0
POINTS 837
DATA ascii
0.22915816 -0.069145486 0.89275432
0.22947499 -0.068737671 0.89549184
0.2238709 -0.068748951 0.88419569
0.22550324 -0.068160683 0.88741761
0.22691292 -0.067415074 0.89197218
0.22747278 -0.066783175 0.89680707
0.22724076 -0.066403389 0.90163779
0.22623448 -0.066007927 0.90527833
0.22069252 -0.067292161 0.88329428
0.22175205 -0.065634586 0.88732719
0.22265749 -0.064369537 0.89204127
0.22318035 -0.063706018 0.89701456
0.2235658 -0.06382826 0.90200853
0.22328824 -0.064294077 0.90652186
0.21529135 -0.066785641 0.88038135
0.21626106 -0.065480977 0.88284194
0.21728529 -0.063405752 0.88745189
0.21811394 -0.062083468 0.89220816
0.2186451 -0.061413545 0.897246
0.21896914 -0.061484754 0.90226686
0.21909194 -0.06234986 0.9074868
0.21792543 -0.062639177 0.91037124
0.212023 -0.065611556 0.88067031
0.21145321 -0.063901067 0.88318455
0.21260151 -0.061852977 0.88780153
0.21331215 -0.060467977 0.89268082
0.21390711 -0.059843995 0.89761651
0.21432951 -0.059947371 0.90261269
0.21441261 -0.060785249 0.90778226
0.21552959 -0.061836328 0.9105162
0.20704947 -0.062735707 0.88434464
0.20744455 -0.060941592 0.88841426
0.20843202 -0.059634686 0.89309949
0.20907842 -0.059007604 0.89804947
0.20934229 -0.059105236 0.90319884
0.20978503 -0.059808314 0.907453
0.20376401 -0.062013708 0.88580281
0.20312257 -0.060729228 0.88922715
0.20326762 -0.059507791 0.89381999
0.20384526 -0.05890283 0.89857465
0.20482218 -0.058954507 0.90331656
0.20610081 -0.059388485 0.90673399
0.20044719 -0.05958344 0.89509541
0.20074043 -0.059227917 0.89785641
0.23141596 -0.076400533 0.88491064
0.23254183 -0.075685576 0.88798171
0.23364006 -0.074984625 0.89219433
0.23421437 -0.074382529 0.89697993
0.23412438 -0.073996156 0.90142584
0.22650522 -0.075414144 0.87953234
0.22861861 -0.074595205 0.88279247
0.23000069 -0.072807081 0.88716495
0.23099111 -0.071495131 0.89196557
0.23160218 -0.070877656 0.89700598
0.23175903 -0.070933908 0.90201783
0.23143426 -0.071462914 0.906739
0.23025334 -0.071541138 0.9106102
0.22345774 -0.073558979 0.87845534
0.22512549 -0.071300142 0.88230848
0.22703563 -0.070095435 0.88632125
0.22833073 -0.06953685 0.88956916
0.22954069 -0.068357453 0.89932597
0.22897826 -0.067993611 0.9028849
0.22802624 -0.068092167 0.90736794
0.22742517 -0.069341697 0.91190612
0.2253032 -0.069500476 0.91552091
0.21801148 -0.073253796 0.87521088
0.21943405 -0.07098335 0.87800819
0.22094125 -0.069003716 0.8811512
0.22423467 -0.065494269 0.90874922
0.2233662 -0.066516675 0.91265261
0.22275145 -0.068024516 0.9161672
0.2135233 -0.071443886 0.87492013
0.21497184 -0.068655349 0.87811649
0.22093406 -0.063820146 0.90978754
0.21891731 -0.064168893 0.91297293
0.21862726 -0.066107616 0.9168722
0.20904553 -0.069799498 0.87540287
0.21010469 -0.067020088 0.87849373
0.20909537 -0.06479758 0.8810997
0.21277183 -0.061099853 0.91052079
0.21411856 -0.062576428 0.91330385
0.21395312 -0.064503774 0.91715282
0.20465629 -0.068681732 0.87629259
0.20516261 -0.066212155 0.87909687
0.20552504 -0.063862748 0.88233012
0.2086439 -0.060325034 0.90990442
0.20914075 -0.061811756 0.91366953
0.20942768 -0.063561752 0.9171316
0.20041201 -0.066037521 0.88002628
0.20108801 -0.063264072 0.88411289
0.20061673 -0.061339363 0.88837838
0.20030707 -0.060225163 0.89198071
0.2014191 -0.059054717 0.90113962
0.20253605 -0.059252761 0.9047001
0.20397274 -0.060066383 0.90908378
0.20433015 -0.061649874 0.91362435
0.20585006 -0.063106865 0.91676021
0.19686076 -0.065601684 0.88188827
0.19639006 -0.063797638 0.88528979
0.19675596 -0.061819926 0.8896929
0.19753477 -0.060373817 0.89444125
0.19818686 -0.059716474 0.89946169
0.19852589 -0.059934195 0.90453744
0.19918351 -0.060762882 0.90924948
0.20062958 -0.061679564 0.912848
0.19320622 -0.062709257 0.8907668
0.19339441 -0.061585516 0.89527559
0.19399416 -0.060966674 0.89996994
0.19478887 -0.060950972 0.90437037
0.23564632 -0.0818801 0.888192
0.23670636 -0.080904171 0.89263189
0.2372642 -0.080335014 0.89726782
0.2372639 -0.080103666 0.90190816
0.23017946 -0.081292368 0.87951827
0.23223311 -0.080224864 0.88303196
0.23396918 -0.078942344 0.88725519
0.23531431 -0.077932633 0.89226574
0.23586148 -0.077201009 0.89733237
0.23574671 -0.076935761 0.90242594
0.23501207 -0.07700716 0.90720689
0.23393351 -0.07732746 0.91133112
0.22526382 -0.080473267 0.87523389
0.22750627 -0.07892558 0.87810868
0.22969282 -0.077303626 0.88161665
0.23285779 -0.074019939 0.90866208
0.23146006 -0.07447058 0.91274506
0.22994329 -0.075193688 0.91635919
0.21910249 -0.080081031 0.87164235
0.22173992 -0.07822454 0.87404114
0.22399198 -0.076366886 0.87664831
0.22824597 -0.071479201 0.91425163
0.22687836 -0.072736084 0.91764516
0.2246909 -0.073672377 0.92097968
0.21591651 -0.07834962 0.87119812
0.21747603 -0.076052934 0.87308991
0.22299103 -0.070147939 0.91873592
0.22187598 -0.071916126 0.9215973
0.21145195 -0.076434337 0.87101746
0.2128201 -0.074029684 0.87278986
0.21833241 -0.067994431 0.91971117
0.21769968 -0.069968715 0.92230844
0.20700799 -0.075026102 0.8713243
0.20794995 -0.072286479 0.87323713
0.21346779 -0.066373274 0.92008412
0.21303472 -0.068464637 0.92270398
0.20276621 -0.073970303 0.87214172
0.2029226 -0.071077079 0.87431526
0.2083088 -0.065286487 0.91987807
0.20857851 -0.067520611 0.92265821
0.19840042 -0.070555583 0.87573421
0.19802606 -0.067782581 0.87859446
0.20264082 -0.062979609 0.91613716
0.20360833 -0.064992085 0.91944742
0.20511918 -0.067206278 0.92249256
0.19444914 -0.070390135 0.8774035
0.19403142 -0.067774363 0.88061863
0.19365643 -0.065364055 0.88430619
0.19686808 -0.06187522 0.91100496
0.19804619 -0.063395694 0.91514617
0.19944602 -0.065105431 0.91873783
0.1904922 -0.068322048 0.8823992
0.19029716 -0.06617406 0.88612336
0.19010797 -0.064325012 0.89062488
0.1903169 -0.062984906 0.89552224
0.19094178 -0.062312797 0.900702
0.1919637 -0.062357944 0.90572685
0.19305095 -0.063134573 0.91045105
0.1943498 -0.064163722 0.91432393
0.18714826 -0.066869088 0.88877189
0.18709263 -0.065800935 0.89182025
0.18748839 -0.064546674 0.89631361
0.18799113 -0.063975126 0.9010067
0.1886588 -0.064064324 0.90566862
0.1894341 -0.064326137 0.90870881
0.23887444 -0.087709233 0.89451164
0.23921213 -0.087466188 0.89759421
0.2329112 -0.087817192 0.88039327
0.23464985 -0.086297393 0.88362175
0.23664172 -0.085594788 0.88811737
0.23799974 -0.085137896 0.89284009
0.23857877 -0.084446386 0.89786738
0.23837607 -0.083812058 0.90288341
0.23748615 -0.083207354 0.90753573
0.23653282 -0.083749332 0.91141552
0.22820127 -0.086393438 0.87553531
0.2306453 -0.08523789 0.87842733
0.23310632 -0.083920367 0.88206667
0.23624505 -0.080516607 0.90888137
0.23472683 -0.080767155 0.91312659
0.23301165 -0.08116544 0.9167968
0.22247717 -0.085593089 0.87154144
0.22527674 -0.084263489 0.87382191
0.22801176 -0.08283665 0.87650096
0.23256958 -0.077954873 0.91494632
0.23045118 -0.078634128 0.91863316
0.22843462 -0.079618864 0.92176896
0.21946923 -0.083502322 0.87062615
0.22190985 -0.081827782 0.87240785
0.22754216 -0.075818762 0.91998577
0.22569057 -0.076961853 0.92259955
0.21512227 -0.081850238 0.86953664
0.22153041 -0.07486096 0.92423707
0.20837128 -0.082427368 0.86802852
0.21036719 -0.080277652 0.86906517
0.21688536 -0.073008642 0.92535454
0.21550444 -0.074891739 0.92730784
0.20570052 -0.081467763 0.86825496
0.20551074 -0.078666873 0.86942846
0.21209414 -0.071491361 0.92576033
0.21279845 -0.074002862 0.92753422
0.20088962 -0.077118754 0.8706091
0.20737314 -0.070156462 0.92531085
0.19658163 -0.075965658 0.87232178
0.1959179 -0.073322326 0.87427163
0.20157014 -0.067201965 0.9220311
0.20261651 -0.069354355 0.92440754
0.19292413 -0.07605385 0.87370771
0.19197883 -0.073257901 0.87629014
0.19110116 -0.070522897 0.87926686
0.19556938 -0.065556116 0.91763502
0.19720986 -0.067498595 0.92095739
0.19870551 -0.069617391 0.92387486
0.18865311 -0.07334362 0.87842095
0.18776025 -0.070983365 0.881688
0.1871841 -0.068614252 0.88547146
0.19033322 -0.065144196 0.91222185
0.19180846 -0.066610299 0.91640693
0.19343752 -0.068039574 0.91972983
0.18476748 -0.071777076 0.8839885
0.18465498 -0.069714874 0.88739216
0.18404637 -0.068255834 0.89196771
0.18386972 -0.067259602 0.89694101
0.18455349 -0.066534653 0.90195936
0.18584834 -0.066288903 0.90673852
0.18748151 -0.066662617 0.91140664
0.18825835 -0.067860633 0.91494745
0.18191868 -0.068834133 0.89884704
0.18213013 -0.068606943 0.90091431
0.2365281 -0.093268141 0.88588512
0.23777603 -0.091925524 0.88906676
0.23894662 -0.09078721 0.89357191
0.23952429 -0.090268441 0.89846879
0.2394208 -0.090083644 0.90328252
0.23897581 -0.090602227 0.9068228
0.23261997 -0.091501273 0.87958527
0.23529224 -0.091127522 0.88365722
0.23713623 -0.089661278 0.88763124
0.23822857 -0.088508442 0.89111441
0.23910302 -0.087588869 0.90385824
0.23823413 -0.087923273 0.9086076
0.23657985 -0.087199271 0.91313612
0.22514811 -0.092464022 0.87238532
0.22804129 -0.090726346 0.87479067
0.23081024 -0.089727297 0.87751806
0.2352583 -0.084805854 0.91496396
0.23319678 -0.085080683 0.91849536
0.22275443 -0.08970274 0.87107939
0.22531819 -0.088652872 0.87279981
0.23087777 -0.08249785 0.92054892
0.2288038 -0.083139479 0.92305857
0.21572937 -0.089620732 0.86797369
0.21842036 -0.088153228 0.86915416
0.22502127 -0.080997765 0.92542064
0.22271666 -0.082055569 0.92751265
0.21282175 -0.087482266 0.86753535
0.2146555 -0.085646749 0.86828977
0.22112598 -0.077915303 0.92649513
0.21993633 -0.079846159 0.92808002
0.20840706 -0.085469857 0.86729473
0.21156411 -0.083851397 0.86800313
0.21572411 -0.077595375 0.92873585
0.20367758 -0.083896674 0.86765134
0.20267536 -0.080830902 0.86864048
0.21092282 -0.075925477 0.92905426
0.19927067 -0.082955308 0.86851883
0.1989354 -0.08042144 0.86945349
0.20566888 -0.072958551 0.92763543
0.20635682 -0.075204343 0.92907184
0.1955654 -0.082933955 0.86949098
0.19446506 -0.080074474 0.87101483
0.2011254 -0.072991535 0.92718309
0.20254825 -0.075360075 0.92901963
0.19037442 -0.078972265 0.87350672
0.18927047 -0.076701008 0.87544996
0.19480586 -0.070574179 0.92323446
0.19644958 -0.072432727 0.92549258
0.18607475 -0.076740503 0.87799126
0.18492633 -0.074366868 0.8809858
0.18930902 -0.069684073 0.91859674
0.19122472 -0.071196586 0.92167497
0.18262714 -0.074925028 0.88334113
0.18126714 -0.07324034 0.88769841
0.18126617 -0.071006171 0.89203256
0.18148166 -0.069720089 0.89545113
0.1827039 -0.068445981 0.90469539
0.1831619 -0.069026507 0.90834212
0.18424222 -0.070001438 0.91270328
0.18660296 -0.07063131 0.91696644
0.17936648 -0.074274465 0.89013809
0.17955738 -0.072680652 0.8933171
0.17999506 -0.071126983 0.89798695
0.18051845 -0.070575818 0.90290958
0.18119498 -0.070852935 0.90754485
0.1817368 -0.071672104 0.91105813
0.2358098 -0.096913755 0.88515991
0.23760043 -0.096364357 0.88927674
0.23893264 -0.095987558 0.89423406
0.23950246 -0.095346957 0.89914495
0.23933423 -0.094497003 0.90419644
0.23857182 -0.093799286 0.90849853
0.22997046 -0.096638456 0.87684828
0.2324979 -0.09638413 0.87979507
0.23477842 -0.095705092 0.88294721
0.23801968 -0.092127368 0.91055632
0.23650289 -0.091958404 0.914289
0.23463462 -0.091574535 0.91785395
0.22470392 -0.09575548 0.87231106
0.22755484 -0.095447697 0.87447286
0.23291942 -0.089559585 0.9201147
0.23070885 -0.089052826 0.92277539
0.22164319 -0.094340973 0.87040365
0.22811462 -0.08751215 0.92500329
0.21578559 -0.093363643 0.86792457
0.21822818 -0.092782862 0.86874229
0.22513121 -0.085510187 0.92698693
0.22282228 -0.08563289 0.92850459
0.21159659 -0.091746397 0.86694568
0.21901867 -0.083799824 0.92995
0.206797 -0.090340555 0.86653304
0.21441159 -0.082109988 0.93105704
0.20210291 -0.08879713 0.86688447
0.20966724 -0.080487981 0.93140119
0.19735685 -0.087043934 0.86803418
0.20482206 -0.079035528 0.93100572
0.19342543 -0.08585871 0.86956912
0.19176951 -0.084006265 0.87075484
0.19875002 -0.076535612 0.92896676
0.20055664 -0.078166261 0.93016547
0.18841326 -0.083379984 0.87287992
0.19484565 -0.076465912 0.92760074
0.18551402 -0.082492016 0.87526405
0.18367034 -0.080801457 0.87775552
0.18899661 -0.075050578 0.92344803
0.19137406 -0.07627634 0.92586696
0.18137796 -0.080432102 0.88045067
0.17990124 -0.078867108 0.88372034
0.17881633 -0.077266343 0.88714379
0.18207344 -0.073764764 0.91483682
0.18403217 -0.074399337 0.91820979
0.18618265 -0.075289443 0.92136681
0.17764579 -0.0776086 0.88951379
0.17708945 -0.076298058 0.89384973
0.1769205 -0.075442329 0.89895082
0.17752665 -0.074769422 0.90375286
0.17881824 -0.074445263 0.90868556
0.18031886 -0.074605316 0.91275644
0.23302539 -0.10280599 0.88286328
0.23474205 -0.1015266 0.88517213
0.23684652 -0.10134327 0.89005017
0.23813111 -0.10097736 0.894925
0.23870303 -0.10036153 0.89981663
0.23857611 -0.099445269 0.9048332
0.23766674 -0.098252825 0.90992111
0.23659348 -0.098791093 0.9127807
0.22891867 -0.10091831 0.87696052
0.23172888 -0.10130341 0.88033974
0.23391144 -0.099572562 0.88262367
0.23744631 -0.095348157 0.91193259
0.23577921 -0.096909888 0.91514814
0.23377602 -0.095762424 0.91888702
0.2237999 -0.10027703 0.87263256
0.22651865 -0.10039815 0.87464517
0.23190269 -0.094480358 0.92155665
0.22980492 -0.093612529 0.9239338
0.21727879 -0.099963084 0.8692537
0.22014917 -0.099224187 0.87035662
0.22675243 -0.092065193 0.92663282
0.2241814 -0.092270017 0.92853534
0.21494457 -0.097933292 0.86814004
0.21790099 -0.09683536 0.86888504
0.22488855 -0.089001171 0.92786336
0.222174 -0.090060264 0.92956394
0.21009985 -0.096589893 0.8669678
0.21761122 -0.088359632 0.9314791
0.20516893 -0.095069431 0.86656576
0.21302676 -0.086749725 0.93257821
0.2004295 -0.093588829 0.86692929
0.20818166 -0.085210934 0.93296373
0.1958582 -0.091895416 0.86801273
0.20335101 -0.083726622 0.93256807
0.19131535 -0.090123616 0.86989826
0.18973078 -0.087402873 0.87099147
0.19658048 -0.079930291 0.93003392
0.19839719 -0.082242161 0.93132836
0.18860373 -0.089985661 0.87131935
0.18671334 -0.088088535 0.87285411
0.19324864 -0.080959089 0.9291296
0.19545247 -0.082672648 0.93067312
0.18348795 -0.086854249 0.87565637
0.18149693 -0.085543171 0.87801719
0.18697026 -0.079558052 0.92481077
0.18957596 -0.080341466 0.92698455
0.17959349 -0.084715962 0.88062608
0.17767985 -0.083290383 0.88432169
0.18066576 -0.076910898 0.91617817
0.18177158 -0.078812011 0.91918546
0.1844397 -0.079406247 0.922553
0.17608564 -0.083747923 0.88710523
0.17576325 -0.081810161 0.88969576
0.17487003 -0.080721654 0.89463621
0.17466924 -0.079996325 0.89968026
0.17528473 -0.079272032 0.904562
0.17653532 -0.078957863 0.90943962
0.17856537 -0.078903049 0.91427612
0.17960639 -0.079830304 0.91700763
0.23209667 -0.10573445 0.88343978
0.23330301 -0.10618506 0.88604081
0.23530391 -0.10608934 0.89076549
0.23662665 -0.10568752 0.89570951
0.23716016 -0.10515756 0.90054822
0.23709427 -0.1041399 0.9055323
0.23618138 -0.10301039 0.91062713
0.23574367 -0.10138682 0.91323286
0.22741108 -0.10568863 0.87775642
0.23025821 -0.10603623 0.88117319
0.23111707 -0.10841808 0.88427407
0.23459072 -0.1045464 0.91330862
0.23427388 -0.10166657 0.91588885
0.23230955 -0.10026012 0.91966403
0.22228941 -0.10483788 0.8733747
0.22498751 -0.10518513 0.87540108
0.23043588 -0.099416181 0.92224264
0.22836672 -0.098173589 0.92466831
0.21635605 -0.10261711 0.86969101
0.2186853 -0.10398382 0.87116152
0.22519043 -0.096826605 0.92744339
0.22352393 -0.094419882 0.92888546
0.21341328 -0.10254561 0.86887747
0.21519671 -0.10535043 0.87034678
0.22183338 -0.097960033 0.92941523
0.22065629 -0.094806537 0.9303596
0.20849416 -0.1012987 0.86773342
0.21610223 -0.093058653 0.9322567
0.2036971 -0.099815808 0.86734307
0.2113438 -0.09143398 0.93338352
0.19887589 -0.098148316 0.86769992
0.206689 -0.08987882 0.93372202
0.1943547 -0.096611664 0.86878943
0.20193098 -0.088285722 0.93332666
0.18986389 -0.094856814 0.870646
0.18701033 -0.095965222 0.87243223
0.1937791 -0.088649318 0.93138599
0.19697143 -0.086955369 0.93213159
0.18762422 -0.093104191 0.87183017
0.18518482 -0.092978828 0.87363148
0.19175997 -0.085774645 0.92994177
0.1947075 -0.084879175 0.93103194
0.1821346 -0.091326199 0.87632614
0.17991592 -0.090390466 0.87884563
0.18543603 -0.084537014 0.92566836
0.1880507 -0.084744707 0.9276334
0.17812487 -0.089246087 0.88140249
0.17609152 -0.088031873 0.8852163
0.17793091 -0.085676879 0.9176771
0.18018356 -0.083718956 0.91998029
0.18302512 -0.083896525 0.92331082
0.1753006 -0.086144358 0.88754952
0.17427382 -0.086556651 0.89035136
0.17333972 -0.085536622 0.89537066
0.17317721 -0.084706441 0.90046602
0.17379603 -0.084002957 0.90551418
0.17506246 -0.08365643 0.91026908
0.17710587 -0.083538674 0.91505605
0.17883106 -0.082481399 0.91752505
0.23155288 -0.11035608 0.8874588
0.23308025 -0.11054751 0.89164382
0.23441252 -0.110135 0.89649302
0.23497194 -0.10953598 0.9014985
0.23482396 -0.1086402 0.90646803
0.23427935 -0.10741793 0.91064769
0.22577664 -0.10968395 0.87897694
0.22792225 -0.11055557 0.88213152
0.22981156 -0.11135265 0.88559616
0.23302963 -0.1078224 0.91312158
0.23200269 -0.10604232 0.9166137
0.23051122 -0.10439332 0.91994911
0.2205853 -0.10869019 0.8744573
0.22298451 -0.10987857 0.87687081
0.22829567 -0.10411157 0.92250574
0.2266662 -0.1022097 0.92491031
0.21713287 -0.10860994 0.87277979
0.22350733 -0.10160649 0.92738885
0.21144372 -0.10680901 0.87014383
0.21328427 -0.10844977 0.87136692
0.22008868 -0.10096909 0.92955589
0.21857312 -0.099121019 0.93067789
0.20707704 -0.1058953 0.86926454
0.21444878 -0.097938746 0.93227667
0.20224395 -0.10444986 0.86887646
0.20986724 -0.096259296 0.9333877
0.19752906 -0.10284285 0.86921799
0.20510736 -0.09474387 0.93374139
0.19284873 -0.10117283 0.87035435
0.20022857 -0.093091033 0.93333346
0.18898441 -0.099332407 0.87184972
0.18677463 -0.099541657 0.87332064
0.19358295 -0.092107177 0.93150985
0.19616035 -0.091702461 0.93238044
0.18392104 -0.097557746 0.87519383
0.19022708 -0.090567499 0.92985523
0.18123266 -0.095907457 0.87747723
0.17904021 -0.095433488 0.88011098
0.18431973 -0.089579083 0.92579657
0.18708852 -0.089277193 0.92790681
0.17716697 -0.093666449 0.8826344
0.17537171 -0.092962414 0.88605589
0.17389177 -0.092663281 0.88971162
0.17717992 -0.089119576 0.91738558
0.17949751 -0.088701002 0.92062962
0.18203312 -0.088362001 0.92354453
0.17332754 -0.091062613 0.89182961
0.17255941 -0.090555355 0.89616483
0.17241201 -0.08959271 0.90124869
0.17298546 -0.088945702 0.90608633
0.17428049 -0.088589951 0.91093081
0.17607662 -0.088109858 0.91510534
0.23017539 -0.1132701 0.88919884
0.23064315 -0.1141908 0.8927474
0.23142409 -0.11435589 0.89739931
0.23199959 -0.11373575 0.90223819
0.2322845 -0.11242354 0.90683287
0.23259757 -0.11063045 0.91010088
0.22525658 -0.11440007 0.88335663
0.2276381 -0.11492367 0.8874709
0.22874916 -0.11592028 0.89189494
0.23035264 -0.11523386 0.90524483
0.23066072 -0.11391608 0.90833974
0.23061801 -0.11178415 0.91254449
0.22922207 -0.11010616 0.91695535
0.22904238 -0.10737476 0.91974223
0.22065252 -0.11375698 0.87857991
0.22262004 -0.11541581 0.88188016
0.22704165 -0.11050856 0.91931796
0.22571726 -0.10832007 0.9223268
0.21540415 -0.11258139 0.87482077
0.21701424 -0.11451259 0.87712508
0.22269475 -0.10818007 0.92485535
0.22152293 -0.10595313 0.92680573
0.20913541 -0.1097159 0.87130862
0.21087335 -0.11194248 0.87309682
0.21749634 -0.10473251 0.92931718
0.21613249 -0.10208093 0.93084955
0.20556839 -0.10970347 0.87118304
0.20622745 -0.11199751 0.87264878
0.21292947 -0.10455916 0.93084174
0.21267231 -0.10203573 0.93175775
0.2009894 -0.10894086 0.87118036
0.20269637 -0.1118115 0.87267148
0.2081939 -0.1011315 0.93262148
0.19616897 -0.10734978 0.87154865
0.19347495 -0.10876302 0.8733446
0.20051011 -0.10116481 0.93229991
0.20349078 -0.099597588 0.93297487
0.19196853 -0.10507813 0.87219036
0.19053453 -0.10673472 0.87376213
0.19732013 -0.099281803 0.93201804
0.19909924 -0.097601935 0.9327395
0.18915492 -0.10283992 0.87277412
0.18686733 -0.10403707 0.87491137
0.19352672 -0.096869871 0.93113995
0.1962097 -0.095460497 0.93231392
0.18311694 -0.10186483 0.87722415
0.18095437 -0.10234651 0.87977529
0.18665206 -0.096268408 0.92753536
0.18927273 -0.095203929 0.92928421
0.1809061 -0.099047676 0.87849909
0.17873342 -0.099901646 0.88175499
0.17673296 -0.10009852 0.88513488
0.18115218 -0.095403895 0.92281133
0.18377237 -0.094274342 0.92541385
0.17685264 -0.096796937 0.88360453
0.17543378 -0.097824492 0.88692725
0.17369278 -0.097025096 0.8916055
0.17282929 -0.097359695 0.89612812
0.17374355 -0.09645775 0.90940106
0.17474519 -0.09528961 0.91259837
0.17663953 -0.093853563 0.91667718
0.17929476 -0.093510032 0.92071289
0.17291674 -0.094367921 0.89353311
0.17248204 -0.094806671 0.89701784
0.17239133 -0.0947989 0.90184867
0.17297061 -0.094085202 0.90678281
0.17417106 -0.092981167 0.91132271
0.17542288 -0.09174256 0.91449815
0.22978185 -0.11633777 0.89918512
0.23008171 -0.11596135 0.90244889
0.22344619 -0.11722821 0.88530332
0.22441086 -0.11833264 0.88892734
0.22609267 -0.11864515 0.89354146
0.22737743 -0.11840254 0.89828461
0.22797506 -0.11776584 0.90332562
0.22781579 -0.11675321 0.90831435
0.22730832 -0.11527903 0.91275942
0.22714594 -0.1132077 0.91626108
0.21853696 -0.11680603 0.8804583
0.2200518 -0.11839379 0.88391066
0.22156973 -0.11980608 0.88803345
0.22480129 -0.11632135 0.91475803
0.2241742 -0.11391747 0.91863889
0.22323611 -0.11168456 0.92182881
0.21312116 -0.11537607 0.8764149
0.21464202 -0.11744956 0.87929219
0.21616787 -0.1194562 0.88263112
0.22078861 -0.11448336 0.9209891
0.21995357 -0.11171339 0.92397553
0.21892108 -0.10895521 0.92658252
0.20930104 -0.11565018 0.87591714
0.21020144 -0.1177256 0.87818921
0.21581011 -0.11164843 0.9260779
0.21537164 -0.10906523 0.92790926
0.20457953 -0.11482924 0.87499326
0.21102452 -0.10786439 0.92966598
0.19939825 -0.11100574 0.87271947
0.19976267 -0.1134296 0.87450969
0.20642978 -0.10627063 0.93086684
0.20650685 -0.10347004 0.93204248
0.19673528 -0.11011917 0.87289828
0.19501032 -0.11192302 0.87491399
0.20153275 -0.1048415 0.93115985
0.20379122 -0.10266421 0.93223876
0.19041739 -0.11007662 0.87600547
0.19677548 -0.10315113 0.93073648
0.18631315 -0.10801818 0.87761039
0.18445325 -0.10914576 0.88020533
0.19023505 -0.10313103 0.92801219
0.1923286 -0.10134979 0.92964542
0.18358007 -0.10560653 0.87856495
0.18143484 -0.10636991 0.88171279
0.17933798 -0.10703202 0.88536513
0.18401411 -0.10243021 0.92377234
0.18665533 -0.10068715 0.92648649
0.18940088 -0.099181652 0.92877316
0.17890652 -0.10381716 0.88348359
0.17714901 -0.10416715 0.88719344
0.17569149 -0.10448185 0.89135247
0.17881851 -0.10102259 0.9182508
0.18126674 -0.099797234 0.92184734
0.18360758 -0.098521665 0.92467707
0.17540589 -0.1012584 0.88881755
0.17444652 -0.10169293 0.89258981
0.17353286 -0.10116431 0.89742267
0.1732803 -0.1003456 0.90238726
0.17389844 -0.099773951 0.90746135
0.17528678 -0.09938363 0.91221762
0.17721875 -0.098667234 0.91659969
0.17900321 -0.097338691 0.91985446
0.17270193 -0.097575754 0.90263784
0.17297727 -0.097110204 0.90559804
0.22250922 -0.12056591 0.89141482
0.22321877 -0.12096001 0.89488649
0.22396825 -0.12095928 0.89925212
0.22449039 -0.12037078 0.90397841
0.22471595 -0.11926371 0.90836197
0.22499412 -0.11797647 0.91139311
0.2175222 -0.12077701 0.88589668
0.21887636 -0.12182896 0.8898623
0.22012392 -0.12249245 0.8944065
0.22102836 -0.12261717 0.89951009
0.22158065 -0.1220027 0.90464664
0.22184731 -0.12060292 0.90968364
0.22170122 -0.118797 0.91405469
0.22137544 -0.11670616 0.91783029
0.21258564 -0.11991656 0.88167685
0.21380259 -0.12150419 0.8849768
0.21516658 -0.12301496 0.88920087
0.21822667 -0.11961547 0.91596645
0.21779828 -0.11708046 0.91985375
0.21747653 -0.11460492 0.92284256
0.20647219 -0.11788115 0.87792623
0.20829865 -0.12003703 0.88093525
0.20945665 -0.12200852 0.88423902
0.21376787 -0.11719792 0.92171925
0.21348387 -0.11442247 0.92454827
0.20323077 -0.11745216 0.87764859
0.20353381 -0.11961447 0.88033187
0.2089071 -0.11382462 0.92603111
0.2091497 -0.11095107 0.92817223
0.19881614 -0.11647557 0.87756997
0.19843353 -0.11861067 0.88023198
0.20397247 -0.11267534 0.92705315
0.20484309 -0.10994871 0.92894894
0.19424915 -0.11499092 0.87795317
0.19359215 -0.11698592 0.88058138
0.19910564 -0.1110145 0.92744994
0.20026094 -0.10854296 0.92922205
0.1900515 -0.11301043 0.87863779
0.18901004 -0.11476466 0.8814131
0.19443558 -0.10900895 0.92713928
0.19610579 -0.10664726 0.92911458
0.18728606 -0.11138272 0.87932867
0.18513384 -0.11238161 0.88269651
0.18345192 -0.11336951 0.88619697
0.18797675 -0.10859184 0.92369097
0.19021596 -0.10675869 0.92626613
0.19291371 -0.10496183 0.92866111
0.18188509 -0.10961299 0.88387734
0.18036248 -0.11040401 0.88757926
0.17905575 -0.11104751 0.89183694
0.18215613 -0.10761715 0.91863203
0.18455634 -0.10614698 0.92226291
0.18666041 -0.10439785 0.92511004
0.17794812 -0.10754 0.88889915
0.17689249 -0.10792624 0.89302802
0.17610857 -0.10791927 0.89784455
0.17600873 -0.10767577 0.90301806
0.17658296 -0.10697609 0.90809178
0.17796862 -0.10607687 0.91305
0.17970341 -0.10481821 0.91724557
0.18167588 -0.10353138 0.92078698
0.17501238 -0.1047666 0.89459795
0.17464498 -0.10489169 0.89846784
0.17461024 -0.10453797 0.9030633
0.17520294 -0.10407232 0.90765101
0.17620245 -0.10320728 0.91184688
0.17726536 -0.10220562 0.91502529
0.21637771 -0.12369458 0.8926537
0.21722709 -0.12396389 0.89581764
0.21801956 -0.12395483 0.90033412
0.21855582 -0.12335955 0.90502822
0.21874508 -0.12224238 0.90951782
0.21870796 -0.12106506 0.91276491
0.21141213 -0.12326606 0.88745511
0.2127306 -0.12417259 0.89095384
0.21341151 -0.12503763 0.89583999
0.2137856 -0.12523231 0.9007225
0.21437816 -0.12458133 0.90588731
0.21517965 -0.1231251 0.91061515
0.21554039 -0.12115356 0.91500461
0.21500506 -0.11934325 0.9184463
0.20760401 -0.12328067 0.88659853
0.20787755 -0.12489857 0.89120585
0.20924655 -0.12572831 0.89561331
0.2106199 -0.1258906 0.89909524
0.21163268 -0.12477703 0.90813136
0.21121499 -0.12365031 0.91187578
0.21088475 -0.12168905 0.91617358
0.21155003 -0.11901993 0.9201228
0.2104633 -0.11686902 0.92303371
0.20246519 -0.12142473 0.88319635
0.20278634 -0.12313534 0.88657343
0.20323616 -0.1246001 0.89024782
0.20634679 -0.12109613 0.91797996
0.206745 -0.11874477 0.92120188
0.20721273 -0.11621645 0.92405361
0.19795758 -0.12046508 0.88314188
0.19779038 -0.12241726 0.88704163
0.20335212 -0.12028591 0.91909605
0.20185661 -0.11798657 0.92175102
0.20276317 -0.11506321 0.92496502
0.19353318 -0.11891754 0.88331932
0.19296244 -0.12081602 0.88739067
0.19075738 -0.12101787 0.89046204
0.19701664 -0.11649526 0.92200375
0.1983346 -0.11360405 0.92528158
0.18930021 -0.11703101 0.88411725
0.18849802 -0.11842231 0.88763899
0.18761882 -0.11941946 0.891482
0.1907846 -0.11590901 0.91905737
0.19258994 -0.11408278 0.92224699
0.19397146 -0.11180273 0.92504227
0.18647818 -0.11543681 0.8848868
0.18451889 -0.11560698 0.88828099
0.18400595 -0.1170013 0.89295983
0.18281384 -0.11687332 0.8976472
0.18238802 -0.11661837 0.90121615
0.18325454 -0.1154421 0.90997404
0.1847737 -0.11486165 0.91383421
0.18681142 -0.11382856 0.91781837
0.18849123 -0.11133644 0.92192042
0.1816441 -0.11341899 0.88969445
0.18047172 -0.11348656 0.8934921
0.18007706 -0.11394741 0.89823627
0.18035313 -0.11414734 0.903238
0.18092325 -0.11350529 0.90824902
0.18186045 -0.11209693 0.91313213
0.1833363 -0.11043561 0.91749215
0.18530464 -0.10942507 0.92076325
0.17776561 -0.11092439 0.89867002
0.17774078 -0.11065705 0.90326333
0.17822452 -0.10995871 0.9080044
0.17940713 -0.10922163 0.9124676
0.18056156 -0.10859266 0.91546416
0.21114321 -0.12572005 0.90274715
0.21150573 -0.12541935 0.9049269
0.20557481 -0.12556422 0.89349908
0.20706625 -0.12601554 0.89700484
0.20813686 -0.12606618 0.90156227
0.20869122 -0.12546121 0.90642542
0.20870627 -0.12421953 0.91113687
0.20830055 -0.12298197 0.91439033
0.202134 -0.12513503 0.89275509
0.20258218 -0.12587178 0.89720261
0.20292823 -0.12596679 0.90218657
0.20348647 -0.12534064 0.90713602
0.20425087 -0.12398915 0.91194868
0.20487013 -0.12218209 0.91602886
0.19657464 -0.12316737 0.88970113
0.19749671 -0.12414728 0.8923797
0.19760917 -0.1250155 0.89758074
0.19792658 -0.12510745 0.90258962
0.19857907 -0.12448914 0.90761524
0.1993369 -0.12314437 0.91242045
0.20044374 -0.12107016 0.91708153
0.20028444 -0.11942799 0.9196319
0.19434483 -0.1224708 0.88991499
0.19276285 -0.12258865 0.89277685
0.19291002 -0.12346502 0.89796525
0.19323666 -0.12353699 0.90306187
0.19375974 -0.12287827 0.90803504
0.19458619 -0.12152789 0.91287136
0.19563866 -0.11943457 0.91751349
0.19727007 -0.11846988 0.91982961
0.18858103 -0.12065351 0.89380944
0.18838099 -0.12115346 0.89815778
0.18862894 -0.1211933 0.90335226
0.18932676 -0.12062424 0.90827829
0.19008504 -0.11921071 0.91311932
0.19132048 -0.11768761 0.9170621
0.18555734 -0.11888308 0.89508039
0.18470979 -0.11859339 0.89862788
0.1844416 -0.11818947 0.90347439
0.18505919 -0.11760534 0.90831423
0.18633237 -0.11676984 0.91281879
0.18814166 -0.11626926 0.91613299
0.18237811 -0.11622956 0.90440518
0.1827077 -0.11586125 0.90729684
