# .PCD v0.7 - Point Cloud Data file format
VERSION 0.7
FIELDS x y z
SIZE 4 4 4
TYPE F F F
COUNT 1 1 1
WIDTH 1439
HEIGHT 1
VIEWPOINT 0 0 0 1 0 0 0
POINTS 1439
DATA ascii
-0.26209486 0.19569755 0.48999998
-0.25955725 0.19620506 0.49000001
-0.25145781 0.19566341 0.49072725
-0.24713026 0.19608609 0.4907223
-0.24214128 0.19698894 0.49108818
-0.23777059 0.19796579 0.49325001
-0.23272014 0.196944 0.49156255
-0.2274994 0.19681843 0.49066663
-0.22284521 0.19677648 0.49116001
-0.21760182 0.19681658 0.49153328
-0.21197741 0.19658571 0.48999992
-0.20752175 0.19591162 0.49105543
-0.20202054 0.19567207 0.49082357
-0.19756843 0.19641139 0.49121737
-0.1925005 0.19635363 0.49148151
-0.1877075 0.19610006 0.49203855
-0.18249393 0.19619252 0.49090901
-0.17731108 0.19571237 0.49059996
-0.17244188 0.196079 0.49178261
-0.16747078 0.19622526 0.49120003
-0.16263095 0.19592333 0.49124995
-0.15757173 0.19557872 0.49179998
-0.15277745 0.19668435 0.49220002
-0.14731666 0.19651552 0.49220687
-0.14253543 0.19704863 0.49185714
-0.13771671 0.19678283 0.49145445
-0.13258518 0.19615571 0.49166662
-0.1276125 0.19719386 0.49060589
-0.12246233 0.19666289 0.49055544
-0.11736964 0.19644141 0.49136358
-0.11275516 0.19629432 0.49137497
-0.10750772 0.19694008 0.49152777
-0.10256761 0.19672555 0.49172726
-0.09743461 0.19684187 0.49179992
-0.092471555 0.19708762 0.49200004
-0.087534003 0.19696616 0.49191177
-0.082602158 0.1971595 0.49239281
-0.07723847 0.19701026 0.49137491
-0.072588876 0.19654873 0.49126086
-0.067660794 0.19598232 0.49165377
-0.062581696 0.19682176 0.49171433
-0.057523109 0.19664857 0.49209085
-0.052606016 0.19676334 0.49167639
-0.04770083 0.19638303 0.49155557
-0.042780995 0.19668128 0.49129167
-0.037418742 0.19655363 0.49184221
-0.032565158 0.19653454 0.49182606
-0.02764995 0.19621263 0.49231997
-0.022566183 0.19636197 0.49154165
-0.01763886 0.19677782 0.4925833
-0.012385023 0.19695847 0.49251509
-0.0074553685 0.19690704 0.49218178
-0.002703886 0.19698158 0.49235722
0.0024183458 0.19714502 0.49141183
0.0078090061 0.19691557 0.49107689
0.012693826 0.1964577 0.49200001
0.017521627 0.19651845 0.49143746
0.022572307 0.19602194 0.49167851
0.027305741 0.19669612 0.49149993
0.032480225 0.19716659 0.49162498
0.0375144 0.19776259 0.49134609
0.042423632 0.1976687 0.49213886
0.047446337 0.19678493 0.49199995
0.052570149 0.19681865 0.4912059
0.057388347 0.19688416 0.49140009
0.062486105 0.19679312 0.49077776
0.067494243 0.19619976 0.49165514
0.072579935 0.1969285 0.4915714
0.077212937 0.19675726 0.49190912
0.082685247 0.19689584 0.49265003
0.087708786 0.19679324 0.492625
0.092607848 0.1966393 0.49181256
0.097273082 0.19712836 0.49200007
0.10231955 0.19681357 0.492037
0.10759447 0.19641812 0.49168745
0.11236375 0.19631757 0.49192861
0.1171988 0.19631901 0.49175999
0.1224573 0.19631591 0.49163637
0.12757595 0.19669515 0.49170831
0.13247798 0.19622536 0.49140909
0.13751259 0.19603182 0.49178571
0.14242645 0.19629258 0.49168175
0.1476548 0.19653517 0.49185184
0.15235937 0.19624113 0.49175856
0.15731736 0.19591205 0.49148145
0.16233523 0.19638275 0.49190912
0.16764362 0.19688606 0.49170589
0.17299826 0.19677913 0.49252635
0.17745826 0.19624031 0.49214283
0.18244347 0.19645415 0.49189657
0.18750195 0.19655009 0.4918749
0.19232468 0.19615631 0.49144
0.19761495 0.19614692 0.49131814
0.20253618 0.19664057 0.49151847
0.20759423 0.19623144 0.4917917
0.21273723 0.19648238 0.49196559
0.21751572 0.19648029 0.49131814
0.22212817 0.19613183 0.49123809
0.22735587 0.19529152 0.49000001
0.23009643 0.19529152 0.49000001
-0.27564871 0.20255572 0.491
-0.27273476 0.20216462 0.49011758
-0.26752907 0.18916164 0.49900001
-0.26256025 0.18893743 0.49829999
-0.25967309 0.18957514 0.49900001
-0.17759888 0.1889549 0.49900001
-0.16617671 0.18957514 0.49900001
-0.1271036 0.18957514 0.49900001
0.23432271 0.18957514 0.49900001
0.23990457 0.18957514 0.49900001
0.24353978 0.18890995 0.49806669
0.2477102 0.18869813 0.49707696
0.25227746 0.18813902 0.49757689
-0.27548838 0.19329648 0.49900001
-0.27195027 0.19332692 0.49771431
-0.26734352 0.19211532 0.49727589
-0.26258105 0.19240293 0.49670267
-0.25772291 0.19226836 0.49688885
-0.25249004 0.19203791 0.49617389
-0.24710028 0.19266854 0.49646154
-0.24228559 0.1936197 0.49680761
-0.23734185 0.19316348 0.49757582
-0.23272505 0.19365515 0.49753845
-0.22775427 0.19433343 0.49717656
-0.22210924 0.19402853 0.4972353
-0.21751548 0.19341511 0.49795657
-0.21244536 0.1930804 0.49733338
-0.2076562 0.19260889 0.49659994
-0.20248523 0.19226474 0.49718913
-0.19749065 0.19304219 0.49755546
-0.19240668 0.19300668 0.49706665
-0.18740563 0.19286054 0.49672735
-0.18228731 0.19249232 0.49656248
-0.17728488 0.19220148 0.49680007
-0.17257337 0.19243135 0.4971112
-0.16733912 0.19229999 0.49718753
-0.1624525 0.19253078 0.49697375
-0.15751579 0.19319867 0.49729031
-0.15245777 0.19346073 0.49703994
-0.14755476 0.19359654 0.49703693
-0.14251605 0.19342242 0.49729633
-0.13753656 0.19366346 0.49729621
-0.13224578 0.1932223 0.49741375
-0.12751096 0.19235459 0.49789652
-0.12271208 0.19242193 0.49699992
-0.11742194 0.19280398 0.49682358
-0.1126271 0.19325525 0.49677777
-0.10737048 0.19382924 0.49732
-0.1023576 0.19350462 0.49756509
-0.097533114 0.19359317 0.49692303
-0.092423111 0.19346827 0.49714816
-0.08725246 0.19361725 0.49630433
-0.082568377 0.19341379 0.49692005
-0.077700816 0.19352151 0.49753568
-0.072336175 0.19318463 0.49723816
-0.067608021 0.19346525 0.49696156
-0.062518634 0.19397007 0.49676192
-0.057171207 0.19368388 0.4970476
-0.052439835 0.1931919 0.49737146
-0.047440201 0.19372645 0.49772006
-0.042548232 0.19341403 0.49718517
-0.037363991 0.19330314 0.49709669
-0.032555413 0.19303295 0.49713334
-0.027441552 0.19339254 0.49686661
-0.022371506 0.19360039 0.49739993
-0.017819921 0.19390947 0.49728569
-0.012551913 0.19362979 0.49731028
-0.0075719915 0.19365217 0.49733332
-0.0024340057 0.1936269 0.49746665
0.0027685645 0.1933689 0.49733332
0.0072884094 0.19274814 0.4964
0.012284364 0.19310546 0.49697056
0.017489575 0.19344461 0.49700004
0.022453446 0.19312404 0.49708819
0.027416322 0.19325371 0.49741381
0.03241697 0.19348636 0.49692309
0.037535597 0.19371662 0.4975186
0.042513575 0.19347571 0.49707997
0.047231574 0.19362645 0.49679998
0.052408494 0.19337322 0.49707136
0.057478577 0.19324408 0.49748394
0.062345076 0.19379133 0.49778268
0.067436934 0.19397232 0.49733338
0.072434753 0.19404401 0.49745455
0.077445909 0.19366337 0.49772403
0.082559019 0.19338959 0.49733335
0.087364271 0.19326514 0.49653846
0.092594586 0.1936242 0.49708
0.097784117 0.19331008 0.49665383
0.10243554 0.19295931 0.4970938
0.10733541 0.19310547 0.49712899
0.11227326 0.19327025 0.49709091
0.11745343 0.19287039 0.49667728
0.12254217 0.19308756 0.49712509
0.12740782 0.19317698 0.49682143
0.13252938 0.1929516 0.49619359
0.13746399 0.19328947 0.49659997
0.14223988 0.19325368 0.4966923
0.14758296 0.19311993 0.49695835
0.15250762 0.19336385 0.49670377
0.15768012 0.19324765 0.497069
0.16243464 0.19300824 0.49703228
0.16748865 0.19302712 0.49751514
0.17225748 0.19333214 0.49726662
0.17740574 0.19312027 0.49693555
0.18228205 0.19306742 0.49699992
0.18760456 0.19314104 0.49641666
0.19249015 0.19309138 0.49708334
0.19770055 0.19247638 0.49713337
0.2022543 0.19265158 0.49714273
0.20758079 0.19298647 0.49712905
0.21248281 0.19281451 0.49650002
0.21757531 0.19270231 0.49687505
0.22262052 0.19276094 0.49671432
0.22741361 0.19188236 0.49707997
0.23266338 0.19182636 0.49751851
0.23757841 0.19168368 0.49693751
0.24243763 0.19118561 0.49603993
0.24657087 0.1907163 0.49520001
-0.27040559 0.19556746 0.49650002
-0.26780456 0.19559699 0.49644443
-0.26451296 0.19636141 0.495
-0.24074942 0.19566923 0.495
-0.23745652 0.19602583 0.49499992
-0.23267445 0.19589996 0.49499995
-0.2279679 0.19580767 0.49499995
-0.22268486 0.195821 0.49554548
-0.21769829 0.19600299 0.49588227
-0.21300253 0.19606492 0.49512497
-0.20960309 0.19543852 0.495
-0.19622169 0.19543852 0.495
-0.19391455 0.19543852 0.495
-0.18560886 0.19543852 0.495
-0.18468599 0.19543852 0.495
-0.17545746 0.19543852 0.495
-0.17453459 0.19543852 0.495
-0.15976892 0.19543852 0.495
-0.15146323 0.19543852 0.495
-0.14961752 0.19543852 0.495
-0.13623613 0.19543852 0.495
-0.10327512 0.19546875 0.49624997
-0.092400521 0.19543852 0.49499997
-0.08547911 0.19543852 0.495
-0.082249127 0.19543852 0.49499997
-0.079019129 0.19543852 0.495
-0.065637738 0.19543852 0.495
-0.063330598 0.19543852 0.495
-0.057793472 0.19543852 0.495
-0.046719216 0.19543852 0.495
-0.042258751 0.19559233 0.49499997
-0.037952092 0.19566923 0.49499995
-0.032414965 0.19543852 0.49499997
-0.016265007 0.19543852 0.495
-0.013957869 0.19543852 0.495
-0.0016531384 0.19559234 0.49499997
0.0027374132 0.1960258 0.49499992
0.0070627127 0.19584869 0.49499995
0.010497782 0.19543852 0.495
0.018342048 0.19543852 0.495
0.022956323 0.19543852 0.495
0.028032023 0.19543852 0.495
0.03297589 0.19557036 0.49499995
0.037721999 0.19589996 0.49499995
0.041597988 0.19562308 0.49499997
0.062428877 0.19530158 0.49700001
0.072329052 0.19543852 0.49499997
0.077404752 0.19543852 0.49499997
0.082019031 0.19566923 0.49499995
0.085710451 0.19543852 0.495
0.092170432 0.19543852 0.495
0.098168984 0.19543852 0.495
0.10232183 0.19543852 0.49499997
0.10509039 0.19543852 0.495
0.11847179 0.19543852 0.495
0.12262464 0.19543852 0.49499997
0.12723891 0.19543852 0.49499997
0.13231462 0.19543852 0.49499997
0.15077171 0.19543852 0.495
0.16261502 0.19543852 0.495
0.16738309 0.19589996 0.49499992
0.17211272 0.1957846 0.49499995
0.2112187 0.19543852 0.495
0.2474764 0.18489708 0.50400001
0.25303113 0.18467414 0.50311112
0.25623336 0.18446158 0.50366664
-0.28059787 0.18959537 0.50400001
-0.27659312 0.18784808 0.50200003
-0.27253768 0.18767858 0.50161111
-0.26740259 0.18720531 0.50196159
-0.26264861 0.18770027 0.50221747
-0.25741366 0.18847635 0.50167745
-0.25251946 0.18837906 0.50228578
-0.24755365 0.18868193 0.50300008
-0.24290076 0.1890309 0.50321442
-0.23764168 0.18945982 0.50328571
-0.23197365 0.18921946 0.50383335
-0.22753467 0.18788786 0.50369567
-0.22252396 0.18829724 0.50304765
-0.21752118 0.18814658 0.50255561
-0.21268846 0.18870722 0.50229043
-0.20727016 0.18893883 0.5024783
-0.20259604 0.18893382 0.50253844
-0.1975701 0.18877143 0.50254172
-0.19252589 0.18902907 0.50261909
-0.18735106 0.18875679 0.50369239
-0.18239231 0.18886033 0.50205266
-0.17683305 0.18850057 0.50218749
-0.17266913 0.18853286 0.50210005
-0.16750585 0.18858752 0.50180781
-0.1628655 0.18926588 0.50246662
-0.15806448 0.189704 0.50279999
-0.15194817 0.18919598 0.50387502
-0.1475623 0.18907404 0.50300008
-0.1429119 0.18932913 0.50280005
-0.13714136 0.18936965 0.50339997
-0.13206311 0.18916802 0.50193745
-0.12753674 0.18916757 0.50162506
-0.12253161 0.18942052 0.50263643
-0.11745474 0.18893746 0.50350004
-0.11298207 0.18901056 0.5035556
-0.107806 0.18912534 0.50337499
-0.10441651 0.18959537 0.50400001
-0.097148567 0.18905236 0.50366664
-0.092768095 0.18907833 0.50325
-0.087432541 0.1894449 0.5036
-0.082804933 0.18959537 0.50400001
-0.077636942 0.18959536 0.50400001
-0.071789302 0.18921866 0.50300002
-0.067741469 0.18907093 0.50278568
-0.062615663 0.1890886 0.50323081
-0.057377834 0.18893747 0.50349998
-0.05249989 0.18901396 0.50336367
-0.047474172 0.18906172 0.50300002
-0.042230986 0.18853815 0.50337505
-0.037988357 0.188796 0.50312501
-0.032507535 0.18896882 0.50358343
-0.027182402 0.18917786 0.50307137
-0.022626592 0.18917786 0.50307143
-0.017465644 0.18921791 0.50300002
-0.012307912 0.18921795 0.50300008
-0.0077538458 0.18917786 0.50307149
-0.0027422418 0.1893304 0.50279999
0.0021332048 0.18927443 0.5029
0.0069205025 0.18931323 0.50325
0.013507554 0.18959537 0.50400001
0.017713673 0.18936965 0.50339997
0.022626786 0.18901533 0.50308341
0.026907381 0.18914375 0.50330007
0.032300234 0.18959537 0.50400001
0.037422501 0.18936966 0.50339997
0.042566489 0.18928188 0.50316668
0.046394743 0.18959537 0.50400001
0.05340603 0.18946998 0.50366664
0.057551656 0.18963312 0.50176471
0.062401447 0.18968177 0.50157148
0.066134386 0.18967797 0.50049996
0.077299036 0.18934458 0.50333333
0.08257065 0.18959537 0.50400001
0.087668255 0.18906905 0.5036
0.092130385 0.18911193 0.50342858
0.097720437 0.18882971 0.50321436
0.10248401 0.18928052 0.502087
0.10768835 0.18925586 0.50163645
0.11261363 0.18923284 0.50179994
0.11732781 0.18906553 0.50235003
0.12260775 0.18891186 0.50354552
0.12769783 0.18916804 0.50286674
0.13235261 0.18903106 0.50333339
0.13779311 0.18909766 0.50321436
0.14265814 0.18888947 0.50300002
0.14739133 0.18875831 0.50315005
0.15290275 0.18869908 0.50353855
0.15768212 0.18849136 0.50325012
0.16253878 0.18884276 0.50300008
0.16782428 0.18882446 0.50286359
0.17231596 0.18899988 0.50294745
0.17793354 0.18913233 0.50265008
0.1826487 0.18871748 0.50309527
0.18761551 0.18886566 0.50260878
0.19207707 0.18907692 0.50184208
0.19755116 0.18913926 0.50235301
0.20251769 0.18931457 0.50226665
0.20780726 0.18896936 0.50268179
0.21269505 0.1891828 0.50247055
0.21740648 0.18884704 0.50211108
0.22270437 0.18910912 0.5021739
0.22754419 0.18873589 0.50237036
0.23226956 0.18873169 0.50189286
0.23786776 0.18855765 0.50134623
0.24247983 0.18724866 0.50185716
0.24754655 0.1861601 0.50129169
0.25238606 0.18571837 0.50042856
0.25557679 0.18542969 0.50099999
-0.2810677 0.19100486 0.50400001
-0.2770578 0.19168217 0.50064707
-0.27336043 0.19181943 0.5
-0.25553259 0.19088724 0.5
-0.25219136 0.19075952 0.50039995
-0.24765794 0.19152996 0.50030434
-0.24249849 0.19097359 0.50104761
-0.23733205 0.19059624 0.50119996
-0.23234355 0.19137818 0.50182611
-0.22766343 0.19201654 0.50202948
-0.22275929 0.19198468 0.50066668
-0.21757095 0.19106236 0.50028569
-0.21311854 0.19088724 0.5
-0.20791453 0.19079664 0.50037497
-0.19729617 0.19070481 0.50057137
-0.19268718 0.19070312 0.50033331
-0.18740727 0.19054466 0.5014118
-0.18347219 0.19061109 0.50049996
-0.17070451 0.19088724 0.5
-0.16248928 0.19036768 0.50149995
-0.15701163 0.19078754 0.5011428
-0.15255208 0.19090244 0.50121742
-0.14736824 0.19122666 0.50089473
-0.14223766 0.19102941 0.50086671
-0.13752693 0.19101132 0.50125003
-0.13322595 0.1910563 0.50044441
-0.12162896 0.19047107 0.50136364
-0.11742546 0.19047566 0.50137496
-0.11214655 0.19102116 0.50113642
-0.10751238 0.19117199 0.50144011
-0.1023692 0.19098489 0.5014286
-0.097486496 0.19119582 0.5013479
-0.092540249 0.19091403 0.50147617
-0.087611705 0.19120264 0.50111544
-0.082546741 0.19110194 0.5016191
-0.077530183 0.19078714 0.50114292
-0.072478302 0.19085808 0.50081819
-0.067084588 0.19130783 0.50083327
-0.062459789 0.1914539 0.50111544
-0.057791889 0.19139645 0.50115395
-0.052624632 0.19064415 0.50164288
-0.047388021 0.19096835 0.50064707
-0.04252841 0.1910644 0.50128579
-0.037471138 0.1907731 0.50092852
-0.032404993 0.19071341 0.50200009
-0.027456537 0.19105566 0.50058824
-0.022510933 0.19096032 0.50049996
-0.017279658 0.19150782 0.50056529
-0.01224266 0.19101389 0.50033331
-0.0074155899 0.19106567 0.50047058
-0.0024482817 0.19101387 0.50033331
0.0026859762 0.19081755 0.50079995
0.0073699625 0.19068781 0.5019334
0.012687668 0.19065258 0.50135005
0.017630335 0.19079965 0.50100005
0.022101535 0.19062319 0.50138462
0.027815182 0.19100249 0.50190008
0.032616504 0.19104716 0.50164998
0.037426867 0.19116271 0.50126094
0.042505119 0.19083807 0.50126082
0.047659695 0.19106345 0.50113636
0.052568447 0.19091019 0.50113046
0.057678737 0.19088724 0.5
0.062572658 0.19158639 0.5
0.067692086 0.19155063 0.50040907
0.072506413 0.19123279 0.50138474
0.077448137 0.19089481 0.50125003
0.082327142 0.19079688 0.50131583
0.087675303 0.19110881 0.50165224
0.092611901 0.19126214 0.50152177
0.097137995 0.19114156 0.50090474
0.10242321 0.19088724 0.5
0.1078831 0.1910204 0.5
0.11259241 0.19148046 0.5
0.11787723 0.19087239 0.5007
0.12242198 0.19061169 0.50173336
0.12744568 0.19102557 0.50094116
0.13247862 0.19073981 0.50105888
0.13749281 0.19090126 0.50068426
0.14260179 0.19101389 0.50033331
0.14766802 0.19112292 0.50076467
0.15257418 0.1909308 0.50128573
0.15742549 0.19089675 0.50150001
0.16248409 0.19063617 0.50045449
0.16679397 0.19056062 0.50077778
0.17313935 0.19093882 0.50075001
0.17695965 0.1908585 0.50033331
0.18285398 0.19095634 0.50035709
0.18712217 0.19111831 0.50023079
0.19256663 0.19120786 0.50014287
0.19673136 0.1907264 0.50066662
0.20321779 0.19033802 0.50183332
0.20734441 0.19086261 0.50028569
0.21210976 0.19086227 0.50127268
0.21801311 0.19119796 0.5
0.22225186 0.19120488 0.50010002
0.22723973 0.19077678 0.50019997
-0.28529197 0.18297566 0.50650001
-0.28256503 0.18318097 0.50651711
-0.27758119 0.18378302 0.50721055
-0.27257285 0.18414703 0.50752622
-0.26816621 0.18401504 0.50842851
-0.26285303 0.18431066 0.50709087
-0.25825942 0.18444572 0.50677776
-0.24067858 0.18483341 0.509
-0.23925513 0.18483341 0.509
-0.23308694 0.18483341 0.509
-0.22644423 0.18483341 0.509
-0.22210185 0.18423536 0.50839996
-0.21756643 0.18410353 0.50873327
-0.2127751 0.18391868 0.50869226
-0.20767847 0.18436971 0.50772727
-0.20251982 0.18465185 0.50850004
-0.19750109 0.18483341 0.509
-0.19154382 0.18477499 0.50779998
-0.18753706 0.18483341 0.509
-0.18231779 0.18483341 0.509
-0.16699895 0.18456228 0.509
-0.16238973 0.18483341 0.509
-0.15906838 0.18483341 0.509
-0.15290017 0.18483341 0.509
-0.14862987 0.18483341 0.509
-0.12632941 0.18483341 0.509
-0.12300807 0.18483341 0.509
-0.086947754 0.18483341 0.509
-0.084575363 0.18483341 0.509
-0.076983713 0.18483341 0.509
-0.073187895 0.18483341 0.509
-0.067968637 0.18483341 0.509
-0.06180042 0.18483341 0.509
-0.058953557 0.18483341 0.509
-0.048040565 0.18483341 0.509
-0.021469805 0.18483341 0.509
0.0046264776 0.18483341 0.509
0.0060499115 0.18483341 0.509
0.017532276 0.18483341 0.509
0.02408007 0.18483341 0.509
0.026452459 0.18483341 0.509
0.034993064 0.18483341 0.509
0.035942014 0.18483341 0.509
0.059665911 0.18483341 0.509
0.0628291 0.18467523 0.509
0.06704668 0.18441163 0.509
0.071053378 0.18483341 0.509
0.10853713 0.18483341 0.509
0.11233296 0.18483341 0.509
0.11755221 0.18483341 0.509
0.12846521 0.18483341 0.509
0.13241918 0.18483341 0.509
0.14839327 0.18483341 0.509
0.15266356 0.18483341 0.509
0.15740834 0.18483341 0.509
0.16215314 0.18483341 0.509
0.16642343 0.18483341 0.509
0.17875984 0.18483341 0.509
0.18018329 0.18483341 0.509
0.19394314 0.18483341 0.509
0.19726448 0.18483341 0.509
0.20248376 0.18483341 0.509
0.20770299 0.18483341 0.509
0.21149881 0.18483341 0.509
0.21861599 0.18483341 0.509
0.22262749 0.18440203 0.50899994
0.22620764 0.18483341 0.509
0.23368376 0.18474263 0.50875002
0.23781767 0.18423328 0.5081538
0.24272215 0.18431039 0.50741166
0.24754362 0.18341814 0.50662488
0.25275207 0.18326034 0.50704539
0.25725386 0.18253063 0.50779301
0.26058829 0.18228078 0.50849998
-0.28539136 0.18526392 0.505
-0.28251609 0.1872761 0.50534785
-0.27818629 0.18610966 0.50516671
-0.2722322 0.18554313 0.50533336
-0.26712018 0.18552899 0.50592315
-0.26216462 0.18608831 0.50575
-0.25724295 0.18613759 0.50617647
-0.25235781 0.18656051 0.50717646
-0.24750526 0.18644916 0.50694996
-0.24259892 0.18684192 0.50664276
-0.23754433 0.18756118 0.50685722
-0.23281205 0.18754123 0.50745833
-0.22711092 0.18596324 0.50730765
-0.22267547 0.1861386 0.50628573
-0.21758892 0.18565266 0.50606251
-0.21244225 0.18607256 0.50604993
-0.20792624 0.18632242 0.50588882
-0.2025878 0.18621942 0.50604337
-0.19766861 0.18646732 0.50700003
-0.19239396 0.18662517 0.5061428
-0.18758823 0.1864278 0.50611997
-0.18250239 0.18670687 0.50687987
-0.17797489 0.18655181 0.50594449
-0.17229575 0.18618794 0.50666672
-0.16762102 0.18660529 0.50719047
-0.16240045 0.18709473 0.50656664
-0.1575776 0.18737984 0.50703031
-0.15246917 0.1870874 0.50713784
-0.14738224 0.18721466 0.50755543
-0.14220755 0.18726781 0.50724989
-0.13751481 0.1875881 0.50735486
-0.13260372 0.18719269 0.5075925
-0.12745842 0.18735938 0.50719994
-0.12267811 0.18724488 0.50703448
-0.11760828 0.18709207 0.50636357
-0.11232798 0.18698937 0.50651723
-0.10739337 0.18751748 0.50728577
-0.10243987 0.18793458 0.50713891
-0.097427048 0.18694799 0.50692588
-0.092271842 0.18745688 0.50707406
-0.087408677 0.18748222 0.50703114
-0.082407013 0.18740395 0.50677425
-0.077564433 0.18740696 0.50719351
-0.072667249 0.18717518 0.50669986
-0.067612685 0.18726502 0.50760704
-0.062486224 0.18710595 0.50715375
-0.057504423 0.1869444 0.50728571
-0.052311283 0.187031 0.50696284
-0.047457725 0.18686055 0.50700009
-0.042657163 0.18648572 0.50705004
-0.03738454 0.18666315 0.50703841
-0.032349505 0.18692666 0.50676924
-0.02738061 0.18706347 0.50663626
-0.02267519 0.18671122 0.50657701
-0.017535362 0.18715765 0.50741374
-0.01242664 0.18724947 0.50783992
-0.0076891975 0.18717529 0.50764006
-0.0023557867 0.18745454 0.50769705
0.0028190275 0.18728243 0.50710708
0.0074033304 0.18762468 0.50657141
0.012420133 0.18776099 0.50666666
0.017575266 0.18720488 0.50678784
0.022558708 0.18686581 0.50679994
0.027391145 0.18709441 0.50685185
0.032544009 0.18743053 0.50681072
0.037723646 0.18757161 0.5074333
0.042436901 0.18749703 0.50723326
0.04753251 0.18817304 0.50706244
0.052588575 0.18763657 0.50723529
0.057525758 0.18736197 0.50686669
0.062541746 0.18746004 0.50652933
0.067620769 0.18770757 0.50672972
0.072545692 0.18770137 0.50672215
0.077437811 0.18738033 0.50670964
0.082527004 0.18747717 0.50706047
0.087455973 0.18704994 0.50711107
0.092669003 0.1873769 0.50733322
0.097307816 0.18735208 0.50778258
0.10250261 0.18730211 0.50676191
0.10749793 0.18695657 0.50733328
0.11257339 0.18704389 0.50700003
0.11745312 0.18685885 0.50720829
0.12245669 0.18715598 0.507375
0.12743017 0.1869708 0.50717854
0.13252434 0.1870048 0.50707686
0.13732766 0.18682629 0.50669235
0.14216635 0.18653524 0.50654155
0.14745447 0.18643486 0.50709516
0.15240814 0.18667538 0.50657696
0.15755072 0.1862507 0.50640911
0.16254684 0.18646018 0.5064286
0.16741143 0.18642639 0.50677276
0.17244221 0.18660676 0.50594115
0.17733946 0.18688032 0.50683993
0.18262114 0.18678541 0.50786364
0.18773034 0.18682328 0.50790471
0.19265622 0.18696004 0.50715375
0.19755706 0.18698993 0.50703841
0.20264798 0.18706933 0.50699997
0.20742001 0.18680668 0.50695837
0.21262959 0.18670331 0.50665385
0.2174622 0.18657972 0.50699997
0.222491 0.18657254 0.50672007
0.22737992 0.18643139 0.50710529
0.23252 0.1861556 0.50649983
0.23738319 0.18655953 0.50575995
0.24249734 0.18563686 0.50537503
-0.28359807 0.19081941 0.50599998
-0.28608677 0.17959087 0.51300001
-0.2828764 0.17967838 0.51324999
-0.27514511 0.17994092 0.514
-0.27418682 0.17994092 0.514
-0.22627296 0.17994092 0.514
-0.22387725 0.17994092 0.514
0.25409311 0.17978139 0.51300001
0.25736615 0.17914657 0.51272732
0.26177517 0.17870098 0.51288891
-0.28584668 0.18083112 0.51200002
-0.2825211 0.18161467 0.51190472
-0.27760008 0.1817763 0.51218182
-0.27238986 0.18186456 0.51162964
-0.26735502 0.18323205 0.51266664
-0.26244029 0.18326421 0.51258337
-0.25735912 0.18346779 0.51240003
-0.25246105 0.1844091 0.51293755
-0.24756855 0.18480696 0.51300001
-0.24262306 0.18471681 0.51277775
-0.23758607 0.18286927 0.51252174
-0.23266089 0.18277605 0.51171887
-0.22733708 0.18278068 0.51192594
-0.22266699 0.18225344 0.5123201
-0.2174805 0.18204041 0.51135302
-0.2122315 0.18172647 0.51148009
-0.20758975 0.18303187 0.51204175
-0.20254107 0.18358716 0.51215005
-0.19747859 0.18355128 0.51164997
-0.1921877 0.18327606 0.51121062
-0.18731318 0.18283547 0.51138467
-0.18252447 0.18321458 0.5121482
-0.17761046 0.18326762 0.51269245
-0.1723022 0.18287674 0.51207149
-0.16768633 0.18309221 0.51170003
-0.16234004 0.18392344 0.51231587
-0.15738912 0.1839871 0.51305258
-0.15261984 0.18371004 0.51242107
-0.14758374 0.18381177 0.51240915
-0.14235523 0.18365455 0.51252383
-0.13748254 0.18373188 0.51255
-0.13248554 0.18358013 0.51219046
-0.12754391 0.18371035 0.51242858
-0.12267188 0.18393213 0.51222223
-0.11746292 0.18412545 0.51294118
-0.11255874 0.18378514 0.51276195
-0.10728775 0.18343368 0.51253855
-0.10255666 0.18368451 0.51255006
-0.097610399 0.18425226 0.51266664
-0.092617169 0.18355231 0.5122382
-0.087633304 0.18364218 0.51190007
-0.082298055 0.18376726 0.51225001
-0.077536136 0.18315952 0.51182604
-0.072685994 0.18358856 0.51214999
-0.067713134 0.1836855 0.5117895
-0.062380426 0.18418458 0.51231253
-0.057358854 0.18438253 0.51170003
-0.05245731 0.18381922 0.51250005
-0.047658507 0.1836651 0.51242852
-0.042428341 0.18383373 0.51259094
-0.037526637 0.183562 0.5126819
-0.032594863 0.18413283 0.51233333
-0.027593827 0.18350326 0.51278263
-0.022644004 0.18351603 0.5124616
-0.017332166 0.18434787 0.51293337
-0.012531768 0.18406057 0.51213342
-0.0076397397 0.18398276 0.51225001
-0.002509021 0.18377364 0.51266664
0.0027459885 0.18362388 0.51224995
0.0075158081 0.18396424 0.51186669
0.012255058 0.18383616 0.5126316
0.017344598 0.18384147 0.51228565
0.022761954 0.18349017 0.51236373
0.027443334 0.18325309 0.51208705
0.032357581 0.18366027 0.51235002
0.037475139 0.18356594 0.51191312
0.042735275 0.18361963 0.51242858
0.047649261 0.18369623 0.51244998
0.052194353 0.18372463 0.51182365
0.057354305 0.18413953 0.51218754
0.062403481 0.18389244 0.51200002
0.067964911 0.18404961 0.51289999
0.072501913 0.18420458 0.51253337
0.077274852 0.18371436 0.51250005
0.082090072 0.18402539 0.51273686
0.087391995 0.18437189 0.51300001
0.093091436 0.18477173 0.51366669
0.097503178 0.18431197 0.51264292
0.10268067 0.18398324 0.5124501
0.1075899 0.18367751 0.51240003
0.11251365 0.18342525 0.51218188
0.1173828 0.18310215 0.51192313
0.12235326 0.18347193 0.51234776
0.12747192 0.18374331 0.51244998
0.13247697 0.18389198 0.51166666
0.13773005 0.18359682 0.51261914
0.14252415 0.18329942 0.51239288
0.1474992 0.1834559 0.51209521
0.15240319 0.18346527 0.51161909
0.15741828 0.18361296 0.51177782
0.16256186 0.18360738 0.51214284
0.16742375 0.1834089 0.51171428
0.1725067 0.1835064 0.51223814
0.17738426 0.18365328 0.5121429
0.18234035 0.18351749 0.51214284
0.18756212 0.18327704 0.5123077
0.19256222 0.18339483 0.51216668
0.1977475 0.1829755 0.51207405
0.20247069 0.18272795 0.51233333
0.20765282 0.18304215 0.51225936
0.21244676 0.182732 0.51243335
0.2174684 0.18339504 0.51216668
0.22224146 0.18323557 0.51250005
0.22770512 0.18303408 0.51233333
0.23256584 0.18312351 0.51176012
0.23780696 0.18267526 0.51160002
0.24240491 0.18238042 0.51225001
0.24755345 0.18211271 0.51292592
0.25224724 0.18114428 0.51142102
0.2579025 0.18041116 0.51111108
0.26141366 0.18043566 0.51160002
-0.25605574 0.18531756 0.5103333
-0.25282705 0.1859794 0.5115
-0.24734131 0.18555966 0.51099998
-0.24352847 0.18519652 0.50999999
-0.23706289 0.18538669 0.50999999
-0.23291098 0.18551348 0.50999999
-0.22926617 0.18519652 0.50999999
-0.19503665 0.18519652 0.50999999
-0.19408582 0.18519652 0.50999999
-0.17744181 0.18567485 0.5104444
-0.17243232 0.18541551 0.51016665
-0.15700383 0.18519652 0.50999999
-0.15177433 0.18519652 0.50999999
-0.14663996 0.18531756 0.5103333
-0.14254509 0.18555965 0.51099998
-0.13725233 0.18548703 0.5108
-0.13228253 0.18519652 0.50999999
-0.12895465 0.18519652 0.50999999
-0.12051484 0.18537809 0.51049995
-0.11758717 0.18610391 0.51133335
-0.11253553 0.18571813 0.51099998
-0.10754641 0.1856757 0.51057136
-0.10284779 0.18526915 0.51019996
-0.097640119 0.18531756 0.5103333
-0.092773236 0.18568927 0.51037496
-0.089495622 0.18519652 0.50999999
-0.08236447 0.18519652 0.50999999
-0.079987422 0.18519652 0.50999999
-0.070954628 0.18519652 0.50999999
-0.067352772 0.18531756 0.5103333
-0.064298883 0.18519652 0.50999999
-0.056216914 0.18519652 0.50999999
-0.052413635 0.18519652 0.50999999
-0.047342595 0.18519652 0.50999999
-0.042444665 0.18525703 0.51016665
-0.037200518 0.18519652 0.50999999
-0.032459881 0.18526915 0.51019996
-0.028082808 0.18578003 0.510625
-0.022938214 0.18519652 0.50999999
-0.017246438 0.18534176 0.51039994
-0.012484834 0.18526915 0.51019996
-0.0077250944 0.18519652 0.50999999
-0.0024994283 0.18537809 0.51049995
0.0022585168 0.18519652 0.50999999
0.008438848 0.18567194 0.50999999
0.011834634 0.1854682 0.50999999
0.016996227 0.18519652 0.50999999
0.021750325 0.18519652 0.50999999
0.028938107 0.18555966 0.51099998
0.032259129 0.18548703 0.5108
0.038389683 0.18519652 0.50999999
0.042719685 0.18541439 0.51059997
0.047685422 0.18582085 0.51055557
0.051859632 0.18535499 0.50999999
0.056930672 0.18519652 0.50999999
0.07371521 0.18555966 0.51100004
0.077525012 0.18555965 0.51099998
0.082698874 0.1854144 0.51059997
0.087460801 0.18541439 0.51059997
0.092476085 0.18535863 0.5115
0.098279014 0.18557194 0.51028568
0.10271044 0.18592632 0.51069993
0.1058979 0.18519652 0.50999999
0.11334599 0.18519652 0.50999999
0.12269572 0.18535499 0.50999999
0.12586513 0.18519652 0.50999999
0.1334717 0.18519652 0.50999999
0.13775039 0.18519652 0.50999999
0.14250448 0.18519652 0.50999999
0.14583234 0.18519652 0.50999999
0.16912745 0.18519652 0.50999999
0.17259055 0.1858172 0.5104
0.17634431 0.1852873 0.51024997
0.18291433 0.18519652 0.50999999
0.18719302 0.18519652 0.50999999
0.1914717 0.18519652 0.50999999
0.21429139 0.18519652 0.50999999
0.21666844 0.18519652 0.50999999
0.2290291 0.18519652 0.50999999
0.23140615 0.18519652 0.50999999
0.25919598 0.17491797 0.51899999
0.26209876 0.17491797 0.51899999
0.26548535 0.17491797 0.51899999
-0.29072294 0.17862719 0.51899999
-0.28735408 0.17855528 0.5176667
-0.28262478 0.17882043 0.51770008
-0.27768037 0.17905338 0.51750004
-0.27234751 0.17897835 0.51800001
-0.26722088 0.17884856 0.51800001
-0.26257375 0.17907618 0.51866668
-0.25814709 0.17943354 0.51899999
-0.25298658 0.17975609 0.51899999
-0.24722129 0.17915131 0.51899999
-0.24251086 0.17868799 0.51855558
-0.23751429 0.17885892 0.51749998
-0.23277503 0.17916389 0.5176667
-0.22730222 0.17859343 0.51726311
-0.22291616 0.17882551 0.51833332
-0.21790488 0.1789373 0.51899999
-0.21234667 0.17848004 0.51825005
-0.20795795 0.17899451 0.51800001
-0.20239955 0.17912734 0.51845461
-0.19717401 0.17894377 0.51875001
-0.19303398 0.17943014 0.51885712
-0.18783489 0.17975609 0.51899999
-0.18239307 0.17882986 0.51893336
-0.17724121 0.17888479 0.51810533
-0.17258649 0.17928475 0.5189091
-0.16745019 0.179203 0.51880002
-0.16252057 0.17909908 0.51850003
-0.15784484 0.17921057 0.51866668
-0.15267876 0.17943352 0.51899999
-0.14741074 0.17932601 0.51899999
-0.14277241 0.17947961 0.51899999
-0.1375197 0.17927225 0.51899999
-0.13239783 0.17897278 0.51883334
-0.12766333 0.17853506 0.51826674
-0.12274658 0.17885168 0.51825005
-0.11734033 0.17912732 0.51845461
-0.11223112 0.17954829 0.51840001
-0.10752414 0.17975609 0.51899999
-0.10191207 0.17956257 0.51899999
-0.099460818 0.17943354 0.51899999
-0.091074951 0.17975609 0.51899999
-0.086882025 0.17959481 0.51899999
-0.082259052 0.17932601 0.51899999
-0.077528559 0.17927226 0.51899999
-0.072690569 0.17975609 0.51899999
-0.068013839 0.17943354 0.51899999
-0.062530778 0.17975609 0.51899999
-0.057038993 0.17938067 0.51871431
-0.052370984 0.17975609 0.51899999
-0.04693754 0.17871402 0.51899999
-0.043222778 0.17896438 0.51899999
-0.037856996 0.17975609 0.51899999
-0.032535199 0.17975609 0.51899999
-0.027213404 0.17975609 0.51899999
-0.022160387 0.17932601 0.51899999
-0.017887589 0.17926334 0.51862502
-0.013183215 0.17975609 0.51899999
-0.0078614186 0.17975609 0.51899999
-0.0023197143 0.17931622 0.51899999
0.0027821728 0.17927226 0.51899999
0.0076139234 0.17913373 0.51860005
0.012448938 0.17913371 0.51860005
0.016973628 0.17959481 0.51899999
0.022134157 0.17975609 0.51899999
0.027455954 0.17975609 0.51899999
0.03132635 0.17975609 0.51899999
0.038389824 0.17956257 0.51899999
0.042437196 0.17920299 0.51880002
0.046324138 0.17975609 0.51899999
0.050678335 0.17975609 0.51899999
0.063579656 0.17943354 0.51899999
0.067288786 0.17959481 0.51899999
0.071965516 0.17975609 0.51899999
0.082125314 0.17975609 0.51899999
0.087667018 0.17931622 0.51899999
0.092768908 0.17927226 0.51899999
0.097606905 0.17927225 0.51899999
0.1024449 0.17927225 0.51899999
0.10742112 0.17885756 0.51899999
0.11212089 0.17878844 0.51899999
0.11737958 0.17869225 0.5187223
0.12216568 0.17934647 0.51810002
0.12807889 0.17973408 0.51814288
0.13208432 0.17973408 0.51814288
0.13771725 0.17969836 0.51883334
0.14246382 0.17958292 0.51849997
0.14743824 0.17975609 0.51899999
0.15276004 0.17975609 0.51899999
0.15759805 0.17927225 0.51899999
0.16283022 0.17909829 0.51849997
0.16744053 0.1782681 0.51834786
0.17194659 0.17843363 0.51850003
0.17743383 0.17927225 0.51899999
0.18275563 0.17927226 0.51899999
0.18758027 0.17936131 0.5187
0.19223221 0.1791475 0.51746154
0.19755159 0.17897123 0.5174737
0.20277834 0.1790843 0.51793754
0.20729603 0.1788356 0.51780951
0.21236821 0.17891435 0.51641172
0.21701229 0.17927843 0.51762497
0.22302403 0.17939505 0.51888889
0.22761726 0.17916836 0.5187
0.23256113 0.17888606 0.51858336
0.23752072 0.17859864 0.51815784
0.24260168 0.17887491 0.51711768
0.24734052 0.17847355 0.51676202
0.25237533 0.1780701 0.51692593
0.25747254 0.17753386 0.51700002
0.26221073 0.1767811 0.51673073
0.26545671 0.17554669 0.51800001
-0.28912237 0.180291 0.51499999
-0.28116423 0.1802031 0.51566666
-0.27808073 0.180291 0.51499999
-0.27199429 0.18031214 0.51574993
-0.26759845 0.1812878 0.51510525
-0.26212052 0.18071163 0.51588237
-0.25730556 0.18123856 0.51666671
-0.25234893 0.18165384 0.51615387
-0.24764711 0.18224345 0.51641935
-0.24267213 0.18228349 0.51581484
-0.23759477 0.18045104 0.51499993
-0.23209541 0.1806546 0.51558328
-0.2289535 0.18093111 0.51499999
-0.22191587 0.18053445 0.51680005
-0.2178123 0.18074568 0.51650006
-0.21215665 0.18034509 0.51549995
-0.20700921 0.18105845 0.51589471
-0.20232221 0.18106791 0.51584995
-0.19748937 0.1814224 0.51608694
-0.1927401 0.18125542 0.51671433
-0.18754588 0.18106508 0.51687503
-0.18240094 0.1807795 0.51640004
-0.17771932 0.18074471 0.51519996
-0.17251651 0.18047576 0.51587498
-0.16712365 0.18140851 0.51599991
-0.16259427 0.18142991 0.51628011
-0.15736519 0.18120354 0.5158636
-0.15259279 0.1814006 0.51679999
-0.14753786 0.18140675 0.51652181
-0.14246204 0.18138234 0.51674998
-0.13738537 0.18135875 0.51668179
-0.13247161 0.18137132 0.51678944
-0.12752944 0.18122704 0.51623815
-0.12236141 0.1816045 0.51612008
-0.1175318 0.1814329 0.51620841
-0.11240023 0.1812471 0.51642865
-0.10761505 0.18115319 0.51712501
-0.10248274 0.18155545 0.51704758
-0.097658239 0.18178524 0.51642317
-0.092464983 0.18137977 0.51652628
-0.087455779 0.18135713 0.51626086
-0.082632788 0.18130274 0.51627278
-0.077135548 0.18112245 0.51636845
-0.072346963 0.18131241 0.51654994
-0.067515448 0.18188553 0.51704156
-0.062743284 0.18186732 0.51676005
-0.057729181 0.18194675 0.51583868
-0.052624006 0.18133818 0.51579994
-0.047322758 0.18148474 0.51671427
-0.042485688 0.1812776 0.51644987
-0.037525941 0.18119287 0.51666665
-0.03275384 0.18172881 0.51657695
-0.027632188 0.18097582 0.51599997
-0.022096043 0.18103729 0.51622218
-0.01743139 0.18155849 0.51588005
-0.012638506 0.18178217 0.51652002
-0.0079000872 0.18160784 0.51625007
-0.0025258756 0.18123664 0.51633334
0.0027687713 0.18129531 0.51650006
0.0075772866 0.18164305 0.51611996
0.012436103 0.18128459 0.5161429
0.01735691 0.18164124 0.51686358
0.022401033 0.18120931 0.51643485
0.027961232 0.18094815 0.51623523
0.032635644 0.18138234 0.51674998
0.037448861 0.18136473 0.51670003
0.042245436 0.18127769 0.51645005
0.04725676 0.1815732 0.51709527
0.052586507 0.18177301 0.51704001
0.057566084 0.18176839 0.51669222
0.062483042 0.18181016 0.51659989
0.06744463 0.1819998 0.51662964
0.072390184 0.18179896 0.51646161
0.077397622 0.18159325 0.51728576
0.082577676 0.18142974 0.51654172
0.087518111 0.18179688 0.51655996
0.092555441 0.18216273 0.51591182
0.097545587 0.18168423 0.51592308
0.10244782 0.18153173 0.51637501
0.10760597 0.1812515 0.51657152
0.11256572 0.18133038 0.51660001
0.11748084 0.18078744 0.51625001
0.12271687 0.18103272 0.51574993
0.12750418 0.18127997 0.51599991
0.13258708 0.18173559 0.51563638
0.13710864 0.18122323 0.51604533
0.14238675 0.18080321 0.51646668
0.14767103 0.1814128 0.51705265
0.15253688 0.18149315 0.51700008
0.15749764 0.18145858 0.51616669
0.16210441 0.18114063 0.51584202
0.16732819 0.18114716 0.5156191
0.17275408 0.18111356 0.51605272
0.17747825 0.18112706 0.51594728
0.18255852 0.18119194 0.51645452
0.18738261 0.18082418 0.51561105
0.19329949 0.18102996 0.51546657
0.1971361 0.18082444 0.51499993
0.20230718 0.18039049 0.51528567
0.20727094 0.18077108 0.51499993
0.21255171 0.180291 0.51499993
0.21798396 0.18103275 0.51535714
0.22267492 0.18083258 0.51568419
0.22753748 0.18082525 0.51618743
0.23255767 0.1809148 0.51678568
0.23725633 0.18098547 0.51586366
0.24291356 0.18049806 0.51524997
0.2475969 0.180291 0.51499999
0.25143746 0.180291 0.51499999
-0.29104215 0.17381045 0.52344447
-0.28794256 0.17370678 0.5242632
-0.2827341 0.17465447 0.52475005
-0.27809706 0.17498249 0.52499998
-0.27173495 0.17498249 0.52499998
-0.26781982 0.17498249 0.52499998
-0.26219177 0.17498249 0.52499998
-0.25950015 0.17498249 0.52499998
-0.2517997 0.17448781 0.52425003
-0.2473768 0.17471585 0.52420002
-0.24239819 0.17464921 0.52399999
-0.23712334 0.17402507 0.5237273
-0.23222783 0.17422648 0.52420002
-0.22743151 0.17414074 0.52377772
-0.22276147 0.17426485 0.52358335
-0.21756896 0.17432435 0.52420008
-0.21276312 0.17498249 0.52499998
-0.20791569 0.17481585 0.52450001
-0.20077302 0.17498249 0.52499998
-0.19714198 0.17432427 0.52412498
-0.19230725 0.17420481 0.52400005
-0.18804879 0.17498249 0.52499998
-0.18206106 0.1748714 0.52466661
-0.17792141 0.17464921 0.52399999
-0.17212631 0.17471588 0.52419996
-0.16736707 0.17484918 0.52460003
-0.13078985 0.17498249 0.52499998
-0.12932168 0.17498249 0.52499998
-0.10191569 0.17498249 0.52499998
-0.097197168 0.17449047 0.52462494
-0.09252283 0.17458218 0.52477777
-0.086534776 0.17456301 0.52500004
-0.082759462 0.17470281 0.52500004
-0.077095836 0.17476381 0.52483326
-0.072434224 0.17441717 0.5241428
-0.067477599 0.1740272 0.52359998
-0.062596545 0.17402723 0.52359992
-0.057692867 0.17444924 0.52339995
-0.051984563 0.17469612 0.52487499
-0.047103714 0.17498249 0.52499998
-0.041813295 0.17449045 0.524625
-0.03726555 0.1742598 0.52430004
-0.032385256 0.17429313 0.5244
-0.027246537 0.17396098 0.52299994
-0.023111727 0.17436273 0.52314287
-0.017704129 0.17464921 0.52399999
0.018474901 0.17498249 0.52499998
0.073286884 0.17498249 0.52499998
0.077528283 0.17498249 0.52499998
0.082095943 0.17498249 0.52499998
0.086500481 0.17498249 0.52499998
0.11928979 0.17498249 0.52499998
0.12189988 0.17498249 0.52499998
0.12744634 0.17498249 0.52499998
0.13103521 0.17498249 0.52499998
0.14963213 0.17498249 0.52499998
0.15256849 0.17498249 0.52499998
0.16274109 0.1748714 0.52466673
0.16758084 0.17481585 0.52450001
0.17165481 0.17498249 0.52499998
0.17784691 0.17457116 0.52450001
0.18229423 0.17454164 0.52416664
0.18713792 0.17481585 0.52450001
0.19416687 0.17498249 0.52499998
0.19751684 0.17451239 0.52442855
0.20179157 0.17446479 0.52428573
0.20747392 0.17464922 0.52399999
0.21281001 0.17436232 0.52444446
0.21693654 0.17460068 0.52483338
0.22356804 0.17458674 0.52440006
0.22771788 0.17432646 0.52450001
0.23229624 0.17449047 0.524625
0.23794743 0.17456 0.52457142
0.24196087 0.17440714 0.52437502
0.24801216 0.17432454 0.52420002
0.25286165 0.17383255 0.52374989
0.25774077 0.17415439 0.52325004
0.2625373 0.17380816 0.52268183
0.26666611 0.17299432 0.5231111
-0.29205373 0.17673025 0.52022219
-0.287561 0.17621084 0.52139997
-0.2827934 0.17648472 0.52214283
-0.27748516 0.17681178 0.52213794
-0.27252308 0.17692252 0.52259088
-0.26730463 0.17663306 0.52285707
-0.26265141 0.17726232 0.52283329
-0.25768375 0.17792287 0.52336365
-0.25244865 0.17764989 0.52271998
-0.24769798 0.17680691 0.5214783
-0.2426388 0.17630765 0.52161908
-0.23741844 0.17664282 0.52215993
-0.23240773 0.17683291 0.52204162
-0.2275598 0.17646554 0.5218333
-0.22222292 0.17620865 0.52124989
-0.21757093 0.17661667 0.52191305
-0.21275824 0.17638247 0.52238888
-0.20744643 0.17687178 0.52180761
-0.20260735 0.17699471 0.52281481
-0.19749856 0.17679949 0.52222723
-0.19233604 0.17718281 0.52150005
-0.1875536 0.17718333 0.5216552
-0.1825598 0.1763837 0.5215714
-0.17745006 0.17627567 0.52152377
-0.17259869 0.17685857 0.52176917
-0.16766542 0.17685872 0.52187997
-0.16256194 0.1773705 0.52224004
-0.15743369 0.17769356 0.52211106
-0.15242456 0.17775702 0.52121049
-0.14750721 0.17734778 0.52225012
-0.14255349 0.17727172 0.52241373
-0.13767929 0.1771508 0.52239996
-0.13268025 0.17676841 0.52233332
-0.12745737 0.17669581 0.52290469
-0.12245391 0.17718488 0.5228461
-0.1174716 0.17728478 0.52254164
-0.1122728 0.17813982 0.52255988
-0.10753319 0.17771281 0.52296662
-0.10266102 0.17757817 0.52257144
-0.097540163 0.17756671 0.52253336
-0.092616156 0.17746554 0.52223331
-0.087799042 0.17747188 0.52273339
-0.082584918 0.17716254 0.52257144
-0.077387415 0.17713235 0.52257693
-0.072348163 0.17733416 0.52170968
-0.06727533 0.17713805 0.52151728
-0.062381845 0.17731763 0.52179998
-0.057565887 0.17718808 0.52192855
-0.052684423 0.17742005 0.52209997
-0.048022322 0.17670143 0.52204347
-0.042280078 0.17675734 0.52169228
-0.037337217 0.17737389 0.52157575
-0.032220013 0.17729491 0.52173322
-0.027407601 0.17727084 0.52141374
-0.022477984 0.17689067 0.52139997
-0.017546508 0.17727938 0.52248144
-0.012782612 0.17752118 0.52239996
-0.007736126 0.17755871 0.52287489
-0.0026125119 0.17756034 0.52288896
0.002893592 0.1774148 0.52242857
0.0075771129 0.17741513 0.52242851
0.01268312 0.17744285 0.52281815
0.017473085 0.17740656 0.52231038
0.022270627 0.17745247 0.52219993
0.027239006 0.17757151 0.5223226
0.03261397 0.17805189 0.52309996
0.037567563 0.17753755 0.52283329
0.042756587 0.17762357 0.52269995
0.047548447 0.17807513 0.5218181
0.052597724 0.17776518 0.52260715
0.057322502 0.1780729 0.52322221
0.062316354 0.17784749 0.52203846
0.067662053 0.17755023 0.52226925
0.072521098 0.17750525 0.52248484
0.07770998 0.17770201 0.5229333
0.082551129 0.17740446 0.52229041
0.087553158 0.17733723 0.52296156
0.092463888 0.17739014 0.52320832
0.097540595 0.17782795 0.52309525
0.10263799 0.1776361 0.52245003
0.10745688 0.17709181 0.52366662
0.11257378 0.17722946 0.52361107
0.11733779 0.17686749 0.52342111
0.12262569 0.17721182 0.52282757
0.12764181 0.17754275 0.52246672
0.13253814 0.17757756 0.52256662
0.13749288 0.17761761 0.52254838
0.1425211 0.17758676 0.52254838
0.14743863 0.17753263 0.52243328
0.15238822 0.17734845 0.5218485
0.15744808 0.17696038 0.52196151
0.1623131 0.17660993 0.52171999
0.16737443 0.17604014 0.52233332
0.17259289 0.17650557 0.52252936
0.17745954 0.17687358 0.52192312
0.18237872 0.17683151 0.52179992
0.1873448 0.17692007 0.52173066
0.19249929 0.17702512 0.52217239
0.19753754 0.1767032 0.52204341
0.20249696 0.1767157 0.5219565
0.20751071 0.17649853 0.52224994
0.21250515 0.17696783 0.52219993
0.21760811 0.1771778 0.52193105
0.22235757 0.17712742 0.52203703
0.22756219 0.17691328 0.52214283
0.23253715 0.17673564 0.5218749
0.23764198 0.17638823 0.52185702
0.24264571 0.17675796 0.52185714
0.2474471 0.17637952 0.52208692
0.25227037 0.17590128 0.52156252
0.25721556 0.17597015 0.52171427
-0.25605923 0.18010242 0.51999998
-0.25266612 0.18010242 0.51999998
-0.10773131 0.18010242 0.51999998
-0.10482292 0.18010242 0.51999998
-0.096328229 0.18036559 0.52019995
-0.093674093 0.18010242 0.51999998
-0.066044383 0.18010242 0.51999998
-0.010784957 0.18010242 0.51999998
0.033810366 0.18010242 0.51999998
0.035749298 0.18010242 0.51999998
0.048837051 0.18010242 0.51999998
0.053199638 0.18010242 0.51999998
0.057599742 0.18021788 0.52033335
0.060955349 0.18010242 0.51999998
0.074527837 0.18010242 0.51999998
0.077466384 0.1801717 0.52019995
0.26908639 0.16975386 0.52700001
0.27056015 0.16975386 0.52700001
-0.29543623 0.17056818 0.528
-0.29257518 0.17106245 0.52709997
-0.28732762 0.17182782 0.52673334
-0.28234431 0.17280628 0.52799994
-0.27769399 0.17276034 0.5278846
-0.27252248 0.1730409 0.52739125
-0.26744026 0.17316042 0.52759087
-0.26283586 0.17302567 0.52759099
-0.25765172 0.17277405 0.52783334
-0.25228736 0.17269744 0.52788895
-0.24746752 0.17313512 0.52795833
-0.24250706 0.17324451 0.52766675
-0.2376525 0.17252605 0.52773684
-0.23255862 0.17241608 0.52777272
-0.22732213 0.17268309 0.52766663
-0.22243592 0.17245673 0.528
-0.21752398 0.1727612 0.52776194
-0.21250391 0.17354847 0.52795458
-0.20726946 0.17311214 0.528
-0.20253839 0.17351881 0.52733332
-0.19764461 0.1735945 0.52781814
-0.19234431 0.17317052 0.52806246
-0.18781216 0.17342274 0.52858323
-0.18277216 0.17329684 0.5286957
-0.17743301 0.17325643 0.52825928
-0.17227791 0.173292 0.52823806
-0.16722083 0.17343257 0.52752376
-0.16256058 0.17373595 0.52889472
-0.1574086 0.17348067 0.52838087
-0.1524006 0.1733418 0.52859998
-0.14748427 0.17325844 0.52870828
-0.1426706 0.17319007 0.52837503
-0.13759817 0.17316532 0.5283078
-0.1325532 0.17342022 0.52883989
-0.12762904 0.17316903 0.52856523
-0.12281402 0.1729721 0.52770841
-0.1176383 0.17304932 0.52786219
-0.11252271 0.17291254 0.52804345
-0.10747205 0.17286852 0.52718526
-0.10241656 0.1725961 0.52793109
-0.09770184 0.17274255 0.52795452
-0.092504524 0.17272756 0.52790904
-0.087834015 0.17281936 0.52736837
-0.082441375 0.17316461 0.52763158
-0.077558935 0.17294361 0.528
-0.072549857 0.17288302 0.5280869
-0.067773879 0.17269911 0.52770579
-0.062505543 0.17314307 0.52817637
-0.057325721 0.17308858 0.52796155
-0.052382007 0.17310017 0.52722228
-0.047241788 0.17293017 0.52745825
-0.042570692 0.17269796 0.5278182
-0.03752882 0.1725342 0.528
-0.032768354 0.17268029 0.52794445
-0.02766284 0.17295671 0.52757138
-0.022425113 0.17347801 0.52731246
-0.017849231 0.17360112 0.52825004
-0.012726826 0.17307881 0.52815992
-0.0075001954 0.1734101 0.52766669
-0.0019548999 0.1731015 0.52740914
0.0027005619 0.17308368 0.52765226
0.007759477 0.17366695 0.52845001
0.012821549 0.17345485 0.52878261
0.017618457 0.17324965 0.52868003
0.022548916 0.17326246 0.52872002
0.027391639 0.17292839 0.52848148
0.032253467 0.17397109 0.52824998
0.03747952 0.17382956 0.52844441
0.042228974 0.17361769 0.52829999
0.047367003 0.1735047 0.52768189
0.052560497 0.17358473 0.52819991
0.057407912 0.17371815 0.52868414
0.062407676 0.17393443 0.52919036
0.067495644 0.17395426 0.52835292
0.072879016 0.17374071 0.52788228
0.077512816 0.17387605 0.52829403
0.081906721 0.17427415 0.52819997
0.08870247 0.17466904 0.52819997
0.092514232 0.17470279 0.52859992
0.097713739 0.17444319 0.52884609
0.10233904 0.17366758 0.52844995
0.10746953 0.17320324 0.52796167
0.11242274 0.17351921 0.52814996
0.11784668 0.17364888 0.528
0.12293396 0.17354825 0.5272941
0.12748237 0.17312613 0.52791309
0.13247916 0.17377988 0.52799994
0.13780576 0.17382979 0.52844447
0.14252231 0.17334066 0.52858335
0.14732401 0.17331168 0.52847832
0.15207091 0.17329724 0.52830434
0.15725039 0.17319058 0.52812499
0.16243652 0.1731268 0.52807689
0.16746719 0.17351153 0.52833331
0.17264161 0.17335464 0.52808702
0.17729361 0.17330498 0.52794999
0.18284911 0.17318296 0.52819043
0.18756181 0.1729629 0.52792311
0.1924063 0.17295749 0.52766669
0.19742103 0.17290764 0.52799994
0.20256053 0.17284699 0.52786374
0.20755765 0.17292835 0.52803707
0.21225218 0.17252664 0.52791303
0.21775705 0.17271131 0.52776003
0.22257464 0.1733539 0.52805251
0.22748868 0.17304522 0.5283888
0.23235013 0.1726667 0.52804762
0.23743632 0.17252199 0.52806675
0.2425984 0.17225608 0.52807689
0.2476431 0.17246275 0.52789295
0.25243834 0.17190796 0.52786368
0.25741008 0.17192404 0.52763993
0.26226756 0.17204392 0.52747059
0.26737842 0.1713336 0.52783328
0.27055246 0.17177315 0.52666664
-0.27617514 0.17531581 0.52600002
-0.27470419 0.17531581 0.52600002
-0.26587832 0.17531581 0.52600002
-0.26391706 0.17531581 0.52600002
-0.25747278 0.17559601 0.52600002
-0.25411054 0.17531581 0.52600002
-0.2119426 0.17531581 0.52600002
-0.20556837 0.17531581 0.52600002
-0.20311676 0.17531581 0.52600002
-0.18595538 0.17531581 0.52600002
-0.18448441 0.17531581 0.52600002
-0.17565855 0.17531581 0.52600002
-0.16268976 0.17602645 0.52700001
-0.15702955 0.17640273 0.52676922
-0.15234961 0.17621814 0.52650005
-0.1478399 0.17583407 0.52671427
-0.14242581 0.17544913 0.52639997
-0.13741322 0.17531581 0.52600002
-0.13349062 0.17531581 0.52600002
-0.1271164 0.17531581 0.52600002
-0.12270347 0.17531581 0.52600002
