# .PCD v0.7 - Point Cloud Data file format
VERSION 0.7
FIELDS x y z
SIZE 4 4 4
TYPE F F F
COUNT 1 1 1
WIDTH 800
HEIGHT 1
VIEWPOINT 0 0 0 1 0 0 0
POINTS 800
DATA ascii
0.033864226 -0.0067782099 0.53358328
0.037504431 -0.0069148596 0.53304541
0.041000485 -0.0063645039 0.53366661
0.033967216 -0.0026697426 0.53354543
0.037559804 -0.0022976038 0.53308338
0.040643234 -0.0032107241 0.5333333
0.03770734 0.00076700427 0.53399998
0.024996884 -0.010279857 0.53899997
0.02809344 -0.011189995 0.53785717
0.032872036 -0.011229686 0.53633338
0.03806274 -0.011470264 0.53652948
0.042675607 -0.011557864 0.53700006
0.045830093 -0.011068157 0.53819996
0.024996884 -0.0087724878 0.53899997
0.027996823 -0.0073239938 0.53716671
0.031762227 -0.0076063545 0.53576934
0.038775384 -0.0092061143 0.53500003
0.043385074 -0.0074892975 0.53615785
0.046431452 -0.007469424 0.53766668
0.02894628 -0.0025921087 0.53771436
0.031869389 -0.0018717042 0.53628576
0.039772812 -0.00022901478 0.53500003
0.042804085 -0.0023396036 0.53616673
0.045512456 -0.0032394449 0.53799999
0.033166967 0.0023944641 0.53728569
0.037885066 0.0030451668 0.53650004
0.041519888 0.0021541649 0.53825003
0.034624711 0.0061187558 0.53766668
0.037124887 0.0073273145 0.53829414
0.04007018 0.0063012075 0.53899997
0.022981251 -0.015751036 0.54283339
0.026809359 -0.015786991 0.54262501
0.031971589 -0.01543693 0.54366666
0.036385059 -0.015446395 0.54400003
0.042716358 -0.015582307 0.54283333
0.047287457 -0.0158877 0.54366672
0.050583974 -0.015446395 0.54400003
0.019143518 -0.011896571 0.54400003
0.022089286 -0.012351388 0.54167998
0.026688822 -0.013406912 0.54038459
0.03213286 -0.013841222 0.54070002
0.036976106 -0.01390806 0.54111111
0.042027712 -0.014171508 0.54049999
0.047728416 -0.012767056 0.54126316
0.05175389 -0.012324456 0.54311758
0.019143518 -0.009360983 0.54400003
0.022194793 -0.0073917178 0.54220837
0.02529495 -0.0060201255 0.54000002
0.048600223 -0.0072930506 0.54109997
0.051310398 -0.0082234116 0.54333335
0.023460288 -0.0028644165 0.5430001
0.026298612 -0.0019337732 0.54124999
0.044171523 -0.00023115511 0.54000002
0.047070082 -0.0020495367 0.54166675
0.027775824 0.0025197198 0.54205555
0.030903777 0.0036895578 0.54077774
0.043373153 0.0032120273 0.54049999
0.045945615 0.0022406178 0.54244447
0.029098621 0.0075390381 0.54366666
0.032121979 0.0079371026 0.542
0.037459854 0.0096688233 0.54000002
0.042048622 0.0077886805 0.54144454
0.04551293 0.006359661 0.54400003
0.033229001 0.012665758 0.54326665
0.037239466 0.012898889 0.5416801
0.041387044 0.012385949 0.54307693
0.034356643 0.015994895 0.54400003
0.037234999 0.016928283 0.5437144
0.0085724061 -0.015588365 0.54900002
0.012451343 -0.016907847 0.54882348
0.017235298 -0.017089553 0.54785001
0.021979768 -0.017600764 0.54785717
0.027673578 -0.017835928 0.54724997
0.032563511 -0.017250618 0.546875
0.037809085 -0.017344581 0.54735297
0.042637788 -0.017577894 0.54715383
0.047978785 -0.018177442 0.54630768
0.052754764 -0.017024066 0.54670578
0.056616735 -0.016799036 0.54840004
0.0085724061 -0.013029471 0.54900002
0.01306319 -0.013529102 0.54849994
0.016794281 -0.012550403 0.5461905
0.054372776 -0.012555886 0.54512501
0.056932539 -0.012622266 0.54721421
0.017524598 -0.0075846384 0.54684216
0.02019478 -0.0053137927 0.54500002
0.049752004 -0.0053235427 0.546
0.053336438 -0.0069977348 0.54621428
0.055839069 -0.0077905455 0.54779994
0.019107725 -0.0030993905 0.54880005
0.021394758 -0.0018623312 0.54626667
0.049643096 -0.0019324796 0.54666668
0.052014936 -0.0025482848 0.54766661
0.022809306 0.0025063178 0.54747373
0.025730478 0.0035443339 0.54542857
0.048594456 0.0031416535 0.54656249
0.051312268 0.0019796379 0.54816669
0.024181237 0.0066740029 0.54900002
0.026860271 0.0079143234 0.54627776
0.044222794 0.0087185642 0.54560006
0.047365982 0.0074269436 0.54783338
0.050025366 0.0059063351 0.54900002
0.027783994 0.01212943 0.54693747
0.0308151 0.012696421 0.54542857
0.044057246 0.012881256 0.54637498
0.046443012 0.011024121 0.54900002
0.029219067 0.015843309 0.54750001
0.032253876 0.017325945 0.54668176
0.037818786 0.018909076 0.54516673
0.04260328 0.017053159 0.54686356
0.033691108 0.021507837 0.54818183
0.037624758 0.022215297 0.54728007
0.041439552 0.021623017 0.5478
0.037687261 0.025316974 0.54819995
0.018462569 -0.025026247 0.55400002
0.017672598 -0.02236717 0.55136853
0.022123938 -0.022105474 0.55193758
0.027931491 -0.021718664 0.55269229
0.032895256 -0.02190988 0.55353332
0.037138518 -0.021681316 0.55355555
0.042572916 -0.021146733 0.5528571
0.047279224 -0.021365909 0.5528
0.052700892 -0.021628218 0.55291665
0.057429034 -0.022230951 0.55294442
0.061658114 -0.021779407 0.5535
0.013714992 -0.019718444 0.55000001
0.017303873 -0.019718444 0.55000001
0.022430843 -0.019718444 0.55000001
0.027557814 -0.019718444 0.55000001
0.032715429 -0.019565465 0.55050004
0.037880503 -0.019754294 0.551
0.042805929 -0.019565465 0.55050009
0.046527609 -0.019718444 0.55000001
0.052167274 -0.019718444 0.55000001
0.058044773 -0.01854891 0.55038464
0.06198889 -0.017567875 0.55222225
0.011568299 -0.011863235 0.55033338
0.059210107 -0.012205355 0.55033332
0.061409708 -0.012853038 0.55241668
0.012514501 -0.0075877337 0.55263627
0.015685428 -0.006191799 0.55079997
0.057860199 -0.0074354461 0.55161542
0.06069972 -0.0095158517 0.55299997
0.013577647 -0.0027716798 0.55390906
0.016888959 -0.0020867265 0.55159998
0.054091848 -0.0014674027 0.55080003
0.056155719 -0.0024826219 0.55254549
0.017948797 0.0024536673 0.55238891
0.020917764 0.0038721794 0.55066663
0.053117353 0.0028530383 0.55239999
0.055645227 0.0013121706 0.55400002
0.01949542 0.0075094458 0.55400002
0.022056941 0.0076748612 0.55193758
0.04909109 0.0084806476 0.55000001
0.051083826 0.0074841464 0.55212504
0.023076613 0.011682831 0.55322224
0.02598248 0.013334578 0.55140001
0.048068427 0.012529231 0.55085719
0.05070376 0.011269583 0.55266666
0.02465968 0.015256038 0.55400002
0.027505379 0.017375333 0.5522632
0.046893883 0.016983617 0.55257142
0.028738186 0.022079114 0.55299991
0.031858392 0.022949344 0.55092865
0.043272547 0.022834526 0.55133331
0.045490563 0.021644771 0.55360001
0.029823938 0.026101269 0.55400002
0.03314729 0.027309082 0.55204761
0.037629724 0.027884653 0.55066675
0.041070078 0.027574606 0.55244446
0.034182444 0.030979693 0.5535
0.037251089 0.031986013 0.5533846
0.040116213 0.031237913 0.5535
0.023829695 -0.02658475 0.55630004
0.027630763 -0.026271213 0.55700004
0.032553237 -0.025658883 0.55650002
0.037283912 -0.025179837 0.55740005
0.042160746 -0.025614709 0.558375
0.048146732 -0.025491806 0.55771428
0.052871857 -0.025798142 0.5564546
0.057569265 -0.025747506 0.5553636
0.062598303 -0.025641475 0.55612499
0.066843495 -0.02549991 0.555875
0.02346253 -0.023829727 0.55500001
0.027378406 -0.023753408 0.55528575
0.032464564 -0.024036676 0.55500001
0.037793726 -0.023535546 0.55537498
0.042114202 -0.02319444 0.55576921
0.047484487 -0.023527965 0.55519998
0.052253507 -0.023648646 0.55500001
0.059367176 -0.024036676 0.55500001
0.063132443 -0.023136687 0.555125
0.067182541 -0.022502933 0.55545002
0.070358232 -0.022006771 0.55599999
0.064023398 -0.019380331 0.55500001
0.067235626 -0.01796414 0.55658334
0.070611328 -0.019484155 0.55799997
0.063678645 -0.012273855 0.55537504
0.066655099 -0.01351514 0.55769241
0.009194483 -0.0071423664 0.55566669
0.010224304 -0.0064492873 0.55533332
0.059625853 -0.006187351 0.55500001
0.062582225 -0.0077025057 0.55712503
0.0088621238 -0.0031786917 0.55649996
0.011260773 -0.0019386273 0.5554285
0.058757745 -0.0024028756 0.55590904
0.061157763 -0.002551229 0.55822223
0.012773081 0.0024422701 0.55726314
0.016003355 0.0039072181 0.55571431
0.054452274 0.0041600838 0.55500001
0.057449985 0.0028801414 0.55746669
0.060316138 0.0013240133 0.55900002
0.014193496 0.0067928797 0.55875003
0.017094277 0.0074414629 0.55659997
0.053850446 0.0076759546 0.55581814
0.056307539 0.0067834132 0.55800003
0.01874209 0.01179618 0.55724996
0.021309704 0.013365577 0.55514294
0.052541289 0.012366708 0.55574995
0.055105269 0.010703823 0.55900002
0.019662576 0.016950145 0.55875003
0.022608457 0.017489048 0.55654162
0.025738908 0.01890518 0.55500001
0.048890673 0.018258465 0.55500001
0.051356837 0.017209938 0.55636364
0.023790261 0.021157619 0.55785716
0.026623264 0.022888148 0.55619997
0.044363793 0.024596268 0.55500001
0.047950249 0.022684367 0.55615789
0.050875828 0.021621741 0.5583334
0.028553756 0.02782423 0.55746669
0.031185091 0.029007338 0.55525005
0.043555465 0.027982377 0.5558461
0.046829745 0.027438171 0.55806667
0.029127838 0.031881534 0.55800003
0.032341693 0.032883815 0.55624992
0.037224256 0.034219384 0.55499995
0.042452436 0.032361113 0.55618757
0.045725707 0.031026745 0.55900002
0.032603629 0.036658417 0.55799997
0.037187759 0.037599765 0.55600005
0.041382879 0.03704229 0.55764288
0.03750854 0.040673349 0.55857146
0.040514842 0.040406555 0.55900002
0.028785033 -0.030735601 0.56400001
0.030362276 -0.030735601 0.56400001
0.059278391 -0.030735601 0.56400001
0.027894439 -0.029167086 0.56271428
0.032378498 -0.028556449 0.56246668
0.037595194 -0.028015088 0.56209999
0.042832319 -0.027616614 0.56081814
0.046871144 -0.027460823 0.56150001
0.051572025 -0.027397644 0.56025004
0.058052152 -0.028503396 0.56316674
0.062415 -0.028335674 0.56130761
0.066379331 -0.02879505 0.56033331
0.069820374 -0.015900699 0.56
0.070906602 -0.01695423 0.56033331
0.068602733 -0.012027707 0.56090903
0.07053034 -0.012800839 0.56149995
0.06429062 -0.0058113155 0.56033331
0.067079179 -0.0082977703 0.56192303
0.06334392 -0.0022212849 0.56222224
0.065061614 -0.0028702365 0.56400001
0.0092794225 0.0028981036 0.56079996
0.011012386 0.004287221 0.56033331
0.05941534 0.0039388887 0.56033331
0.061535835 0.0026678313 0.56166667
0.0092910044 0.0065647112 0.56149995
0.011969877 0.0078069232 0.56137502
0.015530411 0.0091568734 0.56
0.058336701 0.0078646401 0.56083328
0.060774714 0.0076355282 0.56325001
0.012555403 0.012273091 0.56320834
0.01652501 0.012715843 0.56107682
0.054159809 0.013855168 0.56
0.057128932 0.012210238 0.56199992
0.060855635 0.010273802 0.56400001
0.014064101 0.015531418 0.56400001
0.017457113 0.017516021 0.56194735
0.053877227 0.017801713 0.56188887
0.055987664 0.017068041 0.56262499
0.019195685 0.021397833 0.56339997
0.022490107 0.02337282 0.56150001
0.025970789 0.024817854 0.56
0.049983658 0.024817854 0.56
0.052631605 0.022734821 0.56225002
0.023708224 0.027268654 0.5620833
0.026145903 0.027979372 0.56057137
0.048620734 0.028663354 0.56033331
0.050443877 0.027251568 0.56279999
0.023615647 0.031072134 0.56360006
0.026461307 0.032523885 0.56183332
0.044281416 0.034244992 0.56050003
0.047699194 0.032509606 0.56129408
0.050340682 0.030252744 0.56400001
0.027752262 0.037153948 0.56322223
0.031240072 0.038568687 0.56088883
0.044021867 0.037290119 0.56088889
0.046114486 0.037334085 0.56375009
0.028785033 0.040767971 0.56400001
0.032484178 0.042696033 0.56283331
0.037486069 0.04336695 0.56133324
0.041705742 0.042331211 0.56239998
0.033632874 0.046925038 0.56375003
0.03763932 0.047498353 0.5627501
0.040877227 0.046025589 0.56400001
0.03772274 0.05023168 0.56400001
0.038519755 -0.035189506 0.56800002
0.040709205 -0.035251457 0.56900001
0.052987959 -0.036879685 0.56881827
0.055501703 -0.037491024 0.56900001
0.033365518 -0.031000769 0.565
0.03801297 -0.031981505 0.56607145
0.042231053 -0.032431941 0.56718755
0.047454916 -0.031968966 0.56720001
0.052717231 -0.032484088 0.56695002
0.056387894 -0.031456687 0.56560004
0.062016893 -0.030790092 0.565
0.042529747 -0.029736707 0.565
0.047733784 -0.02944326 0.56514287
0.052545585 -0.029215276 0.56510001
0.056223415 -0.029736707 0.565
0.068505079 -0.0062626069 0.56514293
0.070443772 -0.0081422636 0.565
0.064123616 -0.0002418567 0.565
0.067510717 -0.0021404331 0.56600004
0.063772492 0.0027427413 0.565
0.066391535 0.0020621305 0.56636363
0.063115522 0.0071382727 0.5654
0.065292329 0.0055616004 0.56599998
0.059488826 0.013030825 0.565
0.06184689 0.012239335 0.56729996
0.012594981 0.018073834 0.56671435
0.015669076 0.019245811 0.565
0.058074195 0.018047228 0.56591672
0.060519993 0.01644269 0.56825006
0.014279343 0.021799523 0.56840003
0.017308636 0.022757415 0.56586665
0.054643378 0.022932669 0.565
0.056730825 0.022271112 0.56689996
0.018241838 0.027147273 0.56709522
0.021387311 0.027898638 0.565
0.053237438 0.027359001 0.56646663
0.056091052 0.025747135 0.56900001
0.019242553 0.031944137 0.5679
0.022154877 0.032873627 0.56566662
0.051793154 0.032111328 0.56741661
0.022993505 0.036800101 0.56618178
0.025770308 0.038763396 0.56542856
0.048202518 0.037734829 0.56581825
0.050786965 0.036355589 0.56900001
0.027118081 0.042659357 0.56583333
0.043583106 0.042947035 0.565
0.04649717 0.042243924 0.56733328
0.028283866 0.046933617 0.56733328
0.031643949 0.047909822 0.56523079
0.042795759 0.047434665 0.56616658
0.04566307 0.046613514 0.56860006
0.029570626 0.050676998 0.56900001
0.032940339 0.052496627 0.56727272
0.037618525 0.052643068 0.56559986
0.041764222 0.052658021 0.56746662
0.033787895 0.056544989 0.56857145
0.037477288 0.057498232 0.56825012
0.040496785 0.057169374 0.56850004
0.043920863 -0.036128867 0.57166666
0.047744725 -0.036460157 0.57249993
0.051036138 -0.036705401 0.57180005
0.043968789 -0.034250699 0.56999999
0.047722016 -0.034274738 0.57039994
0.071067169 -0.00024399704 0.56999999
0.068540916 0.003158079 0.57019997
0.071004234 0.0024189749 0.57120001
0.067762859 0.0073997155 0.57200003
0.07110393 0.0069701201 0.5716154
0.063860074 0.012926235 0.57087499
0.06617216 0.012320992 0.57362497
0.062599838 0.017819401 0.5725385
0.065145053 0.015806798 0.574
0.0094868084 0.023271529 0.57333332
0.012084023 0.02291384 0.57153344
0.059058163 0.022972336 0.5703333
0.061507188 0.022188891 0.57300001
0.013095038 0.027176842 0.57230008
0.015814673 0.02793075 0.57024997
0.057826005 0.027777076 0.57145005
0.061014902 0.02669554 0.57340002
0.014400156 0.031601988 0.57319999
0.017151654 0.032935105 0.57123077
0.053449422 0.033645757 0.57099998
0.056486379 0.031999055 0.57300001
0.018188821 0.036553647 0.5732857
0.02104691 0.038096093 0.57122225
0.04990093 0.039144807 0.57099998
0.052849784 0.037459206 0.57276922
0.055513803 0.035069805 0.574
0.022929002 0.042150233 0.57244444
0.049143925 0.042533912 0.57044441
0.051422685 0.042096186 0.573125
0.024248693 0.047023408 0.57359999
0.026279815 0.048200712 0.57177776
0.04757262 0.047766451 0.57042861
0.050075717 0.045691736 0.57300001
0.028246239 0.052248519 0.5726667
0.030685276 0.053422831 0.56999999
0.044318825 0.052716423 0.57039994
0.046700124 0.05213657 0.57219994
0.029320408 0.056681056 0.57299995
0.032186233 0.058086444 0.57107145
0.043277249 0.057516374 0.57159996
0.045882557 0.055402979 0.574
0.033209845 0.061684426 0.57269233
0.037365776 0.062580109 0.57157153
0.041577511 0.061921615 0.57241672
0.036964733 0.065747932 0.57399994
0.040531859 0.065034486 0.574
0.068568781 0.013019549 0.5757857
0.070961602 0.013007642 0.57633334
0.067720748 0.017580442 0.57673687
0.071222775 0.016248001 0.57700002
0.063808903 0.022540832 0.57588887
0.067018397 0.021701405 0.57828575
0.070030361 0.020802189 0.579
0.0089783845 0.02655465 0.57499999
0.010586389 0.027626682 0.57499999
0.062970564 0.027536076 0.5776
0.065712512 0.025659891 0.579
0.013369069 0.033052932 0.57614285
0.05871575 0.032847345 0.57566667
0.060697753 0.032592691 0.57749999
0.014055389 0.037026618 0.5780834
0.016949363 0.038121995 0.57600003
0.054538511 0.038883012 0.57499999
0.056933958 0.037136562 0.57669222
0.014977875 0.04077274 0.579
0.017937925 0.042286713 0.57706672
0.020698873 0.043411981 0.57514286
0.05355221 0.042972188 0.57591671
0.056312729 0.04155108 0.57780004
0.018501403 0.046421651 0.57828575
0.021784006 0.047678012 0.57633328
0.052238751 0.047461621 0.5772
0.022962574 0.052305978 0.5776
0.026286921 0.053268064 0.57549995
0.048804324 0.053142734 0.57600003
0.050833579 0.052108672 0.57814282
0.024252705 0.056729872 0.57880002
0.027252773 0.057759471 0.57686675
0.044968553 0.059891604 0.57599998
0.047495883 0.057445545 0.57685709
0.028540868 0.061998274 0.57792312
0.031346738 0.063614026 0.57566667
0.043864582 0.062854692 0.57560003
0.045893863 0.062603675 0.57750005
0.029010862 0.065600991 0.579
0.032496948 0.06727685 0.57704765
0.037548915 0.068282478 0.57543749
0.042330358 0.067481227 0.5766111
0.045124698 0.06548769 0.57800001
0.033583712 0.072047032 0.57875001
0.037549853 0.072430946 0.57749999
0.041101832 0.071715623 0.57824999
0.037106816 0.075316384 0.579
0.06802804 0.024096327 0.58033329
0.070151307 0.022460146 0.57999998
0.064259827 0.028431613 0.58050001
0.067452691 0.027535085 0.58271426
0.063243762 0.032746088 0.58210003
0.066078953 0.031359524 0.58462495
0.011863094 0.0381083 0.58027267
0.059028771 0.038533568 0.58049995
0.062031873 0.037281886 0.58293331
0.012884752 0.042614415 0.58199996
0.01545734 0.043282568 0.58079994
0.058412813 0.042924352 0.58154541
0.061586108 0.04198816 0.5842222
0.01331134 0.046272088 0.58483332
0.016535435 0.047985364 0.58252949
0.053931437 0.049493983 0.57999998
0.057192117 0.047462251 0.58223808
0.060940236 0.045557953 0.58499998
0.018251816 0.052203666 0.58308333
0.020680699 0.053278722 0.57999998
0.053015534 0.052706208 0.58072722
0.055989653 0.05207181 0.583125
0.019244218 0.056586694 0.58399999
0.021954041 0.057827782 0.58156246
0.049606137 0.058685489 0.57999998
0.052514069 0.05742725 0.583
0.055487007 0.055374034 0.58499998
0.022937782 0.062153976 0.58322215
0.026452554 0.063156828 0.58077776
0.048768185 0.062240411 0.58289999
0.05157936 0.061903231 0.58485711
0.024200795 0.065861203 0.58450001
0.027524175 0.067552723 0.58185714
0.030142291 0.068417668 0.57999998
0.047358714 0.067359097 0.58426666
0.050033774 0.065190114 0.58499998
0.028239531 0.071930289 0.58336371
0.031383984 0.072864003 0.58157146
0.043172121 0.072892822 0.58191663
0.04610515 0.071993232 0.58457142
0.028766166 0.075006194 0.58499998
0.032948598 0.077272512 0.58306253
0.037758995 0.077491522 0.5807333
0.042262591 0.077100597 0.58307695
0.045671187 0.075006194 0.58499998
0.034190152 0.080936141 0.58449996
0.037423633 0.082495287 0.58394998
0.04079181 0.081451736 0.58428574
0.067053221 0.03389103 0.58600003
0.064376831 0.03856767 0.58650005
0.066344775 0.037373699 0.58777785
0.06377621 0.042867884 0.58699995
0.065637715 0.041407753 0.588
0.0097294953 0.047984123 0.588
0.011894683 0.047878042 0.58669996
0.059951905 0.047820915 0.58600003
0.062220216 0.047199856 0.58779991
0.0093192915 0.051650256 0.5898
0.012557595 0.052265141 0.5881052
0.015858177 0.053204339 0.58662498
0.058401171 0.053351864 0.58825004
0.060659576 0.050657105 0.5893333
0.013337485 0.05612231 0.58999997
0.017163487 0.057451986 0.58792859
0.054489352 0.059292585 0.58600003
0.056995701 0.057479236 0.58827269
0.018726479 0.062232181 0.58890909
0.020621512 0.063662738 0.58600003
0.053398181 0.063138478 0.58733338
0.056615215 0.060894921 0.58916664
0.019662302 0.065747291 0.58999997
0.022482919 0.067614511 0.58778572
0.025559135 0.069731161 0.58650005
0.048480541 0.069671713 0.58600003
0.051655889 0.067227416 0.58815384
0.023422236 0.071841612 0.58971417
0.025772847 0.0727375 0.58722222
0.048344728 0.072654724 0.58655554
0.050630093 0.072273709 0.58939993
0.027822077 0.077210583 0.58814281
0.030740231 0.078719087 0.58625001
0.044223405 0.078613684 0.58749998
0.047350969 0.076229371 0.58842856
0.028762009 0.081421979 0.58971423
0.032299168 0.082694463 0.58731252
0.043097343 0.082924634 0.58761537
0.033261046 0.08709009 0.58844441
0.037458032 0.087946706 0.58700001
0.042358611 0.087316126 0.58820003
0.033942703 0.092095792 0.5896666
0.037232198 0.092074968 0.58953327
0.040987939 0.09189637 0.58979994
0.068855859 0.038025148 0.59142864
0.071110874 0.037857093 0.59249997
0.068015292 0.042491231 0.59253842
0.070677653 0.042348009 0.59350002
0.063581489 0.049101386 0.59266669
0.065200053 0.047366299 0.59399998
0.0097791357 0.054289185 0.59100002
0.010880969 0.054840114 0.59100002
0.062346451 0.052623443 0.59276921
0.0097791357 0.057043839 0.59100002
0.012387323 0.057963587 0.59118187
0.015288299 0.058696631 0.59100002
0.059361607 0.057594772 0.59100002
0.061691102 0.05715264 0.59308326
0.013681694 0.061660483 0.59299999
0.016320644 0.062734105 0.59183335
0.054954275 0.06475687 0.59100002
0.058185246 0.062889211 0.5922727
0.061105397 0.060990874 0.59366667
0.018102229 0.067279488 0.59299999
0.020797463 0.069164321 0.59100002
0.053485166 0.068797037 0.59100002
0.05667612 0.067069314 0.59335709
0.019795606 0.071730316 0.59399998
0.021835336 0.072894044 0.59200001
0.052854598 0.072612248 0.59215385
0.055209983 0.072254322 0.59375
0.023178525 0.076942191 0.59244442
0.025654057 0.07822635 0.59119999
0.048308965 0.078558505 0.59224999
0.051271245 0.076585181 0.59299994
0.024143744 0.080318615 0.59200001
0.026973996 0.082663819 0.59185714
0.046965089 0.081964523 0.59284616
0.028952817 0.087391704 0.59255552
0.031002406 0.088209093 0.59125
0.046125125 0.087479286 0.59316659
0.029762438 0.090557054 0.59399998
0.032166734 0.092432857 0.59241664
0.037324954 0.094507143 0.59100002
0.043036047 0.093182154 0.59250003
0.045485631 0.091272846 0.59325004
0.033668458 0.09737847 0.59314287
0.037432592 0.097542882 0.59269994
0.04152821 0.09672448 0.5933333
0.036960702 0.10052415 0.59399998
0.071650952 0.035361994 0.597
0.068637699 0.044118088 0.59500003
0.072555169 0.04331737 0.59620005
0.068040818 0.047810316 0.59623814
0.072135143 0.047560535 0.59640002
0.064200535 0.054101966 0.59500003
0.067187257 0.052603934 0.59687495
0.071264036 0.051704735 0.59842861
0.063938357 0.057712261 0.59600002
0.066611737 0.056459617 0.59814292
0.011964394 0.062817596 0.59560001
0.06239596 0.062275197 0.59716666
0.0098949615 0.067755185 0.59799993
0.012653016 0.067607529 0.59670007
0.016230207 0.068552144 0.59525007
0.058769405 0.068102814 0.59616667
0.060622141 0.066638783 0.59799999
0.0099115083 0.072892494 0.59899998
0.012839057 0.072524332 0.59792858
0.01724265 0.072611712 0.59588242
0.057389956 0.072491266 0.59722221
0.018386068 0.076769769 0.59807694
0.021766562 0.078322254 0.59600002
0.053011596 0.077956654 0.59618193
0.055961609 0.076838695 0.59783334
0.019962236 0.080151543 0.59899998
0.022703132 0.08252655 0.5977143
0.025375385 0.084053591 0.59500003
0.049641199 0.082862563 0.59600008
0.052462909 0.082347631 0.59757143
0.023779433 0.086811051 0.59871429
0.026432106 0.087609082 0.59591669
0.048068501 0.087265924 0.59627283
0.051307939 0.086895958 0.59844446
0.024429226 0.09020254 0.59899998
0.027665678 0.092438057 0.59661114
0.030921834 0.094037473 0.59500003
0.047187813 0.092643343 0.59828568
0.029185578 0.096262254 0.59733331
0.031519476 0.097780995 0.59583336
0.043090388 0.098553352 0.59622222
0.046048399 0.09658353 0.5984
0.032864109 0.10242073 0.59721428
0.037709482 0.10273536 0.59611112
0.042360514 0.10218845 0.59725004
0.034200765 0.106675 0.59899998
0.037261453 0.10692475 0.59883332
0.040435936 0.10620967 0.59899998
0.072513431 0.053736649 0.60055554
0.068197168 0.057998948 0.60088891
0.07217823 0.057200696 0.60246152
0.064017572 0.063261993 0.60071427
0.067580186 0.062195923 0.60287505
0.070684761 0.060450554 0.60299999
0.062688462 0.068002306 0.60266674
0.06573467 0.065618254 0.60399997
0.011615179 0.074754387 0.60049999
0.059344135 0.073258504 0.602
0.061722375 0.071729131 0.60330003
0.0099942423 0.076879241 0.60399997
0.012777356 0.07782127 0.60256255
0.016494973 0.078442819 0.60057145
0.058447748 0.07752239 0.60200006
0.060667355 0.076316185 0.60399997
0.013370049 0.081933305 0.60390007
0.017684182 0.082268201 0.60157895
0.020752413 0.084434129 0.60033333
0.054794025 0.082706645 0.60133338
0.056988992 0.082176909 0.60320002
0.018319411 0.086266793 0.60271424
0.021390548 0.087936789 0.60053837
0.053325169 0.087619491 0.60100001
0.055787724 0.087201826 0.60399997
0.022306053 0.092347056 0.60205549
0.025609948 0.094347402 0.60049999
0.048733871 0.093574993 0.60033339
0.051481709 0.092326708 0.60191667
0.024174558 0.096329153 0.6038
0.027045688 0.098226994 0.60184616
0.04807156 0.09820389 0.6013636
0.051288996 0.096334524 0.60342866
0.028193709 0.10240273 0.6031
0.030540576 0.10298532 0.6006
0.044082887 0.10386331 0.60049999
0.046810113 0.102136 0.60277778
0.02913742 0.10559478 0.60399997
0.031868212 0.10778858 0.60182357
0.037334047 0.10937005 0.60000002
0.042825367 0.10797559 0.6017648
0.046028458 0.10615782 0.60399997
0.033008341 0.11155719 0.60275
0.037406642 0.11182526 0.60116667
0.041536968 0.11158171 0.60212505
0.073175073 0.059523094 0.60500002
0.069791272 0.064034946 0.60500002
0.072796836 0.062518559 0.60560006
0.075430945 0.060651056 0.60500002
0.067171171 0.0676177 0.60678571
0.072145022 0.065782979 0.60900003
0.063434996 0.073475212 0.60533333
0.065909766 0.07239642 0.60733336
0.008882856 0.079262458 0.60500002
0.01001079 0.079826437 0.60500002
0.059639867 0.079826437 0.60500002
0.062872827 0.077166803 0.60624999
0.065711141 0.075812533 0.60900003
0.008882856 0.080954403 0.60500002
0.011266095 0.08310049 0.60511112
0.059075899 0.082646355 0.60500002
0.060968686 0.080090329 0.60699999
0.013107295 0.086712882 0.60740006
0.016560392 0.08777532 0.60622221
0.054000203 0.089978114 0.60500002
0.057155002 0.087533191 0.60581815
0.018348075 0.091818362 0.60722226
0.020195518 0.094646141 0.60600001
0.054022513 0.092837065 0.60525
0.056208082 0.092183813 0.60690004
0.019160105 0.0951147 0.60900003
0.022141241 0.097761855 0.60699999
0.05311536 0.098090179 0.60633337
0.055810332 0.096144758 0.60833335
0.023416141 0.10228668 0.6075334
0.026220797 0.10349739 0.60600001
0.048890673 0.10361171 0.60557139
0.051702335 0.10179406 0.60744441
0.024458596 0.10646891 0.60900003
0.027550457 0.10769033 0.60628563
0.047847208 0.10753363 0.6062727
0.050951056 0.10533348 0.60900003
0.02866807 0.11046374 0.60600001
0.030313596 0.11084545 0.60500002
0.044976734 0.11084545 0.60500002
0.06923081 0.069113307 0.61000001
0.072364382 0.067903526 0.61027282
0.068400256 0.07249485 0.61070001
0.071616493 0.072071426 0.61289996
0.06478782 0.079478957 0.611
0.067387983 0.076977856 0.612625
0.071401849 0.075290225 0.61400002
0.063035272 0.082574807 0.61125004
0.066250637 0.081586316 0.61400002
0.011952138 0.08896403 0.61062503
0.058995504 0.089584447 0.61000001
0.061942905 0.087193966 0.61199999
0.06510593 0.086737655 0.61400002
0.012533521 0.092508987 0.61231571
0.016286206 0.092781059 0.61071432
0.058777299 0.093060844 0.61166668
0.061466619 0.091509856 0.61337495
0.014356992 0.096277177 0.61400002
0.017553303 0.097363546 0.61242855
0.020328823 0.099251375 0.61000001
0.057460718 0.097490236 0.61180001
0.0190633 0.10171513 0.61319995
0.020758517 0.10329709 0.61149997
0.05376238 0.10318335 0.61083335
0.056451771 0.10149565 0.61325002
0.022466885 0.10652532 0.61149997
0.052463785 0.10627657 0.61116666
0.068926029 0.077986293 0.61539996
0.071903981 0.077661425 0.61666667
0.067874089 0.082592197 0.6164546
0.071262702 0.082085609 0.61775005
0.067374662 0.087416641 0.61799997
0.010192804 0.093911022 0.616
0.06311398 0.092974603 0.61549997
0.065993823 0.092198491 0.61771429
0.012408322 0.098090604 0.61580002
0.015909143 0.099491604 0.61500001
0.059193593 0.099270552 0.616
0.062580965 0.097482517 0.61764699
0.065530062 0.095368125 0.61799997
0.012506886 0.10209399 0.61686665
0.017071802 0.10245799 0.61559999
0.058177199 0.10258592 0.61637497
0.062726371 0.10067482 0.61874998
0.019348873 0.10522465 0.61500001
0.056039345 0.10522465 0.61500001
0.069377273 0.088376984 0.62150002
0.071733274 0.087266289 0.62183326
0.068760015 0.091144577 0.62220007
0.071401387 0.091058791 0.62400001
0.065848172 0.096988872 0.62099999
0.069416784 0.093779624 0.62533331
0.072462291 0.093046479 0.62562501
0.068288147 0.096680492 0.62566662
0.072072648 0.096025094 0.62679994
0.47914049 -0.12070535 0.963
0.4809359 -0.12160306 0.963
0.46767324 -0.13117877 0.97750002
0.46832237 -0.12870362 0.97600001
0.47105178 -0.12961344 0.97600001
0.46418333 -0.13285136 0.98200005
0.46662444 -0.13224109 0.98199999
0.43302053 -0.15850972 1.0215
0.43618935 -0.15637526 1.02
0.40454733 -0.15967353 1.029
