# .PCD v0.7 - Point Cloud Data file format
VERSION 0.7
FIELDS x y z
SIZE 4 4 4
TYPE F F F
COUNT 1 1 1
WIDTH 1294
HEIGHT 1
VIEWPOINT 0 0 0 1 0 0 0
POINTS 1294
DATA ascii
-0.00032007656 -0.0297479 0.5722332
0.0022006084 -0.030537104 0.57236552
0.0071622524 -0.031096054 0.57206249
0.012112793 -0.031638816 0.57180279
0.017106153 -0.032027848 0.57158548
0.022069965 -0.032526661 0.57133955
0.02698965 -0.032991558 0.57107991
0.032144897 -0.033647612 0.57071429
0.037137862 -0.033985261 0.57054508
0.042024229 -0.034588911 0.57018799
0.046784353 -0.035100788 0.56993175
0.050038878 -0.035264585 0.56965035
0.00030601025 -0.025423957 0.57502538
0.0028919533 -0.025872322 0.57522482
0.0078134341 -0.02647754 0.57488799
0.012673817 -0.027060822 0.57456386
0.017697379 -0.027500907 0.57432497
0.022719208 -0.02810083 0.57399166
0.0275917 -0.028812129 0.57359195
0.032648176 -0.029162351 0.57340634
0.037658624 -0.029582506 0.57317919
0.042533837 -0.030275993 0.57279003
0.047455028 -0.030733351 0.57254052
0.050611336 -0.03112207 0.57195449
0.00086818263 -0.021397229 0.57727098
0.0034403661 -0.021736 0.57767045
0.0082990937 -0.022146966 0.57744807
0.013269404 -0.02275994 0.57710689
0.01835278 -0.023391791 0.57675499
0.023241997 -0.023891129 0.57648051
0.028064525 -0.024400799 0.57619971
0.03318591 -0.024914689 0.57591766
0.038122918 -0.025508165 0.57558781
0.0430304 -0.025945831 0.57534993
0.048101742 -0.026650771 0.57495481
0.051255751 -0.026622208 0.57469612
0.0014780539 -0.017143333 0.57991475
0.0039242734 -0.017581075 0.58012676
0.0088650575 -0.01783539 0.5799973
0.013736065 -0.018414289 0.57967579
0.018939143 -0.019272303 0.57919079
0.023918398 -0.019500032 0.57907718
0.028706813 -0.020121273 0.57873034
0.033816863 -0.020699248 0.57841039
0.038707666 -0.021252505 0.57810408
0.043565914 -0.021567397 0.5779385
0.048719332 -0.02229809 0.57752848
0.051958617 -0.022464586 0.57709515
0.0021257699 -0.012522992 0.5825367
0.0045780963 -0.013280334 0.58266997
0.0097314799 -0.013621937 0.58248985
0.014650889 -0.014191385 0.58217412
0.019429658 -0.014796861 0.58183652
0.024405284 -0.015226917 0.58160335
0.029234985 -0.015869569 0.58124405
0.034305673 -0.016491195 0.58089811
0.039107408 -0.016828349 0.58071911
0.044286884 -0.0174431 0.58037776
0.049500316 -0.017994273 0.58007407
0.052493427 -0.01805518 0.57985944
0.0026601963 -0.0087724645 0.58481199
0.0053207772 -0.0089434646 0.58523488
0.010195395 -0.0094765667 0.58494043
0.015110319 -0.009882953 0.58472103
0.020205198 -0.010323115 0.58448243
0.024941524 -0.01093133 0.58414304
0.029890148 -0.011682499 0.58372009
0.035023555 -0.012026176 0.58353865
0.040015671 -0.012636228 0.5831992
0.044920661 -0.013301378 0.58282691
0.049595259 -0.01362448 0.58265567
0.052958522 -0.013599608 0.58247453
0.0032919366 -0.0043320451 0.58748889
0.0057301647 -0.0047563557 0.5877099
0.010628995 -0.005069267 0.58754563
0.015579287 -0.0056480449 0.58722454
0.020690668 -0.0060323626 0.58701903
0.025697965 -0.0068853963 0.58653611
0.030576333 -0.0070974063 0.58643138
0.035777491 -0.0077564921 0.58606386
0.040714364 -0.0084267035 0.58568871
0.045664687 -0.0089089684 0.58542466
0.050446015 -0.0095128939 0.58508795
0.053740911 -0.0094218422 0.58495039
0.0039659138 0.0004951898 0.59018171
0.0063629649 -0.00045382604 0.59025407
0.011543636 -0.00066182762 0.59015298
0.016368002 -0.0012651216 0.58981687
0.021328209 -0.0018870458 0.58947033
0.026160654 -0.002474051 0.58914387
0.031288322 -0.0029503237 0.58888406
0.036289476 -0.0034986194 0.58858114
0.041189276 -0.0040419009 0.5882808
0.046274427 -0.004721202 0.58790088
0.051252246 -0.0052351467 0.58761823
0.054397058 -0.0053991433 0.58714241
0.0045722141 0.0047794934 0.59270966
0.0069685755 0.0039904974 0.59288192
0.011960914 0.0033844076 0.59254485
0.017009573 0.0027357042 0.59218282
0.021964839 0.002332896 0.59196568
0.02697414 0.0017609484 0.59164888
0.031845611 0.0011973605 0.59133643
0.037037745 0.00069887936 0.59106374
0.041866183 0.00022592768 0.5908047
0.046685681 -0.00037211552 0.59047163
0.051674724 -0.00090041012 0.59018052
0.054885585 -0.0010620505 0.58986181
0.0051689157 0.00890062 0.59537059
0.0075246273 0.0081573874 0.59534562
0.012577132 0.0077172704 0.59510684
0.017434455 0.0071605071 0.59479833
0.022517664 0.0066516399 0.59451908
0.02735197 0.0059081353 0.59410024
0.032354061 0.0054051243 0.59382409
0.037429523 0.0049724579 0.59358978
0.042297836 0.0044941939 0.59332776
0.047261816 0.0039352365 0.59301841
0.052437793 0.0033837594 0.59271437
0.055605747 0.0033976194 0.59238493
0.0057503041 0.013142098 0.59755307
0.0081909718 0.012410216 0.59786057
0.013179255 0.012098335 0.59769726
0.018011114 0.011498617 0.59736329
0.022995636 0.010924684 0.59704518
0.028227976 0.010213561 0.59664708
0.032937456 0.0096426941 0.59632969
0.038017496 0.0094743557 0.59625155
0.042944372 0.0087615401 0.59585118
0.047907624 0.0083612241 0.59563553
0.052843291 0.0076733381 0.59524995
0.056171115 0.0078135785 0.59499717
0.0063597001 0.017495628 0.60000807
0.0085569099 0.016718179 0.60040677
0.013755391 0.016347669 0.60020977
0.018507969 0.015792361 0.59990168
0.023586741 0.015291296 0.59962702
0.028717412 0.014506847 0.59918523
0.033712976 0.0141568 0.59899938
0.038694419 0.013751585 0.59878093
0.04352589 0.012976516 0.59834337
0.048473228 0.012508966 0.59808797
0.053460442 0.011917591 0.5977596
0.056695163 0.011610435 0.5972203
0.0069866129 0.021806084 0.60283875
0.0092572244 0.020898424 0.60287899
0.014369556 0.020477865 0.60265207
0.019422101 0.019846406 0.60230029
0.024411213 0.019439179 0.60208064
0.029347273 0.018812381 0.60173112
0.034132935 0.018197116 0.6013878
0.039166816 0.017871227 0.60121644
0.044389773 0.017412782 0.60096753
0.049119316 0.016644791 0.60053372
0.054265771 0.016228795 0.60030961
0.057222225 0.015969235 0.59989834
0.0075495932 0.025801443 0.60515493
0.010242662 0.025310278 0.60548925
0.015189713 0.024704002 0.60515189
0.019859491 0.024351057 0.604963
0.02476022 0.023761611 0.60463536
0.029828446 0.023206402 0.60432869
0.034935933 0.022682689 0.60404074
0.039896354 0.021999769 0.6036582
0.044888057 0.021662552 0.60347998
0.049844649 0.020953383 0.60308188
0.054701373 0.020660069 0.602929
0.057830509 0.020141754 0.60233903
0.0081567634 0.030109186 0.60765517
0.010345306 0.029513806 0.60797268
0.015488202 0.029028855 0.6077078
0.020474872 0.028579969 0.6074636
0.025564479 0.028044712 0.60716879
0.030299146 0.027425628 0.60682297
0.035377879 0.026883755 0.60652423
0.040323574 0.026444614 0.60628557
0.04527631 0.025771454 0.60590869
0.050230134 0.025402065 0.60571134
0.055359237 0.024852991 0.60540849
0.05853878 0.024754342 0.60507387
0.0087849172 0.034449495 0.61045277
0.011382414 0.033710852 0.61045623
0.016227951 0.033407889 0.61029762
0.021275042 0.032815956 0.60996914
0.02618126 0.032489516 0.60979688
0.030921247 0.031561542 0.60926867
0.035842136 0.030979395 0.60894543
0.040843125 0.030716345 0.60881102
0.046101302 0.030163061 0.60850632
0.050839849 0.029601362 0.60819441
0.055892736 0.029320233 0.60804951
0.059071884 0.028719451 0.60750425
0.0093665458 0.03853175 0.61292815
0.012029728 0.038078882 0.61303914
0.016734071 0.037441604 0.61268246
0.021755369 0.037164185 0.61253965
0.026741935 0.036519259 0.61217964
0.031930897 0.035846181 0.61180383
0.036837451 0.035344079 0.6115278
0.041791905 0.034956709 0.61131978
0.046644982 0.034402475 0.61101282
0.051917862 0.033953458 0.61076969
0.056370839 0.033398598 0.61046064
0.059679598 0.032992397 0.60995805
0.0099119702 0.042486671 0.6150195
0.012607371 0.042355582 0.6155678
0.017524591 0.041856669 0.61529374
0.022657653 0.041313678 0.61499453
0.02749835 0.040941149 0.61479479
0.032381281 0.04040923 0.61450112
0.037561581 0.039701354 0.61410469
0.042326141 0.039297827 0.61388636
0.047070984 0.038741149 0.61357743
0.052028652 0.037913777 0.61310953
0.05720726 0.037599072 0.61294538
0.060258631 0.037297964 0.61248922
0.010601293 0.047328766 0.61794597
0.013076308 0.046665981 0.6181159
0.018039962 0.046254538 0.6178937
0.022937709 0.045434751 0.61743003
0.027956894 0.045136072 0.6172747
0.032961167 0.044437386 0.61688298
0.037889279 0.044064425 0.61668336
0.042769331 0.043496154 0.61636817
0.047801297 0.042876251 0.61602312
0.052840345 0.042310774 0.61571026
0.057683017 0.041832812 0.61544824
0.061002884 0.041337572 0.61484182
0.011185293 0.051516023 0.62027121
0.01360125 0.050815981 0.62056953
0.018469738 0.050450113 0.62037385
0.023413947 0.049777251 0.61999714
0.028624477 0.049240898 0.61970222
0.033397697 0.048863415 0.61949927
0.038542252 0.04846818 0.61928737
0.043544624 0.047723159 0.61886829
0.048296522 0.047141731 0.61854482
0.053401448 0.046710953 0.61831176
0.058200948 0.046233654 0.61804998
0.061461944 0.045763422 0.61751866
0.011794894 0.055820342 0.62281895
0.014263853 0.055308517 0.62322605
0.019311594 0.054619264 0.62284011
0.024397532 0.054264214 0.6226517
0.029060217 0.053454187 0.6221928
0.034391787 0.053087067 0.62199831
0.03920744 0.052665289 0.62176943
0.044180855 0.05186281 0.62131625
0.049028572 0.051490288 0.62111658
0.054080166 0.050972845 0.62083215
0.058861014 0.050479379 0.62056071
0.06213044 0.050086271 0.61995381
0.012401624 0.060105037 0.62535352
0.01500792 0.059401434 0.62564683
0.019681392 0.059016731 0.62543923
0.024805659 0.058353733 0.62506914
0.029808922 0.05779643 0.62476093
0.034817342 0.057450261 0.62457746
0.039674621 0.05682474 0.62422836
0.044591371 0.056327756 0.62395543
0.049764439 0.05581471 0.62367409
0.05458549 0.055453565 0.62348104
0.059549291 0.054673221 0.62304091
0.062771127 0.054461997 0.62264812
0.013046791 0.064617321 0.62812817
0.015461504 0.063783392 0.62823719
0.02036942 0.063307583 0.62797672
0.025159856 0.062809154 0.62770241
0.030387299 0.062247481 0.62739259
0.035303153 0.061870899 0.62719077
0.040189914 0.061239254 0.62683821
0.045193087 0.060542744 0.62644774
0.050145198 0.060192298 0.62626153
0.055169526 0.059546929 0.6259014
0.060209621 0.058855038 0.62551385
0.063323215 0.058727365 0.62518531
0.013556688 0.068255454 0.63019061
0.016079862 0.06810233 0.63079095
0.020988571 0.067434892 0.63041735
0.02589347 0.067170426 0.63028169
0.031029273 0.06634514 0.62981576
0.036050837 0.066038102 0.62965548
0.040950842 0.065310538 0.62924629
0.045785177 0.064890325 0.62901837
0.05080485 0.064334825 0.62871128
0.05567782 0.063783541 0.62840611
0.060857464 0.063196823 0.62808126
0.064030915 0.062792674 0.62760347
0.01429875 0.073425159 0.63341874
0.016896071 0.072137609 0.63317806
0.021735299 0.071664065 0.6329186
0.026530251 0.071330369 0.63274163
0.031649981 0.070641041 0.63235593
0.036574479 0.070134863 0.63207763
0.041420728 0.069730029 0.63185883
0.046398345 0.069045499 0.63147539
0.051321846 0.068749219 0.63132107
0.056541316 0.068184137 0.63100916
0.061133638 0.067616716 0.63069326
0.064529151 0.067504972 0.63030684
0.014838289 0.077251181 0.63564396
0.017428871 0.076460987 0.63573408
0.022159148 0.076080903 0.63552946
0.027251342 0.075368285 0.63512987
0.032351237 0.074877694 0.63486147
0.037380543 0.074438497 0.63462317
0.04223242 0.07401976 0.6343962
0.047136731 0.07333082 0.63400984
0.052068796 0.072975755 0.63382077
0.057025529 0.07227771 0.63342929
0.062159393 0.071779147 0.6331563
0.065186247 0.071289495 0.63261443
0.015431438 0.081353053 0.63827938
0.01801973 0.080826223 0.63831508
0.022860585 0.080378875 0.63807118
0.027899347 0.07975401 0.63772321
0.032863129 0.079357967 0.63751012
0.037836175 0.078625679 0.63709843
0.04280379 0.07832095 0.63693929
0.047861688 0.077627942 0.63655114
0.052660756 0.077056244 0.63623363
0.057582986 0.076724693 0.63605845
0.062588081 0.075939104 0.63561541
0.065895423 0.076236114 0.63544393
0.016040659 0.085757107 0.64063978
0.01839285 0.085274994 0.6409446
0.023546943 0.084497213 0.64050674
0.028436726 0.084128425 0.64030945
0.033445213 0.083651766 0.64004892
0.038314212 0.082942888 0.63965064
0.043328829 0.082418233 0.63936174
0.048269242 0.081946522 0.63910389
0.053425416 0.081528991 0.63887888
0.058324296 0.081005216 0.63859004
0.063092723 0.080511153 0.63831824
0.066369087 0.079886869 0.63772619
0.016600002 0.089696452 0.64299577
0.019217694 0.089470252 0.64342618
0.02435749 0.088898122 0.6431098
0.029093759 0.088384822 0.64282644
0.033917002 0.087800086 0.64250129
0.038947824 0.087323055 0.64224064
0.043778736 0.086581796 0.64182305
0.048862565 0.086132839 0.64157921
0.053849593 0.085738853 0.64136744
0.058906179 0.085211605 0.64107722
0.063687816 0.084588841 0.64072943
0.066901043 0.084143549 0.64020699
0.017173547 0.093641117 0.64558339
0.020023704 0.093619213 0.64588034
0.024565151 0.093013257 0.64554143
0.029453466 0.092502549 0.64526033
0.034374613 0.092023015 0.64499772
0.039486762 0.09150885 0.64471543
0.044517506 0.090927914 0.64439344
0.049405079 0.090492576 0.64415681
0.054295067 0.089958057 0.64386159
0.059393693 0.089442223 0.64357829
0.064485848 0.088863537 0.64325786
0.06770435 0.089002147 0.64297289
0.017774813 0.098001003 0.64788878
0.020372834 0.098125339 0.64853126
0.025227549 0.09720397 0.64801967
0.030363681 0.096920446 0.64787376
0.035319868 0.0962639 0.64750677
0.04035322 0.095697507 0.64719331
0.04519004 0.095343262 0.64700437
0.05001149 0.094595432 0.6465829
0.055058245 0.094105765 0.64631486
0.060022928 0.093566149 0.64601696
0.064915791 0.093198627 0.64578944
0.068122894 0.092722535 0.64534396
0.020089177 0.10035084 0.64934051
0.025836922 0.099814206 0.64887166
0.030501457 0.099268824 0.64867711
0.035560135 0.098711401 0.64840847
0.040539175 0.098284319 0.64793849
0.045182019 0.097706571 0.64780378
0.050345626 0.097121075 0.64755756
0.055062354 0.096682563 0.64716971
0.060459252 0.09615241 0.64677399
0.064755544 0.095595375 0.64668727
0.068138167 0.095031023 0.64683175
-0.00030146498 -0.028148431 0.5696485
0.0018596302 -0.030639816 0.56845069
0.0067913565 -0.031045323 0.56795555
0.011755674 -0.031650968 0.5677911
0.016754203 -0.032146089 0.56743151
0.021740463 -0.032851949 0.56743127
0.026766945 -0.03332641 0.56703007
0.031867284 -0.033716083 0.56646776
0.03646129 -0.034294724 0.56634629
0.041548632 -0.034732848 0.56586903
0.046619102 -0.035350051 0.56569874
0.050297249 -0.033684392 0.56676489
0.00029063039 -0.024049427 0.57227129
0.050960217 -0.029085081 0.56937534
0.00091371348 -0.019634653 0.5748477
0.051529907 -0.025118398 0.57185775
0.0015165932 -0.015376701 0.57736534
0.052132383 -0.020782769 0.57422787
0.0021288467 -0.011103764 0.58001506
0.052732907 -0.016641507 0.57691717
0.0027095329 -0.0068489015 0.58216137
0.053368919 -0.012083258 0.57945257
0.0033625395 -0.0022753943 0.58495814
0.053966749 -0.0079445783 0.58210123
0.0039213453 0.0016266648 0.58737266
0.054533973 -0.0038360041 0.58428407
0.0045371046 0.0058525894 0.59016716
0.055164579 0.00065088272 0.58685768
0.0051576118 0.010283846 0.5926699
0.055747315 0.0047942977 0.58924127
0.0057665752 0.014760012 0.59489518
0.056364167 0.009133162 0.59184957
0.0063406513 0.018749427 0.59741062
0.05700409 0.013628088 0.5945667
0.0069638174 0.023149174 0.6000157
0.057573322 0.017613918 0.59700632
0.0075632818 0.027405623 0.60247809
0.058169294 0.021755006 0.59961867
0.0081736594 0.031651821 0.60514444
0.058775444 0.02599876 0.60221761
0.0087835072 0.035901051 0.60779625
0.059368521 0.030207422 0.60465813
0.0093885977 0.040244553 0.61019629
0.05999466 0.034656528 0.60722417
0.009998966 0.044552211 0.61275101
0.060598291 0.038945388 0.60969859
0.010593104 0.048832174 0.6150803
0.061220143 0.043298926 0.61236513
0.011188693 0.052967597 0.61769634
0.061830975 0.047640707 0.6148659
0.011806902 0.057280298 0.6203751
0.062424984 0.051938098 0.61716127
0.012406459 0.061656814 0.6226213
0.06302318 0.056052033 0.61986053
0.013017281 0.065863818 0.62536627
0.063637525 0.060325045 0.62254566
0.013606802 0.070102721 0.62769157
0.064242482 0.064712703 0.62486345
0.014189148 0.074179709 0.6301887
0.064848602 0.068975791 0.62742686
0.014829569 0.078697711 0.63287234
0.065460131 0.073204458 0.63014448
0.015433919 0.082866922 0.63557595
0.066064671 0.077633664 0.63237965
0.016039673 0.087094054 0.63819832
0.066654459 0.081716806 0.63499206
0.016623726 0.091332451 0.64043164
0.067258015 0.085980251 0.63751131
0.017217269 0.095453173 0.64303964
0.067876205 0.09042944 0.63994235
0.017847754 0.1000268 0.64545369
0.024160741 0.10061468 0.6479193
0.042320013 0.10020389 0.64426565
0.047445364 0.099476129 0.64426917
0.056016292 0.097486496 0.64558166
0.059457887 0.09670119 0.64608562
0.064959958 0.09776707 0.6429655
0.068502009 0.094670594 0.64287972
0.020613812 0.10175914 0.64683318
0.025662102 0.10145561 0.64613765
0.030844647 0.10083732 0.64594227
0.035646372 0.10021873 0.64583862
0.040187024 0.099796832 0.64546484
0.045199085 0.099219471 0.64524108
0.050251942 0.098817453 0.64471114
0.055389922 0.09813121 0.64464128
0.06029648 0.097752184 0.6441074
0.06556356 0.096977577 0.64415622
0.068369791 0.096767873 0.64383888
-0.00028177822 -0.025691997 0.56552786
0.0020278434 -0.028224155 0.56432503
0.0068611884 -0.028558834 0.5637337
0.011835363 -0.029097339 0.56345332
0.016802203 -0.029715352 0.56330913
0.021880258 -0.030150259 0.56282866
0.027002444 -0.030731171 0.56258458
0.03170469 -0.031251047 0.56233782
0.036829989 -0.031760994 0.56197298
0.0415975 -0.032129921 0.56145525
0.046620298 -0.03280738 0.56139827
0.050300125 -0.031173388 0.56249231
0.00032308127 -0.021331228 0.56789267
0.050944023 -0.026933081 0.56519783
0.00092305779 -0.017259397 0.57069856
0.051542837 -0.022600086 0.56751001
0.001558145 -0.012597829 0.57303131
0.052159198 -0.018293675 0.57016909
0.0021569417 -0.0084078265 0.57560283
0.052768003 -0.014033764 0.57278377
0.0027453424 -0.0041513788 0.57787728
0.053342901 -0.0098486738 0.57495821
0.0033471538 3.7173741e-05 0.58050269
0.053956702 -0.0056161601 0.57770783
0.003965362 0.0043867193 0.58311456
0.054563619 -0.0012460845 0.58009046
0.0045582289 0.0084681008 0.58578241
0.055159234 0.0030495487 0.58241659
0.0051343646 0.012548517 0.58816785
0.055770762 0.0072911941 0.58511072
0.005740094 0.017024454 0.59033853
0.056363698 0.01154951 0.58745897
0.0063693817 0.02136058 0.59316295
0.056985263 0.015865417 0.5901891
0.0069825561 0.025689155 0.59572744
0.057603743 0.020260863 0.59272248
0.0075588319 0.02971768 0.59820932
0.058188576 0.024333842 0.5952692
0.0081927339 0.034225922 0.60079998
0.058801923 0.028748151 0.59768105
0.0087889377 0.038400535 0.60335541
0.05941391 0.033026334 0.60031658
0.0094026485 0.042669248 0.6060375
0.060017712 0.037278708 0.60286009
0.0099877166 0.046855651 0.6083824
0.060615789 0.041424584 0.60549951
0.010589424 0.051231373 0.61066651
0.061235849 0.045932982 0.60785466
0.011211196 0.055533987 0.61342412
0.061837032 0.050085511 0.61053479
0.011784498 0.059528667 0.61591685
0.062465649 0.054462682 0.61327338
0.01241699 0.064127669 0.61831897
0.063050881 0.058702137 0.61552477
0.013020818 0.068281233 0.62104207
0.063653514 0.062964246 0.61803067
0.013624508 0.072661325 0.62335199
0.064250335 0.067260057 0.62037694
0.014233171 0.07690832 0.62598777
0.064874232 0.071551949 0.62318987
0.014824022 0.081090793 0.628438
0.065478593 0.075782642 0.62578207
0.015442664 0.085472837 0.63099831
0.066063493 0.079888791 0.62826991
0.016059674 0.089757368 0.63370782
0.066683903 0.084375173 0.63067102
0.016680855 0.094134718 0.63631976
0.067280009 0.088593617 0.63314527
0.017266219 0.098374248 0.63857335
0.067906812 0.092995748 0.63580769
0.017881891 0.10259683 0.64137244
0.043887679 0.10202222 0.64081508
0.051587429 0.10131189 0.6401726
0.055187963 0.10102779 0.63979095
0.060199372 0.099207059 0.64167011
0.065108597 0.098652497 0.64143246
0.068500698 0.097143456 0.63837242
0.021011107 0.10437211 0.6423189
0.025989471 0.10387269 0.64197141
0.030753935 0.10328057 0.64183193
0.035414066 0.10291162 0.64133996
0.040527415 0.1023173 0.64112073
0.045723669 0.10165447 0.64099741
0.050294086 0.10116996 0.64072239
0.055391688 0.10059358 0.64047647
0.060389269 0.1002275 0.63989896
0.065264225 0.099828973 0.63940555
0.068248123 0.099145219 0.63984746
-0.00027188324 -0.023102745 0.56099999
0.0021475109 -0.025572594 0.55981207
0.0067537641 -0.026018217 0.55946273
0.011900022 -0.026592333 0.55920136
0.016781136 -0.027093522 0.55888015
0.02165347 -0.027562547 0.55850667
0.026668649 -0.027999394 0.55804449
0.031579092 -0.028569875 0.55783349
0.036601733 -0.0291587 0.55762661
0.041498661 -0.029741876 0.55744028
0.046624538 -0.030287407 0.55713546
0.05032146 -0.028662819 0.55827105
0.00033443392 -0.018839223 0.56356597
0.050968353 -0.024395559 0.56100923
0.00094649848 -0.014646782 0.56635845
0.051585667 -0.019933453 0.5634017
0.0015451463 -0.010266273 0.56858194
0.052172843 -0.015831875 0.56593633
0.0021490955 -0.0059964526 0.57109624
0.052771948 -0.011632526 0.56849605
0.0027716383 -0.0015866635 0.57367253
0.053378429 -0.0073310863 0.57099605
0.0033811135 0.0026512928 0.57633847
0.05399638 -0.002943309 0.57353425
0.0039705955 0.0069286283 0.57859343
0.054594219 0.0012419792 0.57609808
0.0045828316 0.01113271 0.58136773
0.055201266 0.0054862499 0.57871127
0.00516561 0.015232116 0.58383149
0.05579621 0.0096811969 0.58120835
0.0057874164 0.019750543 0.58619821
0.056390561 0.013966765 0.5835312
0.0063961642 0.023939703 0.58894032
0.057015348 0.018383775 0.58613265
0.0069880192 0.028136164 0.59138227
0.057607554 0.022628281 0.58849353
0.007604395 0.032509957 0.5939191
0.05822615 0.026991051 0.591088
0.0081877308 0.036581632 0.59644264
0.058811586 0.031238783 0.59332806
0.0088285469 0.041047599 0.59922737
0.05941185 0.035384484 0.5960049
0.0094459662 0.045536287 0.60157353
0.06002751 0.039733458 0.59857452
0.010018868 0.049597058 0.60393965
0.060647257 0.044106584 0.60116982
0.010644065 0.053941038 0.60668039
0.061243415 0.048328731 0.60363829
0.011220847 0.057959083 0.60918981
0.061855968 0.052648846 0.60620743
0.011847642 0.062523827 0.6115573
0.062439416 0.056764003 0.60865414
0.012431082 0.066545174 0.61417389
0.063048437 0.061045151 0.61123395
0.013025895 0.070797279 0.61656517
0.063660145 0.06549935 0.61354572
0.01365038 0.075162277 0.61925566
0.064279288 0.069768414 0.61631948
0.014260295 0.079524383 0.62170392
0.064858422 0.073789597 0.61886328
0.014876284 0.083851233 0.62431926
0.06547536 0.078238785 0.6212728
0.01547008 0.088045284 0.62679857
0.066076413 0.082523555 0.62371063
0.016078277 0.092251316 0.62950075
0.066688403 0.086794525 0.62635958
0.016683375 0.096567959 0.6319496
0.067289457 0.091067001 0.6288197
0.017298246 0.10098751 0.6343779
0.06790112 0.095387563 0.63137317
0.017904906 0.10531802 0.63682812
0.042913567 0.10417004 0.63741595
0.045181647 0.10414866 0.63690901
0.061089449 0.10295199 0.63512355
0.066896498 0.1027616 0.63405502
0.068491563 0.099542201 0.6339497
0.020772012 0.10692875 0.63805234
0.025376348 0.10639767 0.63784796
0.030600231 0.10585922 0.6375078
0.035508398 0.10542656 0.63706416
0.040373538 0.1049576 0.63669223
0.045605648 0.10410698 0.63687795
0.050555572 0.10374977 0.63629681
0.055398203 0.1032276 0.6360203
0.060163066 0.10272872 0.63572299
0.065215945 0.10214479 0.63550061
0.068211019 0.10181148 0.63534707
-0.00023437096 -0.020348523 0.55664206
0.0019074569 -0.022987444 0.55549753
0.0069940789 -0.023535535 0.55520642
0.011988943 -0.024036106 0.55485696
0.017001785 -0.024522258 0.55447876
0.021769585 -0.025055902 0.55423957
0.026852928 -0.025534874 0.55383235
0.031756219 -0.026083026 0.55358529
0.036734462 -0.026620151 0.55330157
0.041752521 -0.027099848 0.55291128
0.046711277 -0.027753355 0.55282909
0.050205816 -0.026367335 0.55360645
0.00036892341 -0.016189717 0.55934656
0.05096963 -0.021844268 0.55640417
0.00094652688 -0.012180633 0.56188625
0.051585436 -0.017427811 0.55885386
0.0015639875 -0.007758908 0.56435454
0.052190308 -0.013278568 0.56160247
0.0021652635 -0.0034902385 0.56682557
0.052804317 -0.0088934992 0.56407869
0.00276773 0.0007668389 0.56933779
0.053401832 -0.0047301138 0.56667668
0.0033874747 0.0051804725 0.57185954
0.054032873 -0.00027634762 0.56931764
0.0039864806 0.009400541 0.5743801
0.054622501 0.0038519111 0.57184535
0.0046026902 0.0137267 0.5770005
0.055210184 0.0081457533 0.57403982
0.0051960405 0.017962765 0.57939601
0.055812985 0.012313513 0.57671976
0.0057827677 0.022105288 0.58184868
0.056444291 0.016746789 0.57940227
0.0063865348 0.026178021 0.58471733
0.057048056 0.021076668 0.58180457
0.0070191072 0.0306831 0.58729112
0.057637308 0.025266249 0.58421469
0.0076107197 0.03498755 0.58953309
0.058239855 0.029547088 0.58668524
0.0082295481 0.039325837 0.59217596
0.058849521 0.033783328 0.58935761
0.008833346 0.043539632 0.59478927
0.059443235 0.037987389 0.59181732
0.0094433893 0.047739375 0.59753418
0.060047686 0.042249512 0.59435409
0.010056756 0.052216407 0.59983265
0.060642671 0.04646866 0.59680802
0.010660172 0.056459513 0.60238636
0.061268132 0.050941642 0.59931928
0.011278728 0.060684118 0.60523075
0.061862376 0.05508602 0.60189623
0.011868577 0.065007597 0.60740829
0.062484335 0.059528735 0.6044029
0.012456047 0.069179326 0.60982054
0.063090935 0.063764989 0.60702318
0.013072681 0.073509127 0.61244154
0.063661978 0.067800581 0.60940325
0.013687069 0.077840298 0.61502188
0.064284682 0.072323203 0.61177772
0.014275703 0.082025394 0.61742973
0.064887375 0.076555178 0.61433923
0.014869696 0.086124435 0.62008464
0.065511644 0.080886066 0.61708796
0.015487032 0.09054783 0.62254781
0.066088498 0.085112512 0.61922061
0.016093601 0.094879285 0.62499487
0.066687033 0.089203849 0.62196684
0.016694393 0.099053383 0.6276291
0.067295298 0.093405277 0.62467831
0.017299108 0.10338156 0.6300506
0.067879736 0.097662151 0.62688482
0.017904129 0.1076417 0.63260067
0.032622434 0.10893394 0.63182348
0.037405171 0.1073776 0.63331032
0.040324733 0.10771376 0.63204271
0.054963596 0.10619526 0.63110542
0.060386144 0.10478397 0.63219368
0.066139892 0.10445529 0.6313718
0.068498343 0.10223873 0.62966651
0.020958152 0.10948016 0.63369286
0.02567743 0.10896946 0.63342643
0.030508427 0.10836881 0.63328552
0.035417698 0.10799246 0.6327464
0.04036041 0.10736342 0.63262665
0.045523554 0.10672334 0.63247287
0.050456729 0.10632789 0.63196039
0.055455744 0.10582539 0.63161314
0.06050447 0.10522959 0.63141173
0.06514892 0.10478593 0.63104993
0.068284765 0.10440145 0.63094926
-0.00022093093 -0.017926499 0.55247766
0.0019331032 -0.020426812 0.55116081
0.0071000215 -0.02099641 0.55088687
0.011907358 -0.021461805 0.5505228
0.016826404 -0.021941261 0.55015576
0.02165639 -0.022509065 0.54995948
0.026849234 -0.023177654 0.54984671
0.031839546 -0.023543661 0.54927075
0.0366432 -0.024055509 0.54898614
0.041830901 -0.024483176 0.54846716
0.04658347 -0.02498693 0.54818106
0.050137315 -0.024164574 0.54919845
0.00036954816 -0.013819085 0.55505776
0.050983798 -0.019281201 0.55199629
0.00096973765 -0.009633664 0.55766124
0.051613152 -0.014795713 0.55455101
0.0015857611 -0.0051945746 0.56007367
0.052201111 -0.0107412 0.55718422
0.0021892793 -0.00093920249 0.56260687
0.052829497 -0.0062335632 0.55968225
0.0028086309 0.0035205856 0.5650382
0.05343166 -0.0019634459 0.56216574
0.0033974154 0.0076532103 0.5675438
0.054030489 0.002188934 0.56480604
0.0039810049 0.011672543 0.57016659
0.054625794 0.0063047279 0.56745285
0.0046219267 0.016266925 0.57272023
0.055220209 0.010696085 0.56958479
0.0052265427 0.020558111 0.57520711
0.055835623 0.014832454 0.57253587
0.0058224564 0.02479884 0.57763767
0.056445438 0.01916077 0.57504368
0.0064223278 0.028859731 0.58046168
0.057038277 0.023408812 0.57740879
0.0070341122 0.033222724 0.5829401
0.057660125 0.027807761 0.57999289
0.0076338546 0.037468992 0.58542562
0.058258258 0.032054804 0.58244979
0.0082236556 0.041560691 0.58802265
0.058856305 0.036314651 0.58488196
0.0088475198 0.046049647 0.59047782
0.059468884 0.040605515 0.58750463
0.0094389431 0.050162528 0.59306401
0.060081985 0.045045111 0.58986646
0.010068972 0.054648038 0.59563011
0.06069085 0.049254548 0.59257376
0.010669569 0.058815483 0.59827316
0.061289828 0.053455565 0.59512842
0.011281685 0.063245729 0.60063523
0.061902657 0.057801548 0.59765548
0.011869518 0.06741558 0.60305709
0.06251207 0.062126394 0.60016263
0.012472047 0.07170178 0.60551757
0.063117325 0.066381067 0.60272682
0.013043835 0.0756616 0.60804784
0.06370908 0.070539564 0.60523587
0.013694544 0.080327511 0.61063802
0.064316943 0.074914232 0.60762638
0.014297 0.084581152 0.61315632
0.0649371 0.079206362 0.61037546
0.014907609 0.088917851 0.6156624
0.065513894 0.083338737 0.61267799
0.015509766 0.093165055 0.61818731
0.066137925 0.087795302 0.61519444
0.016120145 0.097397551 0.62087852
0.066732734 0.091991499 0.61768723
0.016715975 0.10163249 0.6233182
0.067342848 0.096133932 0.62053728
0.017311433 0.10585406 0.62577575
0.067924812 0.10030276 0.62286144
0.017912339 0.11008908 0.6283015
0.023542173 0.1128428 0.62738717
0.030479323 0.11063449 0.62946069
0.035850592 0.10913669 0.63070762
0.060368691 0.10860065 0.62574309
0.06399329 0.10776737 0.62628442
0.068544462 0.1047298 0.62535733
0.02073545 0.11205955 0.62938392
0.025845453 0.11153689 0.62904418
0.030719297 0.11110066 0.62861484
0.035668444 0.11056703 0.6283322
0.040461991 0.10988922 0.62833065
0.04541342 0.10937028 0.62802267
0.050450113 0.10888585 0.62763584
0.055477787 0.10832708 0.62737697
0.060628124 0.10766838 0.6272577
0.065559909 0.10725471 0.6267764
0.068262666 0.1068188 0.62686634
-0.00023253396 -0.015722064 0.54828256
0.002077613 -0.017874761 0.54681015
0.0070401384 -0.018360972 0.54644418
0.012014813 -0.019057304 0.54643059
0.01700777 -0.019492602 0.54597116
0.021973327 -0.019982606 0.54561079
0.026791893 -0.020585127 0.54547596
0.031829894 -0.021048661 0.54505348
0.036855146 -0.021666396 0.54489487
0.041501552 -0.022049703 0.54443049
0.046563223 -0.022578731 0.54411316
0.050161343 -0.021607928 0.54498917
0.00039050292 -0.011178422 0.55062449
0.051030498 -0.016526969 0.5477944
0.00098179735 -0.0070993416 0.5532698
0.051636647 -0.012337095 0.55049109
0.0016075445 -0.0026167184 0.55576837
0.052232001 -0.0080744224 0.55287236
0.0022106774 0.0015678201 0.55842352
0.052820351 -0.0038584918 0.55521947
0.0028114885 0.0058383625 0.56088322
0.053431891 0.00034054741 0.55799109
0.0034255995 0.010222508 0.56336278
0.054063331 0.0048423335 0.56055158
0.0040420736 0.014495693 0.56608367
0.054669667 0.0090012271 0.56330758
0.0046295873 0.018617015 0.5685882
0.055238388 0.013240881 0.56527823
0.0052173496 0.022841454 0.57090986
0.055829879 0.017369665 0.5678367
0.0058229258 0.027064931 0.57353586
0.056450073 0.021729667 0.57046342
0.0064564925 0.031563953 0.57613754
0.057084106 0.026106216 0.57329518
0.0070366184 0.035697982 0.57849348
0.057679165 0.03050011 0.57543343
0.0076500196 0.039965454 0.58117259
0.058273535 0.034570448 0.57814687
0.0082623512 0.04431187 0.58369035
0.05889054 0.038947038 0.58068925
0.0088726971 0.048562445 0.58634818
0.059481457 0.043167908 0.58307099
0.0094691869 0.052730557 0.58892024
0.060078919 0.047341015 0.5856505
0.010095807 0.057353977 0.59117836
0.0607026 0.051802475 0.58815235
0.010668571 0.061293643 0.59376174
0.061292108 0.055918295 0.59070069
0.011276779 0.065696403 0.5961073
0.061906863 0.060249697 0.59328687
0.01190404 0.070187882 0.59861553
0.062529609 0.0646898 0.59581143
0.012478703 0.074130267 0.60122627
0.063094139 0.068569392 0.59836411
0.013112767 0.078624293 0.60384548
0.063714266 0.073065162 0.60074347
0.013731273 0.082997173 0.6064201
0.06431073 0.077235147 0.60331166
0.014328347 0.087253734 0.60884166
0.064920038 0.081440166 0.60603446
0.014923356 0.091390833 0.61144483
0.065536067 0.085838139 0.60852158
0.01552373 0.095649078 0.61391938
0.06614767 0.090245157 0.61091691
0.016123438 0.09992516 0.61635029
0.066760674 0.094557017 0.61350888
0.016727298 0.10408784 0.61905742
0.06734629 0.098637804 0.61605459
0.017350122 0.108511 0.62161422
0.067961887 0.10298045 0.61863488
0.017956486 0.11289203 0.62396789
0.020159703 0.11502156 0.62451237
0.025066135 0.1139717 0.62511301
0.059938069 0.11137767 0.62114972
0.064949468 0.10877669 0.62434852
0.068556398 0.1072659 0.62096053
0.020828847 0.11446725 0.62528956
0.025838237 0.11399281 0.62489241
0.030450322 0.11350851 0.62460709
0.03546226 0.11301388 0.6242435
0.040524259 0.11251612 0.62387323
0.045438543 0.1119826 0.62359875
0.050512344 0.11143239 0.62331432
0.05531219 0.1108342 0.62317669
0.06046427 0.11034039 0.62277806
0.065458938 0.10992703 0.62228125
0.068281397 0.10957332 0.62220335
-0.00019194404 -0.012953456 0.5439508
0.0023179203 -0.01282408 0.54182428
0.0071980576 -0.01332138 0.54152167
0.012186822 -0.014033753 0.54126489
0.017030643 -0.014540186 0.54108793
0.022186529 -0.015244868 0.54076397
0.027133735 -0.015838997 0.54048896
0.031918045 -0.016422361 0.54019308
0.036791306 -0.017326958 0.54005849
0.041881576 -0.017897796 0.53971636
0.046831686 -0.018418226 0.53951204
0.050023828 -0.0186087 0.54001135
0.00042683852 -0.0084953355 0.54637557
0.0030466055 -0.0076816939 0.54415882
0.0078339074 -0.0082418602 0.54384804
0.012805263 -0.0088067064 0.54353523
0.017805651 -0.0092550516 0.54329139
0.022740103 -0.0098879803 0.54293823
0.027693886 -0.010280862 0.54272693
0.032830801 -0.01087396 0.54239815
0.037673179 -0.011246634 0.54219836
0.042628396 -0.011872429 0.54184949
0.047758512 -0.012418665 0.54154837
0.050860893 -0.013682955 0.54279172
0.0010135084 -0.0044408832 0.54898697
0.0036847563 -0.0034573134 0.54665685
0.0085402057 -0.0038754269 0.54643023
0.01331407 -0.0044380184 0.54611796
0.01841153 -0.0050439816 0.54578137
0.023215815 -0.0056497846 0.54544371
0.028373471 -0.0060173571 0.54524827
0.033317681 -0.006623324 0.54491109
0.038358364 -0.0068750321 0.54478353
0.043247875 -0.007662077 0.54433918
0.048319235 -0.0081593394 0.54406673
0.051494792 -0.0092991209 0.54530805
0.001605059 -0.00028242916 0.55149269
0.0042462889 0.00099727605 0.54929048
0.0087787416 0.00030749571 0.54890209
0.013944447 -0.00011189654 0.54867601
0.019012971 -0.00068548135 0.5483585
0.024093196 -0.0012851804 0.54802555
0.028958565 -0.0017407499 0.54777688
0.034012999 -0.002535047 0.54732895
0.038851775 -0.0028297873 0.54717511
0.043862283 -0.003397733 0.54686069
0.048791856 -0.003897368 0.54658628
0.052040666 -0.0049436567 0.54767036
0.002243168 0.0042365119 0.55413538
0.0045263469 0.0052281339 0.55179083
0.0094514173 0.0045035221 0.5513835
0.014622369 0.0041333139 0.5511865
0.019617649 0.0035859104 0.55088413
0.024598937 0.0030539986 0.55059087
0.029602375 0.0024946276 0.55028147
0.034491632 0.0017362889 0.54985404
0.039522577 0.0012361985 0.54957974
0.044541456 0.00095771998 0.54943633
0.049367391 0.0004774984 0.54917288
0.052620441 -0.00075185578 0.55005938
0.0028346281 0.0084190872 0.5565958
0.0051305294 0.0093501583 0.55422825
0.010111995 0.0088092852 0.55392969
0.01506863 0.0083547123 0.55368197
0.019994883 0.0079268105 0.55344987
0.025163496 0.0073713437 0.5531435
0.030164711 0.0066534542 0.5527404
0.035334401 0.0062426366 0.55251944
0.040243462 0.0056725536 0.5522033
0.04517936 0.0054010674 0.55206364
0.050017647 0.0046294723 0.55162817
0.053273987 0.0036492683 0.5526219
0.0034472304 0.012669574 0.55929214
0.0058113215 0.013744909 0.55682707
0.010833893 0.012994261 0.55640477
0.015747588 0.01259613 0.55619025
0.020765368 0.012152974 0.55594951
0.026007555 0.011614755 0.55565357
0.030809604 0.010977961 0.55529761
0.035854213 0.010451764 0.55500793
0.040737271 0.010005645 0.55476493
0.045820925 0.0095980577 0.55454552
0.050442763 0.0089939088 0.55420804
0.053857915 0.0079501644 0.55530566
0.0040337034 0.01689641 0.56158757
0.0064263111 0.018039383 0.55936641
0.011477331 0.017267071 0.55893141
0.016413704 0.016881306 0.55872428
0.02130324 0.016330943 0.5584197
0.026449695 0.01576601 0.55810761
0.031471886 0.015262816 0.55783147
0.036445677 0.01472079 0.55753213
0.041394401 0.014104657 0.55718899
0.046349447 0.013761817 0.55700725
0.051234517 0.013097778 0.5566355
0.05447311 0.012055926 0.55783546
0.0046534841 0.021118816 0.56445676
0.0069345022 0.022194508 0.56182301
0.012022367 0.021594875 0.56149012
0.016957272 0.021218359 0.56128848
0.022178598 0.020699631 0.56100398
0.027023759 0.020237882 0.56075156
0.031897333 0.019481521 0.56032521
0.037235331 0.019216791 0.56019127
0.04198033 0.018446203 0.55975598
0.046961136 0.018021982 0.55952632
0.051885381 0.017487235 0.5592311
0.055106997 0.016415667 0.56041533
0.0052520358 0.025369231 0.56691456
0.0077100191 0.026433289 0.5643301
0.012685905 0.02600655 0.56409889
0.017680988 0.025203168 0.5636453
0.022658836 0.025034044 0.56356633
0.027587287 0.024458129 0.56324679
0.032810971 0.023760598 0.56285673
0.037760098 0.02330206 0.56260663
0.042498302 0.022853877 0.56236178
0.047368519 0.022265557 0.56203473
0.052511625 0.021713119 0.56172997
0.055649132 0.020677213 0.56266832
0.0058424533 0.029653423 0.56917298
0.0082917977 0.030756786 0.56688643
0.013376281 0.030192174 0.56657422
0.018274754 0.029554017 0.56621784
0.023299828 0.029219363 0.56604129
0.028170312 0.028613746 0.56570399
0.033320647 0.028260112 0.56551671
0.038362294 0.02764684 0.56517559
0.04319343 0.027040776 0.56483787
0.047984704 0.026428342 0.56449622
0.053080704 0.02588407 0.56419611
0.056308609 0.024935905 0.5655722
0.0064494745 0.033974908 0.57164574
0.0090579456 0.034969304 0.56937796
0.013968118 0.034620337 0.56919247
0.018911326 0.03396203 0.56882435
0.023954354 0.033576835 0.568618
0.028912004 0.03301077 0.56830442
0.033776838 0.032473657 0.56800759
0.038630296 0.031876862 0.56767541
0.043640167 0.031406425 0.56741858
0.048582677 0.030859243 0.56711608
0.053618584 0.030437373 0.56688803
0.056870323 0.028984655 0.5677948
0.0070647919 0.038348213 0.57416546
0.0096757719 0.039295141 0.57193583
0.014626773 0.038654458 0.57157815
0.01946109 0.03818946 0.57132381
0.024411416 0.037652507 0.5710274
0.029565373 0.037225097 0.57079655
0.034574013 0.036664061 0.57048619
0.039226279 0.036048375 0.57014203
0.04441053 0.03566321 0.56993628
0.049106102 0.035022918 0.56957775
0.054195646 0.03440937 0.5692367
0.057499539 0.033496596 0.57060629
0.0076772263 0.042607289 0.57684338
0.010391115 0.043765437 0.57457942
0.014904098 0.043012735 0.57415378
0.019940585 0.042610366 0.57393724
0.024954043 0.041899875 0.5735386
0.030129831 0.04140044 0.57326531
0.035032608 0.040972795 0.57303327
0.040093228 0.040369567 0.57269818
0.044716213 0.039897226 0.5724386
0.049963389 0.039321203 0.57212037
0.054988746 0.038940027 0.57191628
0.058139976 0.037873842 0.57292753
0.0082843965 0.046847355 0.57946634
0.010573685 0.047937606 0.57704473
0.015700504 0.047371548 0.57673186
0.02062377 0.046915185 0.57648295
0.025587045 0.046219472 0.57609284
0.030706093 0.045879189 0.57591331
0.035681281 0.045308504 0.57559711
0.040520906 0.044623978 0.57521307
0.045480814 0.044181012 0.57497221
0.050591879 0.043740314 0.57473338
0.055558193 0.043113351 0.57438385
0.05873296 0.041942678 0.57560062
0.0088931471 0.051155042 0.58199352
0.011476479 0.052086931 0.57949948
0.016445477 0.05161627 0.57924235
0.021465007 0.051024396 0.57891381
0.026373282 0.050574433 0.57866859
0.031313196 0.049975913 0.57833576
0.036282625 0.049431499 0.57803506
0.041168012 0.049146872 0.57788748
0.04616772 0.048544139 0.57755238
0.051155552 0.04785116 0.57716399
0.05618849 0.047494669 0.57697457
0.059249818 0.046379816 0.57777292
0.0094780633 0.055407185 0.58421665
0.012129996 0.056270991 0.58197373
0.016913082 0.055774685 0.58170068
0.022057071 0.055361863 0.58147842
0.027067211 0.054872502 0.58121037
0.032001317 0.054250699 0.58086377
0.036848653 0.05374359 0.58058459
0.041795671 0.053120796 0.58023751
0.046673309 0.052940015 0.5801512
0.051832344 0.052208822 0.57974094
0.056753159 0.051671851 0.57944441
0.059837263 0.050559293 0.58035451
0.010064229 0.059498627 0.58675241
0.012572137 0.060729522 0.58460927
0.017533736 0.060291741 0.58437151
0.022538494 0.059614997 0.58399278
0.027644031 0.059008297 0.58365583
0.032513373 0.058570933 0.58341789
0.037514765 0.057989966 0.58309573
0.042403836 0.05753259 0.58284611
0.04744282 0.056980316 0.58254099
0.052259248 0.056515899 0.58228689
0.057358094 0.055832643 0.58190471
0.060490735 0.0547808 0.58301383
0.010678681 0.063763544 0.589454
0.013231339 0.064996406 0.58713245
0.018282119 0.064513817 0.58686864
0.023348905 0.064007446 0.58659077
0.028194254 0.06346935 0.58629328
0.03311871 0.062840566 0.58594251
0.03821196 0.062136803 0.58554816
0.043017723 0.06172901 0.58532751
0.048044365 0.061243411 0.58506173
0.052920248 0.06089149 0.58487433
0.057894927 0.060198177 0.58448565
0.061084166 0.059100058 0.58563715
0.011293847 0.068118066 0.59200519
0.013878798 0.069546014 0.58982265
0.018870709 0.068665951 0.58932376
0.023818089 0.068224967 0.58908403
0.028761689 0.067677215 0.58878124
0.033692922 0.067130104 0.58847874
0.038657144 0.066663116 0.58822376
0.043724943 0.066034362 0.58787364
0.04859088 0.065468341 0.5875597
0.053631473 0.064997882 0.58730298
0.058462318 0.064394206 0.58696663
0.061739579 0.063581243 0.58824879
0.011897955 0.072480872 0.59435356
0.01447019 0.073619634 0.59223139
0.019270379 0.073085129 0.59193581
0.024408353 0.072487682 0.59160453
0.029253345 0.071974605 0.59132177
0.034285516 0.071417749 0.59101397
0.039289761 0.070834011 0.59069014
0.044239461 0.070235729 0.59035754
0.048968457 0.06971541 0.59007001
0.054251399 0.069348112 0.58987522
0.059037495 0.068776518 0.58955771
0.062329944 0.067673355 0.59072047
0.01249296 0.076599866 0.59698951
0.015044068 0.077835828 0.59472436
0.019866025 0.077314019 0.59443635
0.024699885 0.076784909 0.59414411
0.029820856 0.076246709 0.59384769
0.035115041 0.075644389 0.59351408
0.039910961 0.075051934 0.59318429
0.044967387 0.074512675 0.59288698
0.049893964 0.074113578 0.59267193
0.054849707 0.07363078 0.59240752
0.05977821 0.072973177 0.59203976
0.062985942 0.071992636 0.59342426
0.013116024 0.081160784 0.59930056
0.015767684 0.082211107 0.59731185
0.020606205 0.08158043 0.59695959
0.025578951 0.081028908 0.59665471
0.030410437 0.080530837 0.59638077
0.035430674 0.07996054 0.59606498
0.040382184 0.079495251 0.59581095
0.045577172 0.078933924 0.59550118
0.050326087 0.078543618 0.59529054
0.05533161 0.077867359 0.59491211
0.060371619 0.077232406 0.59455818
0.063501552 0.076205581 0.59571111
0.013707937 0.085187733 0.60205084
0.016144184 0.086462438 0.59982467
0.02101808 0.085934788 0.59953344
0.025940284 0.085271209 0.59916216
0.030838449 0.084703788 0.59884757
0.036076918 0.084286258 0.59862292
0.041140348 0.083707675 0.59830236
0.04619009 0.083164662 0.59800285
0.051104572 0.082638249 0.59771252
0.055975452 0.082156032 0.59744811
0.060643312 0.08150208 0.59708142
0.064142853 0.080616727 0.59816384
0.014319277 0.089508191 0.60459888
0.016716463 0.090733215 0.60234982
0.02174809 0.090072438 0.60198063
0.02667205 0.089653164 0.60175365
0.031618509 0.08897303 0.60137266
0.036730494 0.08862339 0.60118759
0.041692402 0.087979287 0.60082793
0.04669838 0.087449297 0.60053587
0.051694341 0.08684513 0.6002
0.056810353 0.086387083 0.59995091
0.061510734 0.085780427 0.5996123
0.064816609 0.084689558 0.60108501
0.014919731 0.093746588 0.60711086
0.017681502 0.094873935 0.60479981
0.022447221 0.09429273 0.60447651
0.027472381 0.093763113 0.60418475
0.032372337 0.093134239 0.60383385
0.037177548 0.092761487 0.60363382
0.042292356 0.09217307 0.60330772
0.047313061 0.091529176 0.60294849
0.052094605 0.091195434 0.6027714
0.057063773 0.09068507 0.60249078
0.062119264 0.090206653 0.60222942
0.065351635 0.088985518 0.60322976
0.015526442 0.098010853 0.60968208
0.018192299 0.099238351 0.60738003
0.022949034 0.098571956 0.60700631
0.027910452 0.09805052 0.60671914
0.032967795 0.09769547 0.60653067
0.037943553 0.096944124 0.60610771
0.042783696 0.096381083 0.6057955
0.047917012 0.096116796 0.60566092
0.052763209 0.095327556 0.60521507
0.057714727 0.094895378 0.60498053
0.062604412 0.094375506 0.60469401
0.065938219 0.093216598 0.60594392
0.016165117 0.10266098 0.61209649
0.018789709 0.10346977 0.609882
0.02365589 0.10274631 0.60947508
0.028615292 0.10226732 0.60921299
0.033458453 0.10191581 0.60902566
0.038500633 0.10131915 0.60869437
0.043382596 0.10075681 0.6083827
0.048400979 0.10020922 0.60808033
0.05338366 0.099647552 0.60776949
0.058400277 0.099061877 0.60744458
0.063204616 0.098627537 0.60720819
0.066558719 0.097691938 0.60830778
0.016766939 0.10674651 0.61490887
0.019377545 0.10764211 0.61234909
0.024211101 0.10711338 0.61205709
0.029127346 0.10664253 0.6117996
0.034158703 0.1062091 0.61156464
0.039062966 0.10564208 0.61125034
0.0441413 0.10505629 0.61092561
0.049151398 0.10449696 0.61061627
0.054089244 0.10401596 0.61035287
0.059167277 0.10354562 0.61009634
0.063835531 0.10293287 0.60975397
0.067170501 0.10173684 0.61091954
0.017357292 0.1109511 0.61731064
0.01990743 0.11197767 0.61491233
0.024782315 0.11140361 0.61459368
0.029732006 0.11112389 0.61444926
0.034844153 0.1103687 0.61402464
0.039610684 0.10995859 0.61380237
0.044856671 0.10931376 0.61344349
0.049793247 0.10890025 0.61321998
0.054488659 0.10826264 0.61286306
0.059552379 0.10800192 0.61273026
0.064408511 0.10731274 0.61234355
0.067794874 0.10606983 0.61325109
0.017970268 0.11539644 0.6196599
0.020452918 0.11626698 0.61761463
0.025347963 0.11565694 0.61729932
0.03024148 0.11526652 0.61689842
0.035223722 0.11459799 0.61652446
0.040594433 0.11405726 0.61622757
0.045216706 0.11362159 0.61598963
0.050279729 0.11292225 0.61559778
0.055224296 0.11246569 0.61534888
0.060092758 0.1121347 0.61524767
0.065140352 0.11149651 0.61490369
0.068397149 0.11032209 0.61612576
0.020893488 0.11710854 0.62080717
0.025699621 0.11647703 0.62072432
0.030601716 0.11606066 0.6202547
0.035833109 0.11563353 0.61972433
0.04072427 0.11502831 0.61957663
0.045671444 0.11450934 0.61926973
0.05073892 0.11391385 0.61906344
0.055674687 0.11335695 0.61882341
0.060576342 0.11284734 0.61851156
0.065480933 0.11236435 0.61815381
0.068493024 0.1123485 0.6174593
