# .PCD v0.7 - Point Cloud Data file format
VERSION 0.7
FIELDS x y z
SIZE 4 4 4
TYPE F F F
COUNT 1 1 1
WIDTH 1294
HEIGHT 1
VIEWPOINT 0 0 0 1 0 0 0
POINTS 1294
DATA ascii
0.068938032 0.17868061 0.53302467
0.067279212 0.17992274 0.53138161
0.063428581 0.1814992 0.52860498
0.059607632 0.18305071 0.52580082
0.055738881 0.18445526 0.52293867
0.051904447 0.18596467 0.52011597
0.048087228 0.18743481 0.5173313
0.044076033 0.18915385 0.51448596
0.040222518 0.19050078 0.51158619
0.036409691 0.19211432 0.50889784
0.032729305 0.19359756 0.50620687
0.030102959 0.19444919 0.50445336
0.068974748 0.17416944 0.53046876
0.067217201 0.1750842 0.52873611
0.063389599 0.17670292 0.52601033
0.059610777 0.17828622 0.52331173
0.055719372 0.17974962 0.52044779
0.051815271 0.18138261 0.51765829
0.048015937 0.1831044 0.51501113
0.044107173 0.18447879 0.5120858
0.04022757 0.18591842 0.50922072
0.03642771 0.1876218 0.50656366
0.0326133 0.18908329 0.50377011
0.02994241 0.19018266 0.502316
0.06881772 0.17002232 0.52838308
0.067159444 0.17079566 0.52650088
0.063397005 0.17219545 0.52372414
0.059531279 0.1738321 0.52097213
0.055577174 0.17551123 0.51815975
0.051783606 0.177011 0.515405
0.048040282 0.17850854 0.51269573
0.044067375 0.18006979 0.50980592
0.040228896 0.18167911 0.5070653
0.036426723 0.18311694 0.50427103
0.032475438 0.18487138 0.50149965
0.029890208 0.18551342 0.49979088
0.068798214 0.16559993 0.52595425
0.067152798 0.16647458 0.52429652
0.063341171 0.16772409 0.52139771
0.059554588 0.16930483 0.51869065
0.05548884 0.17124811 0.51590914
0.051650044 0.17247699 0.51297462
0.047923096 0.17408638 0.51033741
0.043953259 0.17571351 0.50748402
0.040153742 0.17727092 0.50475305
0.036400106 0.17856847 0.5019325
0.032383613 0.18036655 0.49912277
0.029680885 0.18124267 0.49749917
0.068642482 0.16083457 0.52352345
0.067028619 0.16203216 0.5219214
0.063046291 0.16341659 0.51893294
0.059223413 0.16499688 0.51619196
0.055505242 0.16658759 0.51355344
0.051651478 0.16803084 0.51071411
0.047890984 0.16967118 0.50806153
0.04394751 0.17133692 0.50525224
0.040235259 0.17264694 0.50247633
0.036208954 0.17432693 0.49959746
0.032162186 0.17594606 0.49666864
0.02974952 0.17663532 0.4950217
0.068595268 0.15694395 0.52142823
0.066839471 0.15756892 0.51947546
0.063054129 0.15910169 0.51674515
0.059249006 0.16050775 0.51393199
0.055302896 0.16198537 0.51102453
0.051617034 0.1635706 0.50841314
0.047755811 0.16534986 0.50573784
0.043788612 0.16673253 0.50276256
0.03990642 0.1683704 0.49999586
0.036086209 0.17004958 0.49730766
0.0324727 0.17131945 0.49460292
0.029772723 0.17199397 0.49270552
0.068530291 0.15234023 0.51896167
0.066892795 0.15319885 0.5173018
0.063108206 0.15450235 0.5144555
0.05926083 0.15609868 0.51169997
0.055306964 0.1575202 0.50875676
0.051391806 0.15941939 0.50609249
0.047631763 0.16061155 0.50321233
0.043584939 0.16234297 0.50034058
0.039739829 0.16403383 0.49763528
0.035900895 0.16552757 0.49483538
0.032180894 0.16711715 0.49219453
0.029541936 0.16770698 0.49030471
0.068342455 0.14736858 0.51646066
0.066784903 0.14875036 0.51493865
0.062793359 0.14999817 0.51187217
0.059040412 0.15159562 0.5092048
0.055181645 0.15323977 0.50646305
0.051423922 0.15482149 0.50378323
0.047449499 0.156344 0.50087231
0.043565787 0.15791801 0.49807176
0.039760247 0.15946658 0.49533075
0.035800617 0.1611965 0.49253911
0.031937815 0.16272937 0.48973697
0.029282304 0.16359124 0.48820448
0.068250187 0.14293508 0.51412636
0.066710301 0.14414574 0.51252705
0.06282828 0.14577943 0.50975841
0.058899328 0.1474696 0.50697494
0.055063568 0.14887983 0.50413555
0.051171534 0.1504806 0.50134087
0.047385938 0.15204516 0.49862647
0.043360118 0.15360405 0.49568644
0.039615482 0.15506372 0.4929567
0.035866722 0.15665461 0.49028984
0.031994052 0.15820494 0.48748747
0.02937896 0.15905192 0.48579004
0.068285018 0.13863555 0.51169062
0.06664937 0.13982622 0.5102731
0.062735766 0.1412954 0.50739151
0.058961619 0.14284991 0.5046826
0.055018432 0.14439826 0.50181383
0.051245559 0.14614671 0.49920478
0.047365099 0.14767276 0.49638283
0.043434538 0.14913857 0.49348378
0.039658844 0.15061179 0.4907321
0.035802711 0.15218976 0.48795912
0.031784642 0.15380178 0.4850533
0.029151082 0.15447243 0.48339221
0.068021014 0.13429511 0.50964546
0.066511393 0.13543722 0.5079124
0.062658288 0.13675734 0.50501102
0.058899906 0.13835245 0.50233746
0.055026695 0.13995042 0.49955878
0.050951391 0.14174333 0.49669191
0.047289394 0.14328353 0.49407974
0.043378513 0.14446923 0.49105644
0.039537337 0.14620341 0.4883768
0.035695676 0.1476126 0.48553136
0.031849939 0.149322 0.48283491
0.029105622 0.14988977 0.48101711
0.067865863 0.12980731 0.50736797
0.066608645 0.13093007 0.50570965
0.062589183 0.13235417 0.502707
0.058895502 0.13388637 0.50006133
0.054956406 0.13542554 0.4971917
0.050952643 0.13727626 0.49442059
0.047090605 0.13863839 0.49153233
0.043234564 0.14005639 0.48867804
0.039461095 0.14183784 0.48608524
0.035625737 0.14331533 0.48328042
0.031748932 0.14493236 0.48050815
0.029024024 0.14596087 0.47897008
0.067927927 0.125303 0.50478089
0.066438243 0.12662494 0.50336158
0.062480468 0.12808518 0.50043446
0.058550045 0.12975778 0.49764073
0.05468794 0.13117942 0.49478269
0.05084727 0.13282397 0.49205789
0.047122948 0.13442647 0.48941964
0.043233644 0.13577053 0.4864969
0.039187707 0.13729295 0.48351964
0.035493027 0.1390467 0.48098582
0.031509485 0.14050885 0.47803575
0.029061222 0.14141501 0.47656536
0.067819633 0.12117479 0.50263822
0.066069484 0.12213011 0.50073302
0.062222183 0.12375502 0.4979921
0.058609754 0.12505569 0.49530402
0.054799445 0.12665352 0.49258366
0.050863691 0.12824818 0.48974532
0.046900578 0.12981711 0.48686856
0.043036297 0.13152616 0.4841547
0.039178349 0.13287389 0.48126292
0.035314701 0.13461009 0.47856346
0.031564124 0.1358844 0.47573388
0.028945228 0.13710423 0.47429806
0.067704439 0.11672336 0.50032568
0.066359505 0.11768179 0.498739
0.062372647 0.11921655 0.49582279
0.058508761 0.120682 0.4929854
0.054558352 0.12225966 0.49012485
0.05087281 0.1238561 0.48751944
0.04693016 0.12543866 0.48466855
0.043098558 0.12688562 0.4818517
0.039241023 0.12858278 0.47913805
0.035409305 0.12995721 0.47628415
0.031427395 0.1315574 0.47340584
0.028810859 0.13233989 0.47174072
0.067738533 0.11219588 0.49776441
0.065932281 0.11342556 0.49617758
0.062189437 0.11470792 0.49335927
0.05826667 0.1163374 0.49055073
0.054475226 0.11765675 0.48770615
0.050758503 0.11958262 0.48523945
0.046933383 0.1211767 0.48250341
0.043074816 0.12244743 0.47957188
0.038993545 0.12407767 0.47661671
0.03531006 0.12561388 0.47398257
0.031410106 0.12691411 0.47102767
0.028800074 0.12821624 0.46952522
0.067686521 0.10796132 0.49548486
0.065819003 0.1089103 0.49377555
0.06215512 0.11052009 0.49119702
0.058279719 0.11181012 0.4882597
0.054398715 0.11348394 0.48551244
0.050360017 0.11522783 0.48265457
0.046552911 0.11673397 0.4798905
0.042719133 0.11812764 0.47704449
0.038948465 0.11967862 0.47433704
0.034865059 0.12120093 0.47132498
0.031401191 0.12267327 0.468862
0.028666284 0.12380616 0.46724886
0.067470722 0.10390556 0.49353114
0.06575115 0.10447834 0.491458
0.06193614 0.10598321 0.48868597
0.057951722 0.10757772 0.48580244
0.054206491 0.10893306 0.48301905
0.050414883 0.11046623 0.48028311
0.046379775 0.11224538 0.4774465
0.042690221 0.11361859 0.47472382
0.039002344 0.11515071 0.47208357
0.035127502 0.11701278 0.46943775
0.031128179 0.11837362 0.46642154
0.028591393 0.11934617 0.46492875
0.067403845 0.098884277 0.49083531
0.065769613 0.099989004 0.48919129
0.06192667 0.10141009 0.48635074
0.05809845 0.10325221 0.48373801
0.0542228 0.10456444 0.48081174
0.050323501 0.10629892 0.47807837
0.046511188 0.10767206 0.47524184
0.042718604 0.1092433 0.47252434
0.038804978 0.11089952 0.46973786
0.034890693 0.1124993 0.46692204
0.031134699 0.11396712 0.46418589
0.028353475 0.11520529 0.46264765
0.067235209 0.094573356 0.48867467
0.065731063 0.09568128 0.48696411
0.061965104 0.09703505 0.48416072
0.058114138 0.098730192 0.48145211
0.05407089 0.100333 0.47851828
0.05037697 0.10168025 0.47577834
0.046396706 0.10311995 0.47281992
0.0424948 0.10490333 0.47010899
0.038799345 0.10646316 0.46747577
0.034846358 0.10793279 0.46455786
0.031123526 0.10939135 0.46184775
0.028425042 0.11058132 0.46028581
0.0671468 0.090117939 0.48632282
0.06561698 0.0910367 0.48449555
0.061685175 0.092769779 0.4817313
0.057753388 0.094155155 0.47879019
0.054106303 0.095940322 0.47631645
0.04998507 0.09738721 0.47323096
0.046254724 0.098789938 0.47048551
0.042369984 0.10062866 0.46781865
0.038619377 0.10198539 0.46503097
0.034699682 0.10353659 0.46218541
0.03098974 0.10500864 0.45949411
0.028220749 0.10613817 0.45798784
0.067057937 0.085683055 0.48398304
0.065405369 0.08683309 0.48216087
0.061787318 0.088168241 0.47948512
0.05779912 0.089888573 0.4766621
0.053913001 0.091472581 0.47386438
0.050041445 0.092833146 0.47096652
0.046261303 0.094460733 0.46828923
0.042446822 0.095963456 0.4655166
0.038434349 0.09753406 0.4625949
0.034705188 0.098873407 0.45981827
0.030829769 0.1006867 0.45714712
0.028175686 0.10159592 0.45550144
0.067021236 0.080996558 0.48143137
0.065441892 0.082264647 0.47987065
0.061636046 0.083743103 0.4770937
0.057918314 0.085222341 0.47439882
0.053859875 0.086855404 0.47146627
0.050056644 0.088229969 0.46863887
0.046253353 0.089869894 0.46594641
0.04235509 0.091601856 0.4632127
0.038526349 0.092955813 0.46035117
0.03461634 0.094637603 0.45758104
0.030690171 0.096371979 0.45482269
0.028135397 0.097168408 0.45319247
0.066897467 0.07724455 0.47951904
0.065346509 0.077795841 0.47750884
0.061523248 0.079478174 0.47481942
0.057738256 0.08073137 0.47194719
0.053726975 0.082626514 0.4691917
0.049848773 0.083948106 0.46626782
0.046026908 0.085692629 0.46361136
0.042282373 0.087097406 0.46085376
0.038383823 0.088682741 0.45804518
0.034598157 0.090234518 0.45532423
0.03057418 0.091884732 0.45243236
0.027957343 0.092984661 0.45088166
0.06688197 0.071867757 0.47655472
0.065074511 0.073667809 0.47515661
0.061321542 0.075130247 0.47242051
0.0576148 0.076435253 0.4696472
0.05362777 0.078182682 0.46683905
0.049806543 0.079696722 0.46406591
0.046054222 0.0810875 0.46129397
0.042176604 0.082801677 0.45857036
0.038374558 0.084092371 0.45570138
0.034321934 0.08572749 0.45277527
0.030750096 0.087240785 0.45023301
0.027940482 0.088087387 0.44847786
0.066782102 0.067913428 0.47449699
0.065045141 0.06917733 0.47284496
0.061383933 0.070518821 0.47013244
0.057415977 0.072285555 0.46735179
0.053461596 0.073817782 0.46446443
0.049565867 0.075281389 0.46159655
0.045808002 0.076688059 0.45882756
0.041986227 0.078392386 0.45615071
0.03817245 0.079747297 0.45330355
0.03430967 0.081471682 0.4505989
0.030328535 0.083019115 0.44769445
0.027809026 0.084183022 0.44628286
0.066809759 0.06363596 0.47208345
0.064974912 0.064653859 0.47047865
0.061222997 0.066088766 0.46772954
0.057303723 0.067751639 0.4649412
0.053462029 0.069156371 0.46209347
0.049583733 0.0709204 0.4593946
0.045747109 0.072228819 0.45650259
0.041807175 0.073967926 0.45373386
0.038076401 0.075526744 0.45106739
0.034272231 0.076854691 0.44821543
0.030364685 0.07868173 0.44552147
0.027643293 0.079080582 0.44365302
0.06658645 0.059114806 0.46988168
0.065079011 0.05999843 0.46820688
0.061057869 0.061846703 0.4654184
0.057275321 0.063207798 0.46260333
0.053392265 0.064707108 0.45976534
0.049595818 0.066425614 0.45711923
0.045703858 0.06797716 0.45429957
0.041873448 0.069457725 0.45150089
0.037882309 0.070923425 0.44854563
0.03407919 0.072451092 0.44579619
0.030378724 0.073921315 0.44311279
0.027672611 0.075273141 0.44158819
0.066518635 0.055033468 0.46770909
0.064814419 0.055702023 0.46577585
0.060822286 0.057328835 0.46290159
0.057144795 0.058813147 0.46024662
0.053394333 0.060390651 0.45757139
0.049494117 0.061894767 0.45471996
0.045724042 0.063640155 0.45211196
0.041785635 0.065124944 0.44921529
0.037926294 0.066532098 0.44635245
0.034001913 0.068094708 0.44350836
0.03028002 0.069704376 0.44087598
0.027617093 0.070859283 0.43933618
0.066573903 0.050911829 0.46534389
0.064560212 0.051451124 0.46337759
0.06102401 0.052995317 0.46088412
0.057230137 0.054506995 0.45813513
0.053413816 0.055992045 0.45535183
0.049447969 0.057551764 0.4524678
0.045538697 0.059166327 0.44966418
0.041752003 0.060597733 0.44688103
0.037954755 0.062135063 0.44414198
0.033999138 0.063693866 0.44126701
0.030042965 0.065318204 0.43842483
0.027364407 0.06587106 0.43669891
0.066335917 0.04644081 0.46319026
0.064680547 0.046731979 0.46110389
0.060883608 0.048671566 0.45855433
0.056919601 0.049990855 0.45554972
0.053060878 0.051671006 0.45282632
0.049150884 0.053270631 0.45001441
0.045410231 0.054605789 0.447225
0.041646831 0.056356288 0.44462579
0.03773329 0.057876982 0.44177043
0.033878312 0.059434533 0.43898815
0.030075429 0.060799956 0.43619516
0.027470117 0.0619708 0.43459764
0.064798594 0.044392571 0.46065515
0.060240462 0.046130978 0.45753333
0.056678288 0.047617465 0.45485109
0.052772705 0.049206115 0.45198828
0.048777118 0.050686009 0.44933507
0.04527498 0.052189618 0.44661808
0.041308954 0.053822599 0.44367355
0.03756614 0.055247888 0.44111422
0.033319008 0.056898281 0.43814737
0.030106222 0.058305107 0.43560278
0.027733425 0.059499398 0.43342906
0.067000881 0.17756273 0.53508306
0.065279678 0.18059611 0.53469831
0.061300222 0.18204987 0.53209406
0.057540528 0.18364927 0.52920532
0.053611994 0.18518066 0.52645195
0.049957231 0.18685432 0.52341837
0.045977533 0.18837814 0.52068126
0.041825015 0.18986115 0.5180282
0.038368419 0.19135375 0.51533031
0.034288097 0.19286704 0.51261705
0.030446276 0.19449967 0.50966841
0.027810527 0.19344692 0.50660497
0.067022681 0.1732899 0.53268021
0.02764171 0.18870682 0.50417387
0.066912204 0.16872573 0.53029853
0.027632803 0.18458039 0.50189483
0.066823319 0.16431871 0.52797419
0.027437964 0.18012242 0.49968877
0.06680055 0.1598774 0.5255394
0.027481295 0.17579952 0.49722832
0.06651248 0.15552984 0.52352363
0.027299939 0.17110601 0.49487281
0.066466905 0.15078212 0.5209502
0.027322225 0.16679175 0.4924463
0.066443317 0.1467271 0.51873112
0.027103545 0.16257685 0.49040818
0.066514604 0.14230818 0.51617867
0.026967067 0.15794498 0.48802486
0.06635882 0.13773966 0.51385719
0.026844809 0.15366659 0.48581818
0.066038124 0.13317095 0.51176369
0.026777344 0.1491693 0.48341414
0.066039279 0.12901801 0.50945598
0.026715515 0.14450796 0.4809112
0.065949365 0.12446368 0.50705129
0.026677018 0.14036995 0.4786666
0.065831184 0.12006649 0.50477296
0.026678875 0.13605894 0.47627011
0.065826476 0.11564793 0.50232583
0.026638642 0.13165295 0.4738791
0.065812901 0.1112287 0.4998906
0.026524905 0.12730426 0.47162154
0.065631554 0.10675874 0.49765924
0.026397198 0.12270921 0.46924654
0.065545768 0.1022991 0.49530143
0.026274495 0.11827956 0.46695644
0.065347828 0.097899958 0.49313232
0.026233431 0.11375953 0.46450323
0.065353617 0.093593732 0.49073303
0.026106942 0.10927587 0.46218836
0.065333009 0.089110434 0.48827195
0.02588482 0.10486542 0.46004644
0.065057471 0.08463271 0.48616654
0.025942789 0.10056683 0.45757926
0.065108463 0.080239207 0.48365629
0.025939081 0.096120067 0.45511508
0.064922333 0.075879462 0.48149276
0.025698368 0.091620907 0.45294958
0.064883851 0.071646571 0.47919542
0.025632432 0.08720205 0.45058697
0.064796135 0.066968523 0.47671902
0.025661306 0.08279226 0.44809827
0.064837664 0.062617041 0.47424516
0.025361916 0.078266397 0.44599912
0.06481573 0.058223188 0.47183558
0.025383519 0.074010134 0.44360572
0.06458018 0.053877935 0.46974844
0.025293637 0.069597661 0.44127977
0.064586625 0.049586833 0.46735665
0.025093066 0.065023124 0.43901691
0.064334616 0.044897273 0.46510106
0.060767222 0.045180388 0.45931554
0.044765607 0.0497877 0.45119166
0.04101165 0.051509574 0.44807047
0.035696853 0.05492124 0.44180501
0.033545755 0.056281775 0.43930763
0.027214082 0.056857735 0.43845767
0.02523624 0.06056805 0.43634498
0.062566593 0.043547332 0.46234301
0.058354065 0.044958591 0.45982826
0.054411642 0.046618693 0.45683146
0.050815944 0.048188277 0.45399293
0.04721253 0.049560197 0.4515295
0.043374173 0.051151462 0.44865912
0.039280273 0.052631661 0.44600907
0.035463057 0.054327942 0.44293886
0.03147348 0.055757463 0.44038096
0.027649041 0.057545334 0.43713725
0.025358437 0.058358058 0.43568391
0.06394437 0.17586891 0.53836989
0.062116459 0.17897205 0.53789854
0.058138207 0.1803536 0.53543115
0.054285884 0.18190908 0.53262919
0.050539307 0.18351759 0.52972263
0.046463422 0.18502645 0.52701759
0.042529352 0.1866464 0.52409655
0.038901091 0.1881243 0.52143312
0.034875758 0.1896961 0.51860678
0.031000046 0.19108555 0.51612049
0.027276663 0.19274834 0.51311016
0.024664069 0.19172195 0.51002324
0.063738137 0.171388 0.53616685
0.024658004 0.18730932 0.50752461
0.063867927 0.16711296 0.53361338
0.024432797 0.18286267 0.5053668
0.063542195 0.16235268 0.53142047
0.024403743 0.17838831 0.50292236
0.063505456 0.15800166 0.52905518
0.024366491 0.17396466 0.50051743
0.063285947 0.15363309 0.52693284
0.024117276 0.16967875 0.49848211
0.063278735 0.14927523 0.5245229
0.02416213 0.16526043 0.49596658
0.063209556 0.1447673 0.52211529
0.023962364 0.160768 0.49374819
0.063261636 0.14050426 0.51967597
0.023757404 0.15635453 0.49158087
0.063161753 0.13628513 0.51747125
0.023769215 0.15193604 0.48911092
0.06281174 0.13172494 0.51542306
0.023588879 0.14755446 0.48692724
0.062861726 0.12719733 0.51283973
0.023594884 0.14306031 0.48442334
0.062774077 0.12271644 0.51047266
0.023467766 0.13852096 0.48207843
0.06274385 0.11853166 0.50819063
0.023457382 0.1342843 0.47974017
0.0626093 0.113877 0.50579202
0.023258327 0.12974563 0.47749513
0.062569097 0.10954298 0.50344092
0.023226166 0.12530152 0.47507179
0.062565237 0.10510073 0.50097942
0.023153124 0.12089583 0.47272632
0.062407497 0.10078762 0.49880254
0.023167945 0.11657618 0.47030711
0.062152695 0.096304856 0.49666566
0.022906365 0.11195723 0.46810395
0.062178008 0.091819093 0.49413967
0.0229409 0.10762508 0.46565056
0.062165141 0.087664634 0.4918505
0.022930652 0.10307176 0.46313626
0.061898086 0.082952924 0.4896034
0.022704482 0.098722756 0.46103403
0.061955459 0.078613251 0.48711422
0.022607829 0.094313577 0.45871925
0.061713047 0.074122444 0.48495573
0.022413673 0.08989688 0.45653519
0.061691575 0.069707781 0.48253393
0.022472495 0.0854128 0.45396382
0.061591994 0.065382347 0.48026973
0.022433082 0.081020191 0.45157909
0.061483964 0.060851552 0.47790319
0.022379693 0.076761149 0.44928786
0.0614895 0.056390204 0.47541812
0.022150349 0.072156012 0.44704783
0.061410893 0.051855981 0.47300896
0.022051474 0.067792922 0.44476172
0.061185867 0.047506563 0.47090495
0.021991687 0.063227594 0.44230926
0.061260752 0.04309012 0.46834889
0.041074134 0.048908412 0.45299995
0.034957353 0.051231295 0.44882953
0.032037165 0.052284434 0.44694442
0.029748794 0.054732084 0.44239107
0.025975557 0.056283176 0.43959439
0.021965653 0.058917567 0.4399519
0.058949132 0.041841894 0.46571493
0.055044323 0.043371484 0.46296409
0.051449496 0.044913955 0.46017694
0.04767146 0.046277851 0.45773539
0.043762177 0.047904924 0.45479977
0.039862797 0.049598947 0.45173699
0.036310352 0.051021092 0.44917637
0.032392964 0.052632049 0.44627169
0.028304532 0.05407434 0.44369334
0.024367977 0.055509761 0.44112223
0.022506576 0.056691363 0.43895304
0.060623154 0.17411159 0.54198748
0.058703426 0.17717393 0.54143834
0.055069935 0.17857781 0.5389154
0.051105499 0.1801988 0.53599352
0.047291305 0.18170643 0.53328085
0.043445013 0.18318979 0.53061533
0.039428718 0.18468502 0.5279339
0.035674203 0.18624736 0.52511519
0.031840503 0.18784904 0.5222249
0.028114093 0.18941692 0.51939464
0.02413258 0.19101337 0.5165199
0.021533556 0.18999265 0.51338953
0.06055842 0.16969195 0.53962278
0.021537285 0.18554923 0.51086336
0.060639992 0.16530497 0.53707385
0.021311555 0.18096834 0.50863177
0.060350865 0.16082692 0.53498703
0.021284947 0.17670649 0.506302
0.060256142 0.15640919 0.5326649
0.021238666 0.17234844 0.50394595
0.060147285 0.15184976 0.53028357
0.021125495 0.16790301 0.50163388
0.060145166 0.14743903 0.52783722
0.021003559 0.16337016 0.49928543
0.05990804 0.1430537 0.52572995
0.02096428 0.15902476 0.49692675
0.05997584 0.13865849 0.52319551
0.020931566 0.15461612 0.49452385
0.059911765 0.13440949 0.52092463
0.020852977 0.15027177 0.4922201
0.059653018 0.12977931 0.51871133
0.020649659 0.1458683 0.49005604
0.059708532 0.12540311 0.51620448
0.020551933 0.1412982 0.48765343
0.059599701 0.12106571 0.51394641
0.020383101 0.13692775 0.48546004
0.0594818 0.1165463 0.51159984
0.020300012 0.13240999 0.4830662
0.059459373 0.1123144 0.50928086
0.020064918 0.12805487 0.48097298
0.059443858 0.10767014 0.50672334
0.020100009 0.12372968 0.47852263
0.059184112 0.10307118 0.50452876
0.020008231 0.11922874 0.47615016
0.059080482 0.098873563 0.50234115
0.019922098 0.11470103 0.47375506
0.059082672 0.094351277 0.49982685
0.019818846 0.11033534 0.47147357
0.05907087 0.090172186 0.49752253
0.019736622 0.10586173 0.46910307
0.058796778 0.085498117 0.49530607
0.019657992 0.10160044 0.46684551
0.058841646 0.081299618 0.49291259
0.019594723 0.097162023 0.46446836
0.058686569 0.076917358 0.49069357
0.019328173 0.092600904 0.4623042
0.058654528 0.072382852 0.48821986
0.019373599 0.088144377 0.45976666
0.058492847 0.067887977 0.48594746
0.019379258 0.083957084 0.45743361
0.058433242 0.063400954 0.48353824
0.019167112 0.079385817 0.45518857
0.058345377 0.059060141 0.48124927
0.01902608 0.074965604 0.45292908
0.058373626 0.054674104 0.47877464
0.019003574 0.070526287 0.45049503
0.058227722 0.050222069 0.47650421
0.018878713 0.066114299 0.44821772
0.058035739 0.045675956 0.47424525
0.018787857 0.061642654 0.44586027
0.057885863 0.041210622 0.47197291
0.039283477 0.04719682 0.45631361
0.037247587 0.047751665 0.45533949
0.024272691 0.052364208 0.44708997
0.019229181 0.053878218 0.44441217
0.018769562 0.057323322 0.44349569
0.055980656 0.040023729 0.46927568
0.052455384 0.04148604 0.46663791
0.048375975 0.043100938 0.46373188
0.044451732 0.044567816 0.46110076
0.040611897 0.046049416 0.45843837
0.036913965 0.04788135 0.45510635
0.032857783 0.049306154 0.45255989
0.029104736 0.050819069 0.44983482
0.025393341 0.052297413 0.44717377
0.021526089 0.053902932 0.44427747
0.019217771 0.05484578 0.44257808
0.057337508 0.17217252 0.54545498
0.055700269 0.17533588 0.5450381
0.051757634 0.17692475 0.54217631
0.047839224 0.17845903 0.53941703
0.043886501 0.17998767 0.53666985
0.04021579 0.18149066 0.5339604
0.036190007 0.18303113 0.53119355
0.032414168 0.18457638 0.52840805
0.028556425 0.18613188 0.52560622
0.024590911 0.18765731 0.52286559
0.020895919 0.18928835 0.51991433
0.018304661 0.18851663 0.51718909
0.057383075 0.16783072 0.54298091
0.018187366 0.18383953 0.51454717
0.057390623 0.1636555 0.54065198
0.018007979 0.17929307 0.51227063
0.05721949 0.15910123 0.53835964
0.018080583 0.17495359 0.5097605
0.057101801 0.15469119 0.53607351
0.017926171 0.17043275 0.50746357
0.057010293 0.15028581 0.53375375
0.017912725 0.16610286 0.50507778
0.056870744 0.14573103 0.53141749
0.017823815 0.16149202 0.50264031
0.056796301 0.14135936 0.52909285
0.017784424 0.157206 0.50031477
0.056739643 0.13687223 0.52667946
0.017509073 0.15281427 0.49825686
0.056592323 0.13250449 0.52445781
0.017538313 0.14846778 0.49580279
0.056507602 0.12821645 0.52219379
0.017478779 0.14386997 0.49333194
0.056670919 0.12393099 0.51958823
0.017303266 0.13941252 0.49109948
0.05652836 0.11928189 0.51720369
0.017179608 0.13508648 0.48886824
0.056275021 0.1148729 0.51510578
0.017057555 0.130665 0.48658174
0.056226362 0.11037089 0.51267308
0.017059464 0.12625493 0.4841302
0.056204073 0.10599102 0.51027173
0.016957643 0.12190765 0.48185694
0.056257505 0.10160439 0.50776196
0.016877653 0.11749377 0.47951654
0.055975996 0.097023711 0.5056076
0.016767595 0.11313311 0.47724727
0.055911593 0.092625223 0.50325418
0.016602211 0.10852386 0.47491646
0.056010246 0.088199951 0.50066036
0.016583893 0.10421512 0.47254914
0.055715673 0.0837828 0.49861494
0.01642631 0.099635161 0.47022384
0.055599272 0.079473287 0.49638283
0.016400144 0.095233023 0.46781549
0.055541694 0.074982621 0.49396878
0.016312618 0.091057077 0.46561763
0.055461749 0.070496872 0.49158838
0.016056595 0.086421743 0.46339771
0.055338398 0.066175416 0.48935929
0.016000193 0.082032576 0.46103841
0.055377521 0.061897643 0.48692971
0.016011149 0.077521443 0.45851818
0.055203043 0.057342581 0.48464158
0.015725356 0.073202804 0.45651531
0.055051118 0.052876845 0.48237187
0.015816327 0.068918422 0.45401037
0.055053588 0.048531286 0.47995535
0.015851162 0.06453529 0.45152819
0.054889005 0.044072554 0.47770703
0.015594866 0.060176656 0.44946229
0.054816846 0.039658517 0.47535568
0.04270545 0.041464359 0.46705174
0.040295586 0.043675438 0.4629516
0.037221719 0.04413911 0.46218997
0.025801819 0.048671201 0.45403358
0.022629356 0.050934702 0.4498632
0.017806653 0.05253128 0.44702038
0.015566135 0.055421606 0.44692183
0.052631982 0.038310409 0.4726522
0.048976779 0.039786056 0.46999413
0.045332141 0.04135026 0.46716762
0.041336752 0.042778596 0.46461225
0.037625868 0.044388965 0.4617008
0.033728294 0.046059407 0.45868254
0.029734986 0.047506571 0.45609128
0.025815193 0.049043179 0.45332775
0.021966442 0.050655894 0.45041716
0.018295789 0.052067518 0.44788095
0.015923258 0.053079128 0.44605362
0.05426912 0.17051786 0.5487799
0.052486043 0.17357799 0.54849398
0.048497193 0.17520081 0.5455696
0.044705484 0.1766662 0.54293609
0.040829711 0.17816788 0.54023707
0.037145019 0.17970921 0.5374555
0.033255946 0.18140638 0.53438628
0.029173993 0.18284689 0.53181112
0.025443517 0.1843434 0.52911627
0.021258904 0.18587337 0.52637535
0.017564796 0.18735215 0.52371275
0.015213348 0.1870975 0.52075523
0.05426503 0.1662436 0.54641205
0.01493974 0.18208869 0.51806664
0.054247085 0.16189203 0.54402047
0.014793538 0.177461 0.51569903
0.054039907 0.15732986 0.54177362
0.014836073 0.17322862 0.51328999
0.053960279 0.1529229 0.53943652
0.014651787 0.16858864 0.51096827
0.053756308 0.14833827 0.53717279
0.014540363 0.1641753 0.50867158
0.053703479 0.14405152 0.53486538
0.014553476 0.15984938 0.50625128
0.053752352 0.13985398 0.53246689
0.014582541 0.15555701 0.50382751
0.053568587 0.13512355 0.53009421
0.014240324 0.15108265 0.50181615
0.053451821 0.1306898 0.52779365
0.014426474 0.14672452 0.49913862
0.053321838 0.1263123 0.52554256
0.014308389 0.14225249 0.49681863
0.053465076 0.12204485 0.52297473
0.014140621 0.13787805 0.49462152
0.053319346 0.11754454 0.52067721
0.014039665 0.13332766 0.49223429
0.053217128 0.11315344 0.51838022
0.013921719 0.12894019 0.48996106
0.053227529 0.10889143 0.51599914
0.013786096 0.1245444 0.48770761
0.05302646 0.10427562 0.51371402
0.013742663 0.12009028 0.48529428
0.053023815 0.099995248 0.5113408
0.013508052 0.11553533 0.48308939
0.052883752 0.0953658 0.50896376
0.013537902 0.11114527 0.48061031
0.052893218 0.091025203 0.5065403
0.013488315 0.1067864 0.47825837
0.052661918 0.086479068 0.5043357
0.013374604 0.10229476 0.47592142
0.052551307 0.082169868 0.50209582
0.013257328 0.097826116 0.47360218
0.052421995 0.077744849 0.49981743
0.013194647 0.093415111 0.47123942
0.052441198 0.07361763 0.49749899
0.013134923 0.089103356 0.46892768
0.05225284 0.068814047 0.49509206
0.01293781 0.084605411 0.46670258
0.052165754 0.064410999 0.49276748
0.012962125 0.08013083 0.46418419
0.0520439 0.059931315 0.49044842
0.012799896 0.075875238 0.46204543
0.051962573 0.055533335 0.48811868
0.012642879 0.071280703 0.45971122
0.051975928 0.051123939 0.48565167
0.012561575 0.066935822 0.45741093
0.051852807 0.046750531 0.48339337
0.012691177 0.062587336 0.45481697
0.051743887 0.042387024 0.48112094
0.012528233 0.058293991 0.45265824
0.051667161 0.038000435 0.47879118
0.046091825 0.036609292 0.47612765
0.042535219 0.039782524 0.47024706
0.039517216 0.042093441 0.46598089
0.017889122 0.04830128 0.45503744
0.015631394 0.049738459 0.45239881
0.012370158 0.053730503 0.45034271
0.04962023 0.036480486 0.47623694
0.045624655 0.038057402 0.47339982
0.0417361 0.03951855 0.47077814
0.037900437 0.041064695 0.4679932
0.034385979 0.042673141 0.46507791
0.030529972 0.044209749 0.46231186
0.026553404 0.045742854 0.45955706
0.022677705 0.047325045 0.4567053
0.018814988 0.04900527 0.45366716
0.014845673 0.050464667 0.45105183
0.012931038 0.051408604 0.44933537
0.051258076 0.16907352 0.55214238
0.049174424 0.17185433 0.5518887
0.04526753 0.17337103 0.54916239
0.041611426 0.17503536 0.54614651
0.037613414 0.17652422 0.54347646
0.033708487 0.17804424 0.54074371
0.030077443 0.17960677 0.53791994
0.026073655 0.18112582 0.53519285
0.022273615 0.18274805 0.53226233
0.018525958 0.18411857 0.52980703
0.014582258 0.18568836 0.52698141
0.01207589 0.18532225 0.52411079
0.050977368 0.16442329 0.54994828
0.011738263 0.18012582 0.5214045
0.051018082 0.16016585 0.54752785
0.011769034 0.17575587 0.51893526
0.050842602 0.15554941 0.54520702
0.011605006 0.17136514 0.51672393
0.050852776 0.15119082 0.54277259
0.011438433 0.16702379 0.51454359
0.050728362 0.14678073 0.54049569
0.011506498 0.16263378 0.51201165
0.050576072 0.14226025 0.53819609
0.0113579 0.1579898 0.50963831
0.050591625 0.13780788 0.53570217
0.011431195 0.15364008 0.50712156
0.050542057 0.13353196 0.5333963
0.01105357 0.14933364 0.50525242
0.05035888 0.12918645 0.53123653
0.011030573 0.14504245 0.50290132
0.050340123 0.1247955 0.52882421
0.01096582 0.14052239 0.50048089
0.050214656 0.12014787 0.5264169
0.011006035 0.13595545 0.49788922
0.050080668 0.11588257 0.52423364
0.010666385 0.13147773 0.4958725
0.050075609 0.11144195 0.52177477
0.010746803 0.12721819 0.49339592
0.049956739 0.10695131 0.51944548
0.010630943 0.12269529 0.49104458
0.049945954 0.10252991 0.51700521
0.010481372 0.11834399 0.48883516
0.049916938 0.098199494 0.51464063
0.010454666 0.11400771 0.48646414
0.049563929 0.093486629 0.51251179
0.010288134 0.10941079 0.48414177
0.049618624 0.089370362 0.51015037
0.010264065 0.1051334 0.48179981
0.049387742 0.084852703 0.50796103
0.010187194 0.10064653 0.47941455
0.04921446 0.080226429 0.50563169
0.010040153 0.096066311 0.4770745
0.049282961 0.076103427 0.50324744
0.010098696 0.092011504 0.47474188
0.049168631 0.071457863 0.50082582
0.0098544471 0.087400794 0.47251937
0.049071439 0.066933557 0.4984479
0.0098227039 0.083069205 0.47015792
0.048931211 0.062542468 0.49620345
0.0098624192 0.078680955 0.46766618
0.048929498 0.058236614 0.49381477
0.0097094923 0.074146256 0.46535957
0.048817281 0.053835876 0.49152625
0.0095040165 0.069616988 0.46312863
0.048675466 0.049424917 0.48927295
0.0094368868 0.065147698 0.46073964
0.048721105 0.04507906 0.48679656
0.0094233193 0.060903825 0.45840177
0.04859722 0.040509954 0.48443067
0.0093394369 0.056407228 0.45602083
0.048378069 0.036011606 0.48223582
0.046452723 0.034302905 0.48048684
0.043299217 0.036194518 0.47702083
0.014820166 0.046285681 0.45897639
0.013504125 0.049270838 0.45336676
0.0091376789 0.052003443 0.45385444
0.046534948 0.034844086 0.47945759
0.04257077 0.03636384 0.47672766
0.038980175 0.037795752 0.47414994
0.035038851 0.039329991 0.47139162
0.031055912 0.040878326 0.46860814
0.027251866 0.042416111 0.46583787
0.023323528 0.044003382 0.46297851
0.019704141 0.04555849 0.46016836
0.015634317 0.047125526 0.45735276
0.011607468 0.048599675 0.45471159
0.009481445 0.049515501 0.45305666
0.047981665 0.16711685 0.55558729
0.044774227 0.16783969 0.55575484
0.040970623 0.16934031 0.55302805
0.037165672 0.17106281 0.55019671
0.03346581 0.17254443 0.54739201
0.029491024 0.17430377 0.54451269
0.025676906 0.17590676 0.5417223
0.021973176 0.17747037 0.53904742
0.018377997 0.17933561 0.53618723
0.0144086 0.18095554 0.53336346
0.010614593 0.18247631 0.53051585
0.0084994547 0.18321329 0.52817953
0.04777468 0.16253482 0.55332917
0.044253688 0.16263317 0.55350846
0.040532947 0.1641774 0.55084389
0.036670636 0.1657631 0.54806912
0.032796279 0.16723068 0.54522306
0.028956298 0.16888145 0.54250211
0.025122548 0.17028084 0.53965902
0.021130785 0.17192937 0.53679615
0.017384248 0.17328522 0.53401184
0.013528969 0.17493249 0.53127491
0.0095465295 0.17652987 0.52839464
0.0082119554 0.17816453 0.52551091
0.047805488 0.15830582 0.55093819
0.044134837 0.15826881 0.55117804
0.04037429 0.15967554 0.54840654
0.03666364 0.16121969 0.54575127
0.032701008 0.16287409 0.54291844
0.028963236 0.16447021 0.54026443
0.02497535 0.16588309 0.53728533
0.021130251 0.16750713 0.53454602
0.01724224 0.16877367 0.53158504
0.013423204 0.17057936 0.52896225
0.0094901249 0.17211302 0.52609539
0.0080660172 0.17364225 0.52317011
0.047743954 0.15399463 0.54862928
0.044094939 0.15364453 0.54878855
0.040558286 0.15527606 0.54633909
0.036559679 0.15674564 0.54337883
0.032622077 0.15835987 0.54054874
0.028673209 0.1600042 0.53772354
0.024901772 0.16145271 0.53496325
0.020955615 0.16329879 0.53224319
0.017218679 0.16457106 0.5294252
0.013326064 0.16616781 0.52662796
0.0095015243 0.1676759 0.52384871
0.0079050772 0.16915514 0.5210048
0.047633842 0.14932194 0.5461868
0.044251293 0.14920232 0.54667372
0.040410466 0.15094869 0.54400057
0.03641215 0.15236701 0.54101455
0.03253302 0.1539389 0.53821713
0.028665978 0.15549155 0.53542119
0.024779543 0.15707779 0.5326243
0.020963222 0.15885291 0.52998853
0.017060889 0.16038156 0.52714759
0.013187256 0.16167223 0.52421224
0.009443894 0.16313915 0.52148736
0.0077758208 0.16482852 0.51879609
0.047539696 0.14499485 0.54391414
0.044149514 0.14494005 0.544411
0.040281553 0.14650226 0.54161906
0.036440205 0.1479678 0.53880256
0.032624498 0.14939897 0.53599238
0.028611723 0.15101379 0.53309292
0.024713086 0.15276809 0.53037024
0.020712176 0.15422934 0.52740365
0.016897179 0.15580826 0.52466929
0.013087798 0.15707506 0.52178133
0.0093094036 0.15885417 0.5191828
0.0076372996 0.16028588 0.51640677
0.047549706 0.14056768 0.54144186
0.044012904 0.14040303 0.54197627
0.040095013 0.14219639 0.53925556
0.036291551 0.14359342 0.53643942
0.032404307 0.14505894 0.53358036
0.028336618 0.14667 0.53062803
0.024597848 0.14829862 0.52798969
0.020682741 0.14985774 0.52515244
0.016898567 0.15129973 0.52237695
0.012963921 0.15274049 0.51946139
0.0093662255 0.15429869 0.516918
0.007649038 0.15580635 0.51396239
0.047351561 0.13622388 0.53930378
0.043917965 0.13595957 0.53962773
0.039976355 0.13778159 0.53689969
0.036156584 0.13916998 0.53406394
0.032358292 0.14072405 0.53133243
0.028361682 0.14234453 0.52845085
0.024465792 0.14387476 0.52561671
0.020603614 0.14543667 0.52282995
0.01675416 0.1470724 0.52009255
0.012923833 0.14841886 0.51722574
0.0091189928 0.1500929 0.5145492
0.0075969808 0.15154684 0.51161945
0.047464322 0.13179691 0.53668952
0.043892708 0.13164307 0.53740841
0.039937992 0.13328883 0.5345785
0.036120154 0.1346671 0.53173947
0.032070175 0.1362533 0.52879089
0.028313693 0.13770437 0.5260458
0.024509573 0.13947429 0.52341866
0.020392396 0.14081359 0.52028221
0.016685639 0.14257313 0.51774013
0.012828413 0.1440112 0.51489496
0.009004876 0.14555557 0.51213515
0.0074943826 0.14703742 0.50922787
0.047345731 0.12740612 0.5344153
0.043669768 0.12729064 0.53498751
0.039816096 0.1287304 0.53214651
0.035914663 0.13057438 0.52946687
0.032082085 0.13174067 0.5265063
0.028251706 0.13332963 0.52376276
0.024184236 0.13510638 0.52089494
0.020348299 0.13657466 0.51808488
0.016675036 0.13799012 0.5153988
0.01288823 0.13958071 0.51269656
0.0088952854 0.14118725 0.50981122
0.0072965883 0.14265823 0.50715083
0.04710814 0.12301377 0.53230482
0.043602843 0.12280973 0.53264594
0.039653789 0.1244176 0.52980202
0.035840943 0.12606677 0.52710539
0.031957626 0.1274184 0.52419204
0.028169101 0.12902744 0.52149761
0.024188049 0.13042407 0.51851654
0.020267582 0.13207518 0.51572108
0.016509196 0.13367689 0.51305079
0.012780823 0.13527748 0.51040781
0.0088247247 0.136866 0.5075475
0.0073897503 0.13819841 0.50448525
0.046973474 0.11855353 0.53001434
0.043384783 0.11848335 0.5302428
0.039588332 0.11982742 0.52740622
0.035739411 0.12150688 0.52469152
0.031837888 0.1229158 0.52179044
0.027985984 0.12450007 0.51902461
0.024207801 0.12603517 0.51630211
0.020433111 0.12763147 0.51361394
0.016549541 0.12912443 0.51077229
0.012710903 0.13068563 0.50800699
0.0088116229 0.13213211 0.50512713
0.0072139651 0.13403371 0.50241828
0.04684652 0.11403719 0.52768195
0.043290418 0.11400712 0.52787817
0.039437067 0.11566938 0.52515066
0.035688616 0.11712177 0.52241361
0.031844877 0.11867365 0.5196389
0.027854579 0.12014942 0.51668948
0.023964006 0.12173845 0.51389021
0.020341961 0.12331495 0.51133353
0.016332131 0.12475182 0.50834626
0.012674712 0.12636307 0.5057745
0.0087174848 0.12802395 0.50294995
0.0072111264 0.12933834 0.49984705
0.046843674 0.10960469 0.52522451
0.043133937 0.10939662 0.52538759
0.039606694 0.11109118 0.5229789
0.035708684 0.11251706 0.52008975
0.031801306 0.11426593 0.51735616
0.027787942 0.11582258 0.51442653
0.023990264 0.11724883 0.51163059
0.020056121 0.11889302 0.50881898
0.016469108 0.12031133 0.50621432
0.012394276 0.12196357 0.50327629
0.0085066631 0.1233647 0.50038421
0.0069478378 0.12485572 0.49765718
0.046817657 0.10519853 0.52281374
0.043359909 0.10499749 0.52335924
0.039378259 0.10661528 0.52049011
0.035562348 0.10807611 0.51769483
0.031694755 0.10979933 0.51498508
0.027738869 0.11117555 0.51201701
0.023873104 0.11276822 0.50924253
0.020101327 0.11445503 0.50660318
0.016258489 0.11590888 0.50377941
0.012299918 0.11739029 0.5008623
0.0084360242 0.11904101 0.49811912
0.0070061088 0.12060396 0.49521351
0.04671701 0.10074305 0.52047879
0.043031506 0.10076537 0.52090174
0.039179265 0.10225046 0.51808512
0.035277635 0.10387443 0.51529336
0.031473782 0.10532551 0.51250428
0.027632629 0.10694075 0.50976413
0.02377359 0.10850435 0.50698119
0.020001795 0.1097751 0.50413013
0.016114416 0.11140669 0.50135541
0.012228224 0.11313186 0.49862945
0.0083369613 0.11450826 0.49572137
0.0067354031 0.11606333 0.49321759
0.046471264 0.096386366 0.51839936
0.042897332 0.096446924 0.51858044
0.039185427 0.097922437 0.51588905
0.035204049 0.099380732 0.51293904
0.031318616 0.10089386 0.51010591
0.027479878 0.10253271 0.50738007
0.023717746 0.10403245 0.50465441
0.019869016 0.10567492 0.50192112
0.016112272 0.10683374 0.4990271
0.012091428 0.10863347 0.49621418
0.008270327 0.11017951 0.49345744
0.0067159757 0.11171856 0.4908511
0.046448715 0.092133924 0.51606917
0.042949349 0.091794796 0.51626205
0.039105669 0.093243465 0.51343483
0.03520792 0.094954737 0.51069105
0.031239031 0.096611507 0.50785363
0.027466141 0.098041467 0.50508255
0.02357938 0.099650249 0.50229681
0.019789603 0.10110538 0.49952286
0.015876524 0.10269111 0.49670103
0.012141846 0.10413934 0.49397469
0.0081713684 0.10587618 0.49117649
0.0066803582 0.10733359 0.48838314
0.046456639 0.087692305 0.51359177
0.042818081 0.087389432 0.51389921
0.03890207 0.088903412 0.51103812
0.034971699 0.090445861 0.50817823
0.031208374 0.09197814 0.50546807
0.027376425 0.093622513 0.50275129
0.023408439 0.095380031 0.49996597
0.019686906 0.096765943 0.4972201
0.015789146 0.098278336 0.49437517
0.012018733 0.099618763 0.49156082
0.0081426091 0.10134168 0.48884302
0.0066447146 0.10284811 0.48598123
0.046353053 0.083188914 0.51123428
0.04272062 0.082681179 0.51141363
0.038814891 0.084606029 0.50877112
0.034981832 0.086055309 0.50595409
0.031142309 0.08761733 0.50318837
0.027312325 0.089176208 0.50042993
0.023464071 0.090656444 0.49761456
0.019522183 0.092329197 0.49481028
0.015740618 0.093895242 0.49210039
0.011833485 0.095394321 0.48923999
0.0080755353 0.096993446 0.48656881
0.0065128691 0.098220423 0.48355252
0.046137255 0.078708574 0.50904477
0.042624403 0.078467824 0.50918102
0.038896028 0.07998734 0.50649673
0.034903072 0.081640691 0.50363523
0.031142216 0.083146319 0.5009138
0.02723396 0.084735572 0.49809825
0.023344768 0.086347856 0.49531206
0.019496134 0.087964803 0.49256587
0.015823605 0.089455128 0.48991856
0.011739653 0.090892568 0.48686284
0.0080188364 0.092448711 0.48420423
0.0064494535 0.093978696 0.4812707
0.046159364 0.074414857 0.50662988
0.042554125 0.074099422 0.50689352
0.038810171 0.075609766 0.50419015
0.035056446 0.077130213 0.5014829
0.031081725 0.078717239 0.49860454
0.026968535 0.080406725 0.49564993
0.023238353 0.081987001 0.49299493
0.019313036 0.083562359 0.49015647
0.015499612 0.084962972 0.48733285
0.011656471 0.086458355 0.48452991
0.0078188889 0.088134147 0.48182392
0.0064127073 0.08949244 0.47876683
0.045856148 0.069752991 0.50446051
0.042382963 0.069591582 0.50444156
0.038616754 0.071220942 0.50177813
0.034754544 0.072792739 0.49899638
0.031005364 0.074279726 0.49627629
0.027105086 0.075880893 0.49347419
0.023266727 0.077356823 0.49066576
0.01923321 0.078983098 0.48775288
0.015556812 0.080339149 0.48503366
0.01165852 0.082050055 0.48228922
0.0077374056 0.083723873 0.47950476
0.0062676296 0.085149378 0.47667849
0.045971196 0.065528825 0.50195569
0.042467147 0.065146729 0.50225848
0.038682844 0.066673569 0.49952608
0.034849569 0.068354473 0.49682665
0.031043168 0.0699284 0.49409774
0.026988914 0.071410425 0.49109223
0.023054782 0.073028959 0.48826757
0.019134268 0.074606977 0.48543492
0.015318949 0.076140538 0.48267716
0.011540942 0.07761848 0.47992575
0.0079035796 0.079238735 0.47737715
0.0060717799 0.08061263 0.47438395
0.045877464 0.061058111 0.49960274
0.042402886 0.060719997 0.49994689
0.038485933 0.062419616 0.49717942
0.034672741 0.063841164 0.49436668
0.030819412 0.065544479 0.49166006
0.026868124 0.066929251 0.48870057
0.023006106 0.068597332 0.48596796
0.019120298 0.070152819 0.48315603
0.015235666 0.071785197 0.48038429
0.011271782 0.073286012 0.47747216
0.0076136217 0.074862458 0.47488198
0.0062119216 0.076332405 0.47169414
0.04579214 0.056670427 0.49728423
0.042025987 0.056509361 0.49745536
0.038319957 0.05807168 0.49481362
0.03441947 0.059630603 0.49198982
0.0306063 0.061270192 0.48928803
0.026888264 0.062618762 0.4865264
0.022913866 0.064257927 0.48367488
0.01900677 0.06593743 0.48090631
0.015310308 0.067239828 0.47814119
0.011454452 0.068767168 0.47534272
0.0075351968 0.070277654 0.47247687
0.0059475042 0.071936287 0.4697077
0.045730017 0.052249275 0.49491507
0.042017095 0.051970884 0.49513829
0.038310476 0.053622007 0.49254119
0.034459595 0.055159584 0.48975253
0.03054974 0.056539282 0.48682886
0.02666769 0.058324113 0.48413709
0.022906173 0.059881873 0.48144156
0.018946011 0.061180145 0.47842982
0.015160006 0.062979586 0.47583455
0.011324547 0.064420313 0.4730109
0.007528808 0.065942004 0.47026533
0.0059929155 0.067519777 0.46723691
0.045452237 0.047487363 0.49265498
0.041930106 0.047590971 0.4928295
0.038134545 0.049324453 0.49019179
0.034288932 0.050816491 0.48738486
0.030543651 0.052149989 0.48459029
0.026624231 0.053783536 0.48178691
0.022830701 0.055348851 0.47906554
0.018933833 0.05692552 0.47625414
0.015063118 0.058510073 0.47347099
0.011164267 0.060126878 0.47067815
0.0074414946 0.061540723 0.46794534
0.0057445765 0.062931418 0.46502626
0.045580849 0.043198392 0.49009541
0.041845277 0.043271974 0.49055368
0.038091816 0.044791959 0.4878464
0.034280017 0.046266802 0.48506206
0.030383218 0.047724694 0.48219028
0.026572173 0.049299389 0.47945744
0.022625977 0.050928555 0.47662699
0.018734436 0.052516058 0.47382605
0.014905181 0.054005966 0.47103319
0.010969341 0.055512317 0.46814987
0.007335294 0.057088882 0.4655821
0.0057587251 0.05871658 0.46261966
0.045447588 0.038859442 0.48787028
0.041819207 0.038767979 0.48823822
0.03803008 0.040344343 0.48552656
0.034209397 0.041622609 0.48263398
0.030222407 0.043438569 0.47986072
0.026530761 0.044819161 0.47713986
0.022450803 0.046544328 0.47423422
0.018628443 0.047962233 0.47141111
0.014971383 0.049570575 0.46883821
0.011064909 0.050851293 0.46586731
0.0072800629 0.052546322 0.46322
0.0055252016 0.05427184 0.46043092
0.045204237 0.034300968 0.48567551
0.041874357 0.034288943 0.48580232
0.038080916 0.035903543 0.48307541
0.034182061 0.037319675 0.48041964
0.030302303 0.039017752 0.47768587
0.026135825 0.040656954 0.47465622
0.022552572 0.042036131 0.47203517
0.018608157 0.043782979 0.46926624
0.014775891 0.045248225 0.46645805
0.011056181 0.0465528 0.46357992
0.0071358606 0.04822965 0.46078295
0.005646944 0.049811654 0.45782322
0.043184761 0.033039942 0.48300639
0.039601143 0.034619465 0.48014855
0.035662223 0.036073655 0.47754186
0.031437188 0.03761366 0.47478348
0.027743455 0.039195344 0.47192585
0.023891397 0.040730938 0.46916148
0.020025268 0.042347893 0.46624345
0.016230823 0.043906905 0.46343252
0.01240842 0.045425206 0.46069992
0.0085501224 0.04692591 0.45800218
0.0058307536 0.047654115 0.45672548
