# .PCD v0.7 - Point Cloud Data file format
VERSION 0.7
FIELDS x y z
SIZE 4 4 4
TYPE F F F
COUNT 1 1 1
WIDTH 1294
HEIGHT 1
VIEWPOINT 0 0 0 1 0 0 0
POINTS 1294
DATA ascii
0.35196346 -0.2682552 0.95103824
0.34967721 -0.26719469 0.95183975
0.34591332 -0.26424095 0.95329946
0.34214363 -0.26129809 0.95471323
0.33839208 -0.25823724 0.95601302
0.33462599 -0.25526056 0.95739305
0.3309148 -0.25228491 0.95875669
0.3269946 -0.24924988 0.96035707
0.32324308 -0.24617068 0.9615888
0.31954095 -0.24327803 0.96310377
0.31592408 -0.24043936 0.9644627
0.31358942 -0.23833612 0.9653703
0.35210717 -0.2658549 0.94644445
0.34989625 -0.26454306 0.94700915
0.34615746 -0.26163545 0.94851512
0.34246749 -0.25875703 0.94998735
0.33868086 -0.2557039 0.95133901
0.33486879 -0.25272855 0.95285726
0.33114848 -0.24990365 0.95446533
0.32735255 -0.24678606 0.95572895
0.32357895 -0.24373192 0.95705742
0.31985962 -0.2408967 0.95864743
0.31614575 -0.23791839 0.95999891
0.31393093 -0.23592885 0.96126109
0.35243201 -0.26351318 0.94244647
0.35018256 -0.26220351 0.94278592
0.34652266 -0.25924355 0.94407785
0.34274647 -0.25630793 0.94560063
0.33888358 -0.25330791 0.94716316
0.33518633 -0.2503705 0.94855285
0.33153665 -0.24748138 0.94994146
0.32766539 -0.24440008 0.95138752
0.32391709 -0.24147676 0.95288402
0.32021666 -0.23849791 0.95421249
0.31635043 -0.23554075 0.95584929
0.31416702 -0.23338 0.95661044
0.35262895 -0.2611208 0.93800855
0.35051969 -0.25989696 0.93853182
0.3468253 -0.25680858 0.93967468
0.3431282 -0.25392115 0.94114423
0.33913901 -0.25095177 0.94296426
0.33542067 -0.24782565 0.94408619
0.33177754 -0.24501218 0.94558531
0.32790393 -0.24196899 0.94709635
0.32419649 -0.23905639 0.94854259
0.320553 -0.23605068 0.94973409
0.31662178 -0.23305252 0.95141232
0.31437239 -0.23090965 0.95244026
0.35297728 -0.25844747 0.93338537
0.35075557 -0.25741011 0.93415558
0.34688947 -0.25422543 0.93542737
0.34315819 -0.25130203 0.93689561
0.33952484 -0.24848728 0.93837655
0.33577532 -0.2454605 0.93970919
0.33209813 -0.24263048 0.94123799
0.3282463 -0.23963378 0.94278759
0.32464084 -0.23667546 0.94399232
0.32070976 -0.23360479 0.94555408
0.31676424 -0.23048158 0.94705546
0.31463647 -0.22850128 0.9478035
0.35318092 -0.25632146 0.92951661
0.35093185 -0.25484821 0.92975736
0.34723976 -0.25193647 0.9311797
0.34353906 -0.24893779 0.93247682
0.33969969 -0.24583837 0.93384117
0.33609727 -0.24305251 0.93531746
0.33231401 -0.24019726 0.93698072
0.3284623 -0.23702654 0.93825114
0.32467049 -0.23407535 0.93977469
0.32093388 -0.23120719 0.94134039
0.31742474 -0.22832474 0.9425078
0.31504703 -0.22605647 0.94324696
0.35343108 -0.25379935 0.92494947
0.35132942 -0.25257465 0.9254564
0.34765625 -0.24954161 0.92665303
0.34390056 -0.24660261 0.92813653
0.34005836 -0.24346569 0.92944551
0.33621472 -0.24062115 0.93122554
0.33257353 -0.23755303 0.93231314
0.32861903 -0.23448953 0.93392509
0.32485798 -0.23160309 0.93550169
0.32111844 -0.22861777 0.9368844
0.31748345 -0.22580062 0.93836415
0.31516498 -0.22354664 0.93901819
0.35382009 -0.25099233 0.920156
0.35158116 -0.25010058 0.92107451
0.3477172 -0.24683413 0.92221165
0.34405053 -0.24398869 0.92369837
0.34028029 -0.24106394 0.92522866
0.33661038 -0.23820545 0.92669982
0.33274075 -0.23510204 0.92810774
0.32895261 -0.23211539 0.92956841
0.32524019 -0.22919217 0.9310059
0.32136804 -0.22621374 0.93261832
0.31760287 -0.22322576 0.93403894
0.31544527 -0.22112833 0.93508238
0.35409099 -0.24854244 0.91579276
0.35187668 -0.24757622 0.91653973
0.34808537 -0.24462299 0.91805923
0.34424531 -0.24165361 0.91963321
0.3405154 -0.23862699 0.92093378
0.33671728 -0.23564638 0.92242062
0.33302242 -0.23275129 0.92387426
0.32910141 -0.22961666 0.92531681
0.32545352 -0.22670609 0.92666811
0.32179129 -0.22386131 0.92814851
0.31801546 -0.22087292 0.92958611
0.31573242 -0.21878403 0.93051445
0.35422811 -0.24625461 0.91141474
0.35216248 -0.24521707 0.91228592
0.34835446 -0.24214517 0.91364276
0.34467119 -0.23925601 0.91508675
0.34082896 -0.23619713 0.91652077
0.3371315 -0.23341246 0.91815573
0.33335021 -0.23040348 0.91956931
0.32952645 -0.22731309 0.9209224
0.32584819 -0.22437915 0.92228633
0.32208574 -0.22142176 0.92375153
0.31816784 -0.21832302 0.9252466
0.31600246 -0.21613923 0.92607534
0.3546688 -0.24373315 0.90734786
0.35238111 -0.24274504 0.90796196
0.34864199 -0.23965339 0.90917343
0.34497038 -0.23680139 0.91065776
0.34119022 -0.23383781 0.91214228
0.33720395 -0.23077899 0.91381407
0.33362758 -0.22799267 0.91524655
0.32984465 -0.22477257 0.91632432
0.3260839 -0.22191305 0.91794366
0.32234851 -0.21888006 0.91924304
0.3185854 -0.21600287 0.92083788
0.31632233 -0.21365505 0.92156196
0.35500541 -0.24120951 0.90300393
0.35283101 -0.24044178 0.90352702
0.34892672 -0.23724166 0.90483707
0.34532112 -0.23441987 0.90626091
0.34148347 -0.23136012 0.90768605
0.33756012 -0.22840253 0.90941638
0.33380923 -0.22532444 0.91066903
0.33005956 -0.22228198 0.9119767
0.32635891 -0.2195143 0.91364413
0.32262403 -0.21652387 0.91501093
0.31883895 -0.21356693 0.91651416
0.31658071 -0.21148673 0.91770649
0.35512322 -0.23883085 0.89838725
0.35301238 -0.23798248 0.8992849
0.34916341 -0.23486234 0.9006319
0.34532335 -0.23188215 0.9021886
0.3415677 -0.22883567 0.90349978
0.33781451 -0.22592893 0.90503091
0.33417442 -0.2231144 0.90652329
0.33039927 -0.21999983 0.9077574
0.32646221 -0.21682596 0.90916365
0.32283807 -0.2141211 0.91080558
0.31896463 -0.2109766 0.91215384
0.31686997 -0.20908858 0.91316622
0.35539809 -0.23653379 0.89435083
0.35302174 -0.23522688 0.89485151
0.34926391 -0.23230317 0.89636314
0.34575331 -0.22943816 0.89756089
0.34203252 -0.22653647 0.89904678
0.33819363 -0.22350954 0.90052652
0.33433098 -0.220442 0.9019804
0.33055043 -0.21754634 0.90357447
0.32680455 -0.2144646 0.90481299
0.32302243 -0.21158403 0.90643382
0.31938365 -0.20856896 0.90760249
0.31713122 -0.20668381 0.90893704
0.35569286 -0.23405802 0.88999653
0.35364878 -0.23314478 0.89047891
0.34976646 -0.23003563 0.89189857
0.34600562 -0.22701071 0.89325285
0.34215426 -0.22396033 0.89471561
0.33855125 -0.22118075 0.89620292
0.33470681 -0.21814059 0.89767069
0.33097792 -0.21513763 0.8990075
0.32720464 -0.21224228 0.90059
0.32348138 -0.20920059 0.90185541
0.31959853 -0.20613116 0.90333956
0.31737545 -0.20401451 0.90423894
0.35583988 -0.23164709 0.88538945
0.35358405 -0.23045859 0.88627905
0.34995195 -0.22745541 0.88745582
0.34612253 -0.22445981 0.88897026
0.34244165 -0.22142845 0.89018232
0.33878303 -0.21879353 0.89199322
0.33504853 -0.21587524 0.893475
0.33130819 -0.21275192 0.8946377
0.32732922 -0.20960063 0.89614922
0.32373294 -0.20679103 0.89757729
0.31995121 -0.20364267 0.89876807
0.31760189 -0.20179608 0.90012312
0.35606211 -0.2293327 0.88117933
0.35383603 -0.2279437 0.88183135
0.35025236 -0.22519255 0.88333225
0.34649462 -0.22206292 0.88451356
0.34270108 -0.21913207 0.88607258
0.33875322 -0.21608318 0.88769698
0.33504272 -0.21313584 0.88909256
0.33131599 -0.21010236 0.89037687
0.3276363 -0.20721474 0.89181745
0.32366389 -0.20400393 0.89322269
0.32027981 -0.20137659 0.89459288
0.31790325 -0.19932789 0.89582592
0.35644269 -0.22699849 0.87734276
0.35412419 -0.22551787 0.87746668
0.35040635 -0.22256206 0.87886083
0.34652159 -0.21948715 0.88033944
0.34288141 -0.21652046 0.88158798
0.33918336 -0.21360275 0.88301063
0.3352361 -0.21057621 0.88466978
0.33164704 -0.20767385 0.88593721
0.32804692 -0.20485774 0.88736117
0.32424423 -0.20203313 0.88910562
0.32036397 -0.19881916 0.8903538
0.31820247 -0.1968824 0.89144295
0.35671151 -0.22425044 0.87235665
0.35449839 -0.22314651 0.87304747
0.35076082 -0.2201186 0.87435859
0.3470037 -0.21732928 0.87608445
0.34324396 -0.21421123 0.87728763
0.33942834 -0.21129462 0.87890595
0.33572349 -0.20827135 0.88017052
0.33202147 -0.20537296 0.88163054
0.32819858 -0.20240059 0.8831715
0.32437953 -0.19939753 0.88465685
0.32072029 -0.19648013 0.88601589
0.31834605 -0.19444954 0.88738495
0.35705465 -0.2218124 0.8682071
0.35480434 -0.22081566 0.86880583
0.35114473 -0.21782774 0.8700524
0.34737784 -0.21493779 0.87163305
0.3434369 -0.21180935 0.87311846
0.33984578 -0.20888889 0.87436026
0.33597723 -0.20573565 0.87568647
0.33215529 -0.20284252 0.87735289
0.32854581 -0.20003369 0.87880391
0.32470059 -0.19692326 0.88016027
0.32107335 -0.19403358 0.88151097
0.31871682 -0.19204974 0.88279498
0.35732251 -0.21935344 0.86381716
0.35506579 -0.21823114 0.86423081
0.35121965 -0.21528178 0.86584699
0.34740114 -0.21214738 0.86712086
0.34381938 -0.20950612 0.86879486
0.33981729 -0.2062179 0.87012494
0.33618739 -0.2032911 0.8714205
0.33237725 -0.20044433 0.87314177
0.32873189 -0.19747308 0.87439162
0.32491159 -0.19443884 0.87582898
0.32129544 -0.19156903 0.87719327
0.31900558 -0.18950176 0.87849516
0.35759005 -0.21690522 0.85944843
0.35520026 -0.21578529 0.86008763
0.35168165 -0.21293311 0.86131924
0.34778333 -0.20992143 0.8629216
0.34399208 -0.20693773 0.86439204
0.34023237 -0.20384942 0.86564291
0.33653763 -0.20099327 0.86715871
0.33282045 -0.19803683 0.86855078
0.3289111 -0.19492155 0.87000519
0.32528734 -0.19196218 0.87123841
0.32148802 -0.18911105 0.87293482
0.31921083 -0.18702364 0.87395281
0.35781494 -0.21435861 0.85476446
0.35559773 -0.21338961 0.855591
0.35189062 -0.21042876 0.8569594
0.34826654 -0.20755512 0.85833061
0.34430888 -0.20442781 0.8598454
0.34061247 -0.20141424 0.86111158
0.33689493 -0.19854185 0.86263901
0.3330805 -0.19562495 0.86425489
0.32936168 -0.19257528 0.86550015
0.32554016 -0.18962011 0.86706638
0.3216992 -0.18667698 0.86868393
0.31950837 -0.18462503 0.86958313
0.35809037 -0.21225294 0.85112578
0.35586289 -0.21091707 0.85118943
0.35212314 -0.2080476 0.85275817
0.34845358 -0.20498738 0.85390526
0.34451959 -0.20204602 0.85567915
0.34075668 -0.19893043 0.85689151
0.3370133 -0.19609544 0.85852146
0.33336988 -0.19315574 0.8598187
0.32956684 -0.1901605 0.86129022
0.3258729 -0.18725854 0.86273128
0.32194638 -0.18417433 0.86426377
0.31965825 -0.18222073 0.86545128
0.35832152 -0.20935008 0.84572047
0.35593438 -0.20845199 0.84711933
0.35227841 -0.20553468 0.84847319
0.34867853 -0.20257911 0.84967309
0.34477916 -0.19958301 0.85130215
0.34105468 -0.19662595 0.85270518
0.33740503 -0.19367114 0.85398853
0.33361149 -0.1907651 0.8555873
0.32992285 -0.18770805 0.85677093
0.32597053 -0.18458757 0.85828793
0.32248133 -0.18187572 0.85969597
0.32011876 -0.17960979 0.86068338
0.35858089 -0.20715253 0.84184951
0.35626352 -0.2060329 0.84269792
0.35270369 -0.20314158 0.84393483
0.34882078 -0.20017454 0.84558332
0.34496927 -0.19709605 0.84700125
0.34117857 -0.19403879 0.84835297
0.33752239 -0.19108699 0.84965181
0.33378229 -0.18823069 0.85124218
0.33007753 -0.18519627 0.85248876
0.32629716 -0.18231025 0.85409796
0.32241923 -0.17921352 0.85553026
0.32023156 -0.17739177 0.8567915
0.35872436 -0.20487149 0.83750218
0.35655674 -0.20355603 0.83824313
0.35290393 -0.20062512 0.83956993
0.34907517 -0.19765073 0.84111726
0.3453401 -0.19461533 0.84241223
0.34154195 -0.19173515 0.84406012
0.33781931 -0.1886535 0.84526044
0.333965 -0.18569934 0.84688234
0.3303223 -0.1828552 0.84833157
0.32662874 -0.17981589 0.84955186
0.32279798 -0.17694044 0.85126108
0.32058179 -0.17452699 0.85182673
0.35913119 -0.20228165 0.83320504
0.35702485 -0.20118058 0.83366245
0.35308528 -0.19820458 0.83538997
0.34940946 -0.1952042 0.83664334
0.34562787 -0.19217843 0.83803052
0.34191054 -0.18935461 0.83963549
0.33811638 -0.18634787 0.84107387
0.33438593 -0.18336394 0.84244376
0.33050504 -0.18021387 0.84379536
0.32679659 -0.17728189 0.84521222
0.3231895 -0.17442045 0.84657496
0.32078087 -0.1725107 0.84799844
0.35936326 -0.20003848 0.82916814
0.35711673 -0.19863316 0.82942671
0.3532221 -0.19556785 0.83093691
0.34963557 -0.19273652 0.83231401
0.34597284 -0.18988293 0.83378118
0.34217465 -0.18684281 0.83517265
0.33848006 -0.18405928 0.83680469
0.33464742 -0.18097126 0.83817625
0.33089548 -0.17791978 0.83947325
0.32706988 -0.174887 0.84092176
0.32343152 -0.17207867 0.84242129
0.32111725 -0.17011203 0.8436752
0.3594726 -0.19786082 0.82494545
0.35721475 -0.19612022 0.82523608
0.35375673 -0.1934599 0.8266753
0.35005826 -0.19052851 0.82807672
0.34634075 -0.18756087 0.82945132
0.34247625 -0.1844857 0.83089608
0.33866075 -0.18149547 0.83239609
0.33497542 -0.17852844 0.83371866
0.33127174 -0.17560738 0.83514518
0.32741699 -0.17254183 0.83658928
0.32355648 -0.1695106 0.83809781
0.32138917 -0.16722423 0.8388288
0.35989225 -0.19528756 0.82071614
0.35771629 -0.19372869 0.82060099
0.35396791 -0.19102022 0.82241553
0.35012424 -0.1878189 0.8236236
0.34635121 -0.18491335 0.82518935
0.34253624 -0.18191442 0.8266747
0.338902 -0.17894152 0.82790351
0.3352133 -0.17616728 0.82954067
0.33140123 -0.17312285 0.83094817
0.32764149 -0.17015573 0.83239329
0.3239789 -0.16714229 0.83367068
0.32161689 -0.16522658 0.83487964
0.35854784 -0.19267535 0.81862938
0.35429695 -0.18913846 0.82035124
0.35070461 -0.18640566 0.82166266
0.34685287 -0.18339933 0.82311159
0.34321952 -0.1802882 0.82463264
0.3395986 -0.17761175 0.82591075
0.33564556 -0.17456374 0.82737678
0.33215961 -0.17165895 0.8287912
0.32813409 -0.16837084 0.83038735
0.32475433 -0.16592225 0.83155257
0.32193014 -0.1641518 0.83237171
0.35396546 -0.26628199 0.95219487
0.35182038 -0.26616192 0.95496905
0.34824428 -0.26305842 0.95648932
0.34438834 -0.26018152 0.95786542
0.34065467 -0.25714126 0.95934057
0.33665511 -0.25437373 0.96064651
0.33293095 -0.25128713 0.96214825
0.32927111 -0.24804035 0.96374369
0.32567924 -0.2454008 0.96500289
0.32196456 -0.24222417 0.96655566
0.31802797 -0.23928402 0.96796227
0.3155548 -0.23611811 0.96682197
0.35411468 -0.26399931 0.94785917
0.31588793 -0.23344523 0.96222281
0.35440922 -0.26146623 0.94338554
0.31606233 -0.23121953 0.95807099
0.35467565 -0.25903299 0.93904495
0.31643787 -0.22868383 0.95380402
0.35487664 -0.25662813 0.93459189
0.31656733 -0.22638947 0.94939238
0.35534191 -0.25408578 0.93054616
0.31693864 -0.22373663 0.9448719
0.35557824 -0.25149995 0.92581087
0.31708905 -0.22143202 0.94049382
0.3557646 -0.24930227 0.9217484
0.3174789 -0.21901016 0.93650013
0.35586965 -0.24697605 0.91720694
0.31780243 -0.21642226 0.93198889
0.35621014 -0.24440855 0.91278237
0.31809747 -0.21403456 0.92781746
0.35671726 -0.24172415 0.90855205
0.31834587 -0.21156792 0.92336059
0.35688251 -0.23949133 0.90436167
0.31859514 -0.20901705 0.91873157
0.35715589 -0.23697811 0.89987373
0.31879988 -0.20676418 0.91460299
0.35745153 -0.23452939 0.89557761
0.31897077 -0.20444682 0.91025227
0.35763335 -0.23214956 0.89112616
0.319188 -0.2020486 0.90585542
0.35782418 -0.22976308 0.88668454
0.3194772 -0.1996291 0.90160298
0.35818654 -0.22723047 0.88238949
0.31979039 -0.19706723 0.89711857
0.35845196 -0.22477113 0.87799221
0.32009187 -0.19459784 0.89279503
0.35882825 -0.22226487 0.87378818
0.32031453 -0.19213769 0.88828409
0.35899496 -0.21995288 0.86943769
0.320622 -0.18963657 0.8839106
0.35919547 -0.21752696 0.86493969
0.32102317 -0.18710712 0.87972367
0.35965329 -0.21492349 0.86074787
0.32113689 -0.18483619 0.87531936
0.35977787 -0.21259657 0.85625601
0.32131884 -0.18244189 0.87083828
0.36014065 -0.21011987 0.85207784
0.32174236 -0.17985155 0.86658382
0.36034918 -0.20781596 0.84785348
0.32198608 -0.17742817 0.86220425
0.36062527 -0.20523776 0.84323817
0.32213363 -0.17507684 0.85772204
0.36075771 -0.20292675 0.83879983
0.3226175 -0.17243057 0.85350984
0.36095595 -0.20054799 0.83439362
0.32276624 -0.17015666 0.84919107
0.36136809 -0.19804409 0.83028829
0.3230339 -0.16771977 0.84484619
0.36153355 -0.1957407 0.82595229
0.32341987 -0.16511731 0.84046835
0.36197612 -0.19303995 0.82151914
0.35637221 -0.18936393 0.8203522
0.34460884 -0.1765818 0.82679564
0.34049487 -0.17373985 0.82813627
0.33261275 -0.16995433 0.82977462
0.32946539 -0.16841722 0.83044308
0.32744572 -0.16305459 0.83332533
0.32345375 -0.16282256 0.83580565
0.36005065 -0.19052869 0.81992495
0.35653475 -0.1872122 0.82156837
0.35252747 -0.18419133 0.82301587
0.3487553 -0.1814497 0.82432127
0.3453998 -0.17865303 0.82568306
0.34155104 -0.17570579 0.82709903
0.33790451 -0.17250925 0.8286671
0.33383662 -0.16960606 0.83004493
0.33031046 -0.16648783 0.83157653
0.32604802 -0.16360074 0.83293337
0.32404047 -0.16180845 0.83381486
0.3571215 -0.26320624 0.95409048
0.35485068 -0.26301545 0.9569189
0.35142732 -0.25989532 0.95845783
0.34765238 -0.25692719 0.95989001
0.34377885 -0.25406393 0.9612574
0.34007409 -0.25089008 0.96280921
0.33615261 -0.24786663 0.96426338
0.33257005 -0.24507429 0.96560884
0.32873872 -0.24195975 0.96711963
0.32531163 -0.2389307 0.96860731
0.32132638 -0.23610087 0.96994907
0.31882355 -0.23296481 0.9688049
0.35750943 -0.26065013 0.94981372
0.31895858 -0.2305804 0.96433151
0.35754964 -0.25844273 0.9453485
0.31936431 -0.22802928 0.96011174
0.35806951 -0.25565174 0.9409309
0.31957299 -0.22560219 0.95563269
0.35828099 -0.25328553 0.93658531
0.31978792 -0.22319655 0.95121449
0.35867786 -0.25078043 0.9324376
0.32021144 -0.2207149 0.94718516
0.35885981 -0.24843147 0.92805028
0.32034323 -0.21837029 0.94267553
0.35911036 -0.2459579 0.9235847
0.32072508 -0.21581256 0.93837953
0.35922858 -0.24370192 0.91922319
0.32110906 -0.21329364 0.93416935
0.35949859 -0.24136195 0.91508514
0.32127422 -0.21092552 0.92969853
0.36003497 -0.23866136 0.91089797
0.32163203 -0.20844118 0.92549145
0.36016592 -0.23626159 0.90627205
0.32180607 -0.20602828 0.92095113
0.36043406 -0.23378949 0.90185553
0.32211643 -0.20349677 0.9165222
0.3606323 -0.23151731 0.89766997
0.32229674 -0.20121075 0.91226089
0.36095479 -0.22891852 0.89313346
0.32267973 -0.19862866 0.9079175
0.3611691 -0.22655901 0.88880914
0.32289034 -0.19621563 0.90347266
0.36135104 -0.22416703 0.88433278
0.32314071 -0.19379431 0.89911473
0.36168328 -0.22173552 0.88016814
0.32329884 -0.1914815 0.89474005
0.36212036 -0.21914402 0.87594688
0.32374823 -0.18881196 0.89038932
0.36227456 -0.2167493 0.87139219
0.32388696 -0.18650638 0.88597876
0.36245406 -0.21450573 0.86721677
0.32407981 -0.18405013 0.8813979
0.36291271 -0.2117824 0.86277896
0.32448262 -0.18155085 0.87727773
0.36302865 -0.20948896 0.85833389
0.32475695 -0.17911093 0.87294424
0.36345357 -0.20690191 0.85408986
0.32513013 -0.17659791 0.86871803
0.36365217 -0.20451228 0.84966213
0.32525042 -0.17422783 0.86412555
0.36392614 -0.20211533 0.84541643
0.32546628 -0.17183736 0.85974121
0.36421686 -0.19960195 0.84097362
0.3256909 -0.16950884 0.85550809
0.36439008 -0.19720635 0.83646691
0.32610717 -0.16686955 0.85113329
0.3646512 -0.19471195 0.83198595
0.32638192 -0.16445285 0.84684885
0.36505288 -0.19221327 0.82786405
0.32662529 -0.16195506 0.8423143
0.36515421 -0.18989094 0.82332087
0.34599862 -0.17315823 0.82880008
0.34031516 -0.16840947 0.83111334
0.33771983 -0.16612872 0.83223259
0.33225822 -0.16473807 0.83267695
0.32850263 -0.16183761 0.83407241
0.32682434 -0.1596185 0.83799744
0.3631953 -0.18696749 0.82211435
0.35946849 -0.1839474 0.8235786
0.35575372 -0.18119989 0.82489085
0.352393 -0.17824949 0.82633847
0.34845957 -0.17524934 0.82777888
0.34438601 -0.17227417 0.82919669
0.34093085 -0.16953409 0.83052069
0.33703047 -0.16652296 0.83196926
0.33346477 -0.16332193 0.83354485
0.32993287 -0.16025123 0.83504945
0.32720032 -0.15892218 0.83562678
0.36054748 -0.25990883 0.95623416
0.35821706 -0.25960925 0.95903492
0.35479018 -0.25679427 0.96040261
0.35086265 -0.25374469 0.96187109
0.34719369 -0.25079802 0.96329778
0.3435719 -0.24781749 0.9647463
0.33990353 -0.24469209 0.96627319
0.33612654 -0.24181063 0.96765667
0.33225635 -0.23886999 0.96906757
0.32847124 -0.23601432 0.9704361
0.32459339 -0.23294391 0.9719193
0.32205307 -0.22981717 0.97075033
0.36079001 -0.2574859 0.95185238
0.32218215 -0.22742352 0.966236
0.36088341 -0.25518414 0.94733107
0.32259378 -0.22479983 0.96188146
0.36135501 -0.25257087 0.94315499
0.32279146 -0.22248876 0.95761389
0.36162776 -0.25012773 0.93881053
0.32301289 -0.22011203 0.95327246
0.36192048 -0.24759835 0.93433976
0.3233054 -0.21764091 0.9489218
0.36209938 -0.24522455 0.9298932
0.32361025 -0.21511658 0.94449335
0.3625147 -0.24269797 0.9257493
0.32382408 -0.2127516 0.94015646
0.36262235 -0.24038205 0.92123592
0.32403383 -0.21035725 0.93574804
0.36285737 -0.23805135 0.91702551
0.32428733 -0.20796499 0.93145853
0.36330435 -0.23537776 0.91266012
0.32466921 -0.20545261 0.92725652
0.36342365 -0.23306336 0.90818042
0.32495111 -0.20292538 0.92276192
0.36370742 -0.23065343 0.90393358
0.32529688 -0.20045517 0.91855252
0.36400768 -0.22813918 0.8995139
0.32556188 -0.19796646 0.91409338
0.36419994 -0.22584718 0.8952716
0.32597396 -0.19545758 0.90997761
0.36440176 -0.22333828 0.89060521
0.32611182 -0.19315615 0.90557343
0.36484849 -0.22068079 0.88627255
0.32638493 -0.19067033 0.90114152
0.36512142 -0.21834973 0.8821606
0.32665342 -0.18817411 0.896676
0.36530045 -0.21591897 0.87759638
0.3269327 -0.1857529 0.89239407
0.36547986 -0.21366291 0.87339485
0.32719508 -0.18328854 0.88797849
0.36594409 -0.21095484 0.8690033
0.3274453 -0.18094096 0.88377285
0.36606702 -0.20872848 0.8647154
0.32768708 -0.17850895 0.87937045
0.36639935 -0.20626166 0.86047786
0.32813919 -0.17586698 0.87508392
0.36661345 -0.2038001 0.85594165
0.3282719 -0.17350224 0.87053508
0.36695692 -0.20126803 0.85159832
0.32843399 -0.17125411 0.86630464
0.36719698 -0.19881248 0.84714258
0.32883152 -0.16864523 0.86194378
0.36745971 -0.19641557 0.84286761
0.32915118 -0.16616794 0.85765141
0.36760694 -0.19407657 0.83841008
0.32935184 -0.16376433 0.85320002
0.3679328 -0.19157872 0.83409137
0.32965481 -0.16130292 0.84889686
0.36830896 -0.18899763 0.82973206
0.32992581 -0.1588335 0.84449345
0.36863935 -0.18648981 0.82540464
0.34938782 -0.17118338 0.83011514
0.34795743 -0.16954944 0.83094335
0.33656681 -0.15939941 0.8359341
0.33272848 -0.15538576 0.8379485
0.33012474 -0.15649846 0.84016263
0.36666039 -0.18394281 0.82402253
0.36312383 -0.18123618 0.82532281
0.35919452 -0.17808518 0.82684797
0.35559779 -0.17503287 0.82833833
0.35198054 -0.17205752 0.82978427
0.34764111 -0.16929117 0.83106869
0.34411642 -0.16611388 0.8326335
0.34044403 -0.16322163 0.83402944
0.33685002 -0.16035715 0.83541465
0.33296746 -0.15738826 0.83684063
0.33068275 -0.15561238 0.8376959
0.36394486 -0.25653887 0.95815259
0.36171973 -0.2565496 0.96096504
0.35786283 -0.2535111 0.96243167
0.35412434 -0.25048035 0.96390116
0.35039344 -0.24741839 0.96538866
0.34675246 -0.24459527 0.96674782
0.34298727 -0.24147269 0.96826714
0.33924368 -0.23856853 0.96966541
0.33546802 -0.23559569 0.97110021
0.33174229 -0.23252182 0.97259468
0.32782769 -0.22970891 0.97393131
0.32550427 -0.22675481 0.97314876
0.36407283 -0.25423592 0.95371932
0.32563525 -0.22413141 0.96846163
0.36423251 -0.25199565 0.94949883
0.32599872 -0.22155906 0.96408713
0.36458793 -0.24942493 0.94510674
0.32609928 -0.21927652 0.95962429
0.3648836 -0.24696966 0.94079709
0.32643646 -0.21673563 0.95524621
0.3651526 -0.24453543 0.93646133
0.32662356 -0.21439728 0.95089447
0.36547613 -0.24198683 0.93203145
0.32689819 -0.2118544 0.94634837
0.36572653 -0.23958281 0.92770952
0.32710975 -0.20952126 0.9420715
0.36596361 -0.2371293 0.9232502
0.32756397 -0.20696418 0.93796623
0.3662875 -0.23467578 0.91901815
0.3277086 -0.20464714 0.93354744
0.36654496 -0.23230946 0.91479266
0.32795304 -0.20213206 0.92897981
0.3665517 -0.23012021 0.91027737
0.328309 -0.19961034 0.9246906
0.36688206 -0.22751874 0.90575588
0.32860732 -0.19719601 0.92047268
0.3673147 -0.22496796 0.90160728
0.32890782 -0.19473147 0.91615665
0.36754429 -0.22251211 0.89712346
0.32908264 -0.19236091 0.91170597
0.36774233 -0.22014062 0.89273179
0.32935974 -0.18995062 0.90744096
0.36786416 -0.21781912 0.88824397
0.32961744 -0.18751997 0.90308297
0.36833215 -0.21515605 0.88395542
0.32990339 -0.18509665 0.89881414
0.36857352 -0.21274473 0.87959456
0.33025521 -0.18250045 0.89435983
0.36865118 -0.21043448 0.87501448
0.33044642 -0.18017003 0.89003521
0.36912584 -0.2078501 0.87090623
0.33078918 -0.17759511 0.88560122
0.36941615 -0.2054498 0.86669648
0.33099204 -0.1752089 0.88119161
0.3696543 -0.20299374 0.86223465
0.33124784 -0.17290089 0.87708253
0.36991483 -0.20052446 0.85780412
0.33169228 -0.17022647 0.8727088
0.37021264 -0.19811282 0.85359055
0.33192515 -0.16782582 0.86834794
0.37034455 -0.19583975 0.8492294
0.33209488 -0.1654073 0.86378461
0.3707034 -0.19326624 0.84484047
0.33255669 -0.1628821 0.85976541
0.37103587 -0.19075677 0.84051502
0.33263651 -0.16064221 0.85533649
0.37120754 -0.18842128 0.83612871
0.33277696 -0.15830941 0.85087413
0.3715525 -0.18590659 0.83182526
0.33321059 -0.15578362 0.84677982
0.3718023 -0.18348143 0.8274579
0.36193341 -0.17275631 0.83000338
0.35695624 -0.17120221 0.83056909
0.35558683 -0.16864379 0.83191925
0.34456336 -0.15982567 0.83618593
0.33937874 -0.15762156 0.83710331
0.33539394 -0.15382002 0.83898979
0.33348116 -0.15321299 0.84204865
0.3698557 -0.18061331 0.82608509
0.36627454 -0.17779699 0.82744408
0.36250749 -0.1750115 0.82877439
0.35898313 -0.17188793 0.83030909
0.35511017 -0.16905615 0.83165884
0.35108659 -0.16607678 0.83308202
0.34752265 -0.16295964 0.8346107
0.34377909 -0.15992823 0.83608031
0.33988374 -0.15697719 0.83749551
0.33643579 -0.15413179 0.83887899
0.33399761 -0.15231691 0.83974671
0.3671113 -0.25347576 0.96010172
0.3650263 -0.25332606 0.96297503
0.36109182 -0.2502557 0.96445471
0.35751495 -0.24731824 0.96588188
0.35385075 -0.24431656 0.96733969
0.35012698 -0.24149066 0.96869528
0.34604806 -0.23852523 0.97010732
0.34248698 -0.23532939 0.97168028
0.33885211 -0.23245274 0.97306973
0.33508894 -0.22918954 0.97466809
0.33149615 -0.22634017 0.97604489
0.328751 -0.22381157 0.97540343
0.36728674 -0.25117394 0.95579511
0.32898667 -0.22088961 0.97052509
0.36747926 -0.24882078 0.9514268
0.32931983 -0.21829708 0.96602952
0.3678714 -0.24622029 0.94706929
0.32944649 -0.21605083 0.96171016
0.36812848 -0.24379364 0.94271785
0.32981864 -0.21342471 0.95724714
0.36851829 -0.24118334 0.93833387
0.33010808 -0.2109721 0.95292675
0.36874348 -0.23884031 0.93407208
0.3302682 -0.2086547 0.94854772
0.36886233 -0.2366173 0.92978042
0.33041087 -0.20636666 0.94418377
0.36923757 -0.2339429 0.9252255
0.33093593 -0.20371777 0.94007403
0.36953324 -0.23147552 0.92089087
0.33092251 -0.2015056 0.93545842
0.36984 -0.22902903 0.91662854
0.33122104 -0.19901669 0.93108678
0.36986631 -0.22683525 0.91215509
0.33156586 -0.19654509 0.92687207
0.3701939 -0.22431156 0.90778744
0.33185023 -0.19402619 0.92240113
0.37047315 -0.22187743 0.90347868
0.33214524 -0.19158287 0.9181146
0.37063345 -0.21959248 0.8991673
0.33245844 -0.18912256 0.91384047
0.3710216 -0.21696748 0.89474845
0.33268082 -0.18669616 0.90939879
0.37119579 -0.21466342 0.89043397
0.33310041 -0.18408012 0.90508085
0.37152284 -0.21207429 0.88592941
0.33324617 -0.18174011 0.90061742
0.37168723 -0.20974642 0.88153988
0.33347097 -0.17936057 0.8962791
0.37210312 -0.20713747 0.87722689
0.33376586 -0.17686422 0.89188248
0.37238759 -0.20474145 0.87301064
0.33406344 -0.17437771 0.88751322
0.37269557 -0.20226988 0.86869961
0.33430356 -0.17196088 0.88313776
0.37284157 -0.20006368 0.86451381
0.3345367 -0.1695995 0.87885892
0.37322438 -0.19734669 0.85989058
0.33491611 -0.16704071 0.87455428
0.37348884 -0.19491684 0.8555519
0.33507088 -0.16465129 0.8700121
0.37379149 -0.19242114 0.85117692
0.33540532 -0.16224754 0.86591077
0.3740499 -0.18999811 0.84683657
0.33574811 -0.15966517 0.8614614
0.37421313 -0.18763599 0.84237307
0.33600438 -0.1572707 0.85717458
0.37451279 -0.18519656 0.83810675
0.33604771 -0.15502366 0.85263544
0.37479773 -0.18277252 0.83383375
0.33638442 -0.15259911 0.84849685
0.37505102 -0.18035889 0.82949948
0.37262067 -0.17451277 0.82967466
0.36546522 -0.17219719 0.83053356
0.36020005 -0.1701389 0.83136427
0.34434167 -0.15285759 0.84007847
0.34101889 -0.15124655 0.8407777
0.33672699 -0.1500327 0.84408009
0.37334019 -0.17754816 0.82801723
0.3695018 -0.17446074 0.82951236
0.36592165 -0.17143805 0.8309871
0.36216858 -0.16848212 0.83241379
0.35832459 -0.1658206 0.8336699
0.3545891 -0.16284466 0.83510888
0.35084572 -0.15976304 0.83660662
0.34701139 -0.15678111 0.83804286
0.34297156 -0.15383443 0.83944672
0.33938482 -0.15074112 0.84096062
0.33714777 -0.1493077 0.84162694
0.37021139 -0.25056636 0.9621954
0.36824819 -0.25002623 0.96502256
0.36454836 -0.24700117 0.96649128
0.36056834 -0.2442302 0.96780038
0.35691571 -0.24111915 0.96932018
0.35320905 -0.23809661 0.97078705
0.34944731 -0.23532254 0.97211128
0.34573019 -0.23221384 0.97362578
0.3418209 -0.22930747 0.9750151
0.33845004 -0.22638509 0.97644645
0.33463329 -0.22334102 0.97791868
0.33199379 -0.22063491 0.97731346
0.37068138 -0.24786645 0.95783567
0.33229995 -0.21756648 0.97232026
0.37081087 -0.24560544 0.95349318
0.33244398 -0.2152379 0.96787602
0.37117317 -0.24299821 0.94904351
0.33278567 -0.2127602 0.96364051
0.37133756 -0.24066117 0.94463503
0.33312795 -0.21030724 0.95945781
0.37164 -0.2382011 0.94033325
0.33323511 -0.20799428 0.95494932
0.37197503 -0.23566192 0.93595302
0.33357137 -0.20539129 0.95044017
0.37213776 -0.23327823 0.93144357
0.33367163 -0.20310372 0.94596612
0.37235922 -0.23094334 0.92718887
0.33422577 -0.20052007 0.9420675
0.37271842 -0.22847639 0.92302155
0.33442098 -0.19819579 0.93776613
0.37291336 -0.22610144 0.91861451
0.33466753 -0.19571882 0.93328309
0.37322637 -0.22351287 0.91407442
0.33480993 -0.19329099 0.92862898
0.37353268 -0.2211239 0.90992999
0.33533257 -0.1906421 0.9245128
0.37371576 -0.21873195 0.90545672
0.33542201 -0.18840808 0.92012137
0.37401584 -0.21623248 0.9010672
0.33572033 -0.1858934 0.91569579
0.37420392 -0.2138468 0.89662004
0.33604583 -0.18344714 0.91148299
0.37440678 -0.21149716 0.89228612
0.33624661 -0.18109596 0.90714049
0.37495235 -0.20871234 0.88794851
0.33659908 -0.17850558 0.90269989
0.37506205 -0.20653716 0.88373196
0.33679482 -0.17618796 0.89841366
0.37547636 -0.20394383 0.87944722
0.33705232 -0.17372027 0.89397842
0.37583685 -0.20133288 0.87498504
0.33738443 -0.17115267 0.88953173
0.37593287 -0.19916385 0.87074542
0.33748779 -0.16901326 0.88537264
0.37623456 -0.19658427 0.86619425
0.33791935 -0.16636042 0.88100982
0.37651408 -0.19408205 0.86174518
0.33812502 -0.1640082 0.87667793
0.37683174 -0.19162101 0.85748124
0.33826077 -0.16167614 0.87220472
0.37700602 -0.1893039 0.85313994
0.338597 -0.15912884 0.86781085
0.37729576 -0.18685751 0.8488332
0.33898613 -0.15654728 0.8634845
0.37761584 -0.18438464 0.84455109
0.33923307 -0.15409593 0.85905546
0.3777439 -0.18207957 0.84011364
0.33941686 -0.15180376 0.85479069
0.37805218 -0.17953435 0.83565086
0.3396818 -0.14932588 0.85035384
0.37845388 -0.17695971 0.83137178
0.37753946 -0.17426263 0.83011675
0.37314296 -0.17198408 0.83112425
0.34821114 -0.1496973 0.84208751
0.34173715 -0.1492832 0.84192234
0.34006214 -0.14681444 0.84614968
0.37640643 -0.1744664 0.82993299
0.37269285 -0.17139231 0.83142835
0.36921218 -0.16862145 0.83276796
0.36547083 -0.16557077 0.83424854
0.36169446 -0.16248734 0.83574522
0.35796303 -0.15955684 0.83715898
0.35411131 -0.1565304 0.83861911
0.35036674 -0.15376464 0.83993971
0.3465398 -0.15061027 0.8414731
0.34291455 -0.14747053 0.84301066
0.34071019 -0.14584653 0.84378582
0.37360013 -0.24719349 0.96408516
0.37286302 -0.24475172 0.96616668
0.36918741 -0.24180929 0.96757609
0.36531007 -0.23895776 0.96909148
0.36159477 -0.23608769 0.97039902
0.35763109 -0.23309939 0.97199398
0.35384783 -0.23018841 0.97344881
0.35019988 -0.22736914 0.97488469
0.34625879 -0.22476475 0.97639138
0.34241402 -0.2217221 0.97791243
0.33862749 -0.21878308 0.97926909
0.33593985 -0.21700273 0.97955608
0.37399286 -0.24458246 0.95970732
0.37353411 -0.24157375 0.96148956
0.36990204 -0.23873173 0.96292472
0.36613312 -0.23577236 0.96439737
0.36236227 -0.23273826 0.9657535
0.35860926 -0.22983551 0.96729076
0.35488209 -0.22680511 0.96858066
0.35098609 -0.22375171 0.97011226
0.34734467 -0.22078401 0.97136128
0.3435775 -0.21786435 0.97289479
0.33969435 -0.21479289 0.9743762
0.33621061 -0.21405223 0.97466576
0.37413123 -0.24232973 0.95540524
0.37376884 -0.23913369 0.95719033
0.37011012 -0.23617928 0.95848912
0.36648759 -0.23334715 0.9599244
0.3626186 -0.23032555 0.96146238
0.35896632 -0.22749437 0.9629482
0.3550927 -0.22431937 0.96424788
0.35133702 -0.22139736 0.96575868
0.34756923 -0.21824279 0.96691656
0.34382367 -0.21544313 0.96860683
0.33999217 -0.21238638 0.97002667
0.33651268 -0.2115128 0.97025985
0.37436619 -0.23996739 0.95112908
0.37409866 -0.23663303 0.95263696
0.37063327 -0.23401874 0.95416224
0.36674505 -0.23086335 0.95551747
0.36290288 -0.22784504 0.95701653
0.35904768 -0.22483164 0.95854491
0.35537538 -0.22188874 0.95988464
0.35150671 -0.21898539 0.96161175
0.34788096 -0.21598268 0.96277875
0.34408259 -0.21299934 0.96426159
0.34035549 -0.21003586 0.96565872
0.33694291 -0.20899788 0.96597749
0.37466469 -0.23737621 0.9465456
0.37459913 -0.23442253 0.94826734
0.37083775 -0.23156984 0.94989872
0.36695385 -0.22838746 0.95120353
0.36317018 -0.22540417 0.95266223
0.35939944 -0.22242257 0.95410222
0.35560775 -0.21943973 0.95557487
0.35186717 -0.21662647 0.9572351
0.34806505 -0.21359733 0.95865071
0.34430891 -0.21046978 0.95983273
0.34066164 -0.20756432 0.96119118
0.33725965 -0.20658109 0.96177346
0.37493324 -0.23498222 0.94229186
0.37484184 -0.23205362 0.94406897
0.37106949 -0.22907619 0.94551837
0.3673299 -0.2260735 0.94687325
0.36361724 -0.22307779 0.94819492
0.35970411 -0.21998575 0.94969279
0.35588753 -0.21708035 0.95133066
0.35199779 -0.21391827 0.95267761
0.34827408 -0.21100187 0.95414472
0.34458044 -0.2079249 0.95530468
0.34087533 -0.20515111 0.95696968
0.33753234 -0.20403275 0.95732433
0.37510055 -0.23260817 0.93781435
0.37507352 -0.22950417 0.93959934
0.3712357 -0.2266006 0.94127518
0.36753732 -0.22359876 0.94256347
0.36375445 -0.22055088 0.94391727
0.35978982 -0.21740277 0.94541019
0.35613403 -0.2145879 0.94692796
0.35231742 -0.2115624 0.94837326
0.34863365 -0.20860349 0.94970626
0.34480804 -0.20549574 0.95103461
0.34129089 -0.20278232 0.95248628
0.3377502 -0.20163886 0.95282286
0.37547484 -0.23013154 0.93366641
0.37533709 -0.22704554 0.93522269
0.37147462 -0.22413388 0.93692625
0.36776152 -0.22111139 0.93820566
0.36405551 -0.21819822 0.93964863
0.36015716 -0.21512513 0.94115251
0.356361 -0.21210316 0.94256979
0.35259414 -0.20913127 0.94401908
0.34883338 -0.20621119 0.94554132
0.34511366 -0.20315598 0.94677919
0.34139192 -0.20030023 0.94834018
0.33793154 -0.19930509 0.94856185
0.37553832 -0.22783037 0.92906797
0.37565628 -0.22472313 0.9309727
0.37179545 -0.22170474 0.93250239
0.36808497 -0.21867874 0.93377191
0.36413902 -0.21553484 0.93524075
0.36048064 -0.21260804 0.93658334
0.35675198 -0.20980403 0.93823868
0.35276228 -0.20646253 0.93946302
0.34912628 -0.20374888 0.94111037
0.3453739 -0.20071596 0.94243783
0.34164485 -0.19777277 0.94387072
0.33819109 -0.19680354 0.94411886
0.37583411 -0.2253848 0.92477882
0.37579188 -0.22218691 0.92668277
0.37204272 -0.21915838 0.92801201
0.3682164 -0.21629795 0.92973804
0.36450887 -0.21314463 0.93079853
0.36076981 -0.21021844 0.93227512
0.35679224 -0.20715874 0.93393123
0.35305753 -0.20416284 0.93528891
0.34948048 -0.20129904 0.9365983
0.3457824 -0.19841664 0.93807757
0.34188864 -0.19533971 0.93956774
0.33863506 -0.19431783 0.93997705
0.37625018 -0.22285412 0.92062843
0.37608483 -0.21973595 0.92226994
0.37223235 -0.21670297 0.9237625
0.36850506 -0.21382609 0.92529881
0.36473495 -0.21072145 0.92654055
0.36103377 -0.20784718 0.92803788
0.3571679 -0.20467025 0.92932177
0.35333896 -0.20168841 0.93085748
0.3496668 -0.19883992 0.93234831
0.34602305 -0.19602036 0.93383873
0.34216547 -0.19297016 0.93531203
0.33866879 -0.1919779 0.93533725
0.37656501 -0.22035982 0.91628814
0.37622294 -0.2172184 0.91800582
0.37253538 -0.21419528 0.91924214
0.36877164 -0.21129902 0.92080742
0.3649798 -0.20820694 0.92210519
0.36122084 -0.20525706 0.92357665
0.3575353 -0.2023536 0.9250015
0.35384822 -0.19948617 0.92648661
0.35006663 -0.19645649 0.92786747
0.346322 -0.1935074 0.92931658
0.3425293 -0.19043753 0.93065137
0.33901548 -0.18961374 0.93134499
0.37687427 -0.21784081 0.91188222
0.37648964 -0.2147429 0.91359693
0.3727231 -0.21183312 0.91514522
0.3690722 -0.20891492 0.9164893
0.36532351 -0.20595583 0.91792905
0.36144263 -0.20281193 0.9192906
0.35764679 -0.19982651 0.92076594
0.35410523 -0.19709885 0.92223507
0.35020903 -0.19391499 0.92355782
0.34663135 -0.19117099 0.92506039
0.34276694 -0.18815817 0.92660487
0.33923376 -0.1870902 0.92662883
0.37705478 -0.21545479 0.9074145
0.37670845 -0.21213478 0.90905452
0.37324691 -0.20956331 0.91064203
0.36945704 -0.20648372 0.91195655
0.36563268 -0.20356682 0.91358882
0.3617236 -0.20044325 0.91502947
0.35802832 -0.19746266 0.91634667
0.35418704 -0.1944637 0.91787529
0.35069108 -0.19168633 0.91918945
0.34671646 -0.18855309 0.92072278
0.34293836 -0.18547058 0.92201322
0.33962461 -0.18448502 0.92238396
0.37725765 -0.21306652 0.90300071
0.37727115 -0.21001577 0.90472889
0.37338713 -0.20695597 0.90623045
0.36967191 -0.20397583 0.90758127
0.36588711 -0.20108445 0.90918922
0.3620466 -0.19792145 0.9104535
0.35827389 -0.19496238 0.91193295
0.35458234 -0.19214599 0.91350728
0.3508423 -0.18913563 0.91485059
0.34699088 -0.18602595 0.9162184
0.34321532 -0.18309964 0.91775507
0.33973441 -0.18223923 0.91802543
0.37753791 -0.21059887 0.89862514
0.3772977 -0.20743974 0.90055501
0.3735463 -0.20443675 0.9019289
0.36973727 -0.20145902 0.90343833
0.36603421 -0.19848557 0.90477979
0.3622829 -0.19556277 0.90628207
0.35851884 -0.19259486 0.90773308
0.35486037 -0.18955699 0.90889776
0.35106415 -0.18659736 0.91041505
0.34726164 -0.18368872 0.9120245
0.34348208 -0.18058944 0.9132905
0.34031767 -0.17962344 0.9138431
0.3779608 -0.2080816 0.89452028
0.37751433 -0.20500901 0.89630055
0.37389603 -0.20213911 0.89766824
0.37002495 -0.1989947 0.89901274
0.36624002 -0.19597393 0.90041345
0.36248913 -0.19306606 0.90193903
0.35882154 -0.19015959 0.90332937
0.35506094 -0.18724382 0.90485823
0.35142553 -0.1841612 0.90591311
0.3474901 -0.18115965 0.90759289
0.3437632 -0.17821975 0.90902746
0.34052771 -0.17727515 0.90949351
0.37815398 -0.20577846 0.89025748
0.37793306 -0.20258406 0.8917219
0.37419263 -0.19957009 0.89306015
0.37038031 -0.19664267 0.89465564
0.36650527 -0.19361618 0.89619583
0.36283305 -0.19066197 0.89751726
0.35903928 -0.18769082 0.89901209
0.35534915 -0.18473339 0.9003579
0.35153237 -0.18172404 0.90182942
0.34789479 -0.17881718 0.90316969
0.34401184 -0.17583175 0.90478873
0.34066993 -0.17488165 0.90506959
0.378324 -0.20339516 0.88576782
0.37815934 -0.20010993 0.88738203
0.37434548 -0.19705951 0.88878286
0.37051582 -0.19401011 0.8902114
0.36684453 -0.19111979 0.89163375
0.3630996 -0.18822154 0.89316487
0.35921738 -0.18524957 0.8948043
0.35559714 -0.1823225 0.89608353
0.35180062 -0.17928921 0.89748323
0.34813789 -0.17628978 0.89871657
0.34434503 -0.17338985 0.90032399
0.34091917 -0.17244865 0.90060771
0.37860912 -0.20089966 0.88134742
0.37844154 -0.19750789 0.88274467
0.37460476 -0.19468629 0.88455021
0.37087429 -0.19168311 0.88588929
0.36712876 -0.18873358 0.88733917
0.36339247 -0.18579179 0.8887862
0.35964522 -0.18279013 0.89015538
0.35579434 -0.17979874 0.89171195
0.35210314 -0.17690842 0.89316714
0.34829885 -0.17385881 0.89455348
0.34462732 -0.17100936 0.89604181
0.34120294 -0.16986135 0.89607376
0.37900671 -0.19833709 0.87708259
0.37868562 -0.19517049 0.87859458
0.37504831 -0.1923078 0.88000512
0.37115079 -0.18925579 0.88154143
0.36748394 -0.1863537 0.88293761
0.36367142 -0.18335098 0.88441277
0.35987508 -0.1803793 0.88591099
0.35611659 -0.17745003 0.88741475
0.35253426 -0.1746268 0.88879788
0.34856808 -0.17137025 0.89011955
0.344935 -0.16853449 0.8915664
0.34142512 -0.16753335 0.89186257
0.37915647 -0.19604339 0.87272543
0.37896648 -0.19277611 0.87429243
0.37531519 -0.18989319 0.87569362
0.37165388 -0.18700601 0.87710458
0.36777887 -0.18393666 0.87857598
0.36376509 -0.18078549 0.88014507
0.36012122 -0.17795335 0.88161546
0.35629374 -0.17492643 0.88307655
0.35258564 -0.17191669 0.88436812
0.348842 -0.16892813 0.88575232
0.34508926 -0.16604108 0.88731426
0.34158838 -0.16508681 0.88734758
0.37964964 -0.19332127 0.86838055
0.37916324 -0.19020817 0.8698507
0.37548152 -0.18736666 0.87136859
0.37171382 -0.18440001 0.87282759
0.36805946 -0.18149951 0.87420565
0.36425352 -0.17851098 0.87569273
0.36051592 -0.17551678 0.87705785
0.35658234 -0.17241041 0.87856656
0.35300702 -0.16951188 0.87981743
0.34919423 -0.16658375 0.88141257
0.34536287 -0.16361338 0.88297063
0.34201276 -0.16266285 0.88320166
0.37970269 -0.1911308 0.86398393
0.37959585 -0.18792519 0.86547685
0.37590522 -0.18501133 0.86689335
0.37215614 -0.18213122 0.86846042
0.3684409 -0.17922065 0.86992282
0.36449921 -0.17601708 0.87128901
0.36065996 -0.17300446 0.87279236
0.35683677 -0.1699837 0.87425619
0.35311633 -0.16704285 0.8756786
0.34943551 -0.16410916 0.87704712
0.34587601 -0.16138969 0.87855899
0.34235346 -0.16007856 0.8788324
0.37997657 -0.18865986 0.85958487
0.37988701 -0.18550569 0.86111742
0.37605754 -0.18255314 0.862701
0.37234801 -0.17955479 0.8640132
0.36857823 -0.17666686 0.8656019
0.36474136 -0.17351294 0.86687469
0.36096621 -0.1705977 0.86842847
0.35717753 -0.16759911 0.8698709
0.35338387 -0.16464262 0.87138903
0.3495259 -0.16153805 0.87277579
0.34595031 -0.15877479 0.87424409
0.34228265 -0.15786141 0.87428766
0.38023862 -0.18623953 0.85525966
0.37986612 -0.18289334 0.85696357
0.37624648 -0.18007542 0.8584168
0.37244371 -0.17706421 0.85986227
0.36871687 -0.17418192 0.8613891
0.36510289 -0.17123841 0.86263162
0.36122403 -0.16819713 0.8641544
0.35740542 -0.1652436 0.86571842
0.35381547 -0.16229674 0.866916
0.3500573 -0.15931268 0.86833137
0.34624067 -0.1562572 0.86972868
0.34280127 -0.15532038 0.87021142
0.38047856 -0.18381763 0.85087323
0.38021839 -0.18046889 0.85249537
0.37659115 -0.17769766 0.85403603
0.37283686 -0.17472392 0.8554616
0.36903948 -0.17160809 0.8567304
0.36523613 -0.16873528 0.85839868
0.36156452 -0.1658603 0.85984617
0.35772616 -0.1626516 0.86103362
0.35401225 -0.15988114 0.86271846
0.3502802 -0.15687105 0.86404908
0.34657916 -0.15394317 0.86546028
0.34297001 -0.15298246 0.86572611
0.38095006 -0.1810597 0.84639746
0.3804844 -0.17805192 0.84818155
0.37676671 -0.17523694 0.84980124
0.37302101 -0.17224416 0.8511821
0.36938253 -0.16926581 0.85240918
0.36555594 -0.16627567 0.85392761
0.36185354 -0.16337319 0.85538185
0.35805276 -0.16037498 0.85684484
0.35427603 -0.15740673 0.85831618
0.35047019 -0.15442795 0.85981864
0.34684655 -0.1515145 0.86112535
0.34339958 -0.15033799 0.86138743
0.38099203 -0.17884398 0.84191954
0.38074762 -0.17566949 0.84392768
0.37708658 -0.17278235 0.84533817
0.37337413 -0.16981372 0.84670287
0.36958286 -0.16675235 0.84804893
0.3658632 -0.16383761 0.84951198
0.36201173 -0.16081879 0.85102552
0.35821509 -0.15783158 0.85249931
0.35448498 -0.15485379 0.85387844
0.35065305 -0.1517798 0.85527134
0.34710017 -0.14904034 0.85674024
0.34351486 -0.14807552 0.85709506
0.38130054 -0.17641592 0.83769995
0.38108093 -0.17324647 0.8394931
0.3773818 -0.1703542 0.84095824
0.37367657 -0.16727221 0.84212923
0.36977178 -0.16431262 0.8438257
0.36618015 -0.16141215 0.8451004
0.3621949 -0.15831268 0.84670538
0.358477 -0.15530334 0.84801382
0.35489988 -0.15255815 0.84951347
0.35111356 -0.14939296 0.85068488
0.34740904 -0.14656807 0.85226697
0.34389213 -0.14551434 0.85286433
0.3817291 -0.1737918 0.83338881
0.38131261 -0.17089178 0.83497643
0.3775804 -0.16801193 0.83646315
0.37399274 -0.16495495 0.83789253
0.37019846 -0.16203822 0.83947545
0.3661384 -0.1588078 0.84099382
0.36264911 -0.15601331 0.8422696
0.35878998 -0.15305887 0.84389901
0.35505897 -0.15006498 0.84525383
0.35136864 -0.14708534 0.84640485
0.34752527 -0.14411558 0.84795821
0.34397954 -0.14320615 0.84824127
0.37979352 -0.17111337 0.83202046
0.37600183 -0.16838467 0.8333174
0.37242994 -0.16531649 0.83481812
0.36864045 -0.16202062 0.83643317
0.36483034 -0.15919675 0.83778232
0.36109743 -0.15622397 0.83921969
0.35719085 -0.15325885 0.84064209
0.35341579 -0.15034187 0.84204555
0.34972322 -0.14739066 0.84347332
0.34606344 -0.14440395 0.84492302
0.34418011 -0.14221832 0.84603268
