# .PCD v0.7 - Point Cloud Data file format
VERSION 0.7
FIELDS x y z
SIZE 4 4 4
TYPE F F F
COUNT 1 1 1
WIDTH 1294
HEIGHT 1
VIEWPOINT 0 0 0 1 0 0 0
POINTS 1294
DATA ascii
0.0082974527 0.08606299 0.55809635
0.0060685165 0.084939443 0.55897021
0.0025257226 0.081990726 0.56091338
-0.001017902 0.079037979 0.56280917
-0.004514005 0.07594347 0.56463492
-0.0080454387 0.072949514 0.56650949
-0.011520781 0.069960333 0.56837326
-0.015226528 0.066951536 0.57046014
-0.018711176 0.063819885 0.57222718
-0.022208106 0.060954534 0.57420951
-0.025606558 0.058107942 0.57603544
-0.027771674 0.056023702 0.57732624
0.0093496908 0.082480825 0.55449837
0.0072572157 0.081062786 0.55523229
0.0037272722 0.078175008 0.55720735
0.00024639629 0.075312532 0.55914599
-0.0032921582 0.072234973 0.56101525
-0.0068876669 0.069275424 0.56301606
-0.010423232 0.066498332 0.56506407
-0.013951249 0.063332818 0.56686902
-0.017473742 0.060249567 0.56871784
-0.021004662 0.057457611 0.57075202
-0.024480652 0.054461949 0.57260484
-0.026589595 0.052607056 0.57420748
0.010492442 0.079155862 0.55146325
0.0083922669 0.077668227 0.55197966
0.004975155 0.074680924 0.55377543
0.0014095474 0.071765773 0.55577159
-0.0022389553 0.06878791 0.55781716
-0.0057087019 0.065844566 0.55969512
-0.0091373585 0.062953904 0.56156164
-0.012768544 0.059864096 0.56352115
-0.016304657 0.05695723 0.5654912
-0.019764267 0.053956449 0.56732368
-0.023431256 0.051040158 0.56942606
-0.025420882 0.048882529 0.57060993
0.011575002 0.075634919 0.5480153
0.0095774606 0.074303724 0.54869229
0.0061621182 0.071146384 0.55038327
0.0026756898 0.068273522 0.55232149
-0.0011355504 0.065379977 0.55458981
-0.0045671016 0.062177181 0.55627036
-0.0080133826 0.059391152 0.55821884
-0.011660237 0.056355856 0.56022793
-0.015150659 0.053450853 0.5621509
-0.018532515 0.050393648 0.56386715
-0.022264063 0.047440648 0.56601542
-0.024356857 0.045367353 0.56744027
0.012865394 0.071818396 0.54449236
0.010701397 0.070717655 0.54533541
0.0071113314 0.067480266 0.54716223
0.003595788 0.064567745 0.54910713
0.00016173348 0.06177672 0.5510397
-0.0033409409 0.058724266 0.55288631
-0.0068227649 0.05592595 0.55486482
-0.010459024 0.052949205 0.55689818
-0.01381097 0.049946509 0.55861592
-0.017517891 0.046891116 0.56067622
-0.021224532 0.04376629 0.56269413
-0.023179419 0.041783791 0.56381512
0.013845421 0.068715811 0.541502
0.011778707 0.067045055 0.54197532
0.0083065014 0.064136267 0.54387683
0.0048532579 0.061107591 0.54568565
0.0012667086 0.05798183 0.54757637
-0.0021397993 0.055221532 0.54949844
-0.0057410598 0.052422069 0.55160224
-0.0093184449 0.049199708 0.55342478
-0.012897648 0.046267666 0.55542505
-0.01643829 0.043434851 0.55744469
-0.019699622 0.040507913 0.55911273
-0.021864403 0.038212083 0.56029081
0.015013449 0.065043047 0.53797656
0.013025718 0.063707449 0.53863907
0.0096172858 0.060621336 0.54036587
0.0060775802 0.057694733 0.54232776
0.002500236 0.054516986 0.54417729
-0.0011775196 0.051752277 0.54638284
-0.0045355074 0.048606254 0.54802018
-0.0082731321 0.0455686 0.55012357
-0.011837058 0.042717911 0.55215698
-0.015341692 0.039720744 0.55403912
-0.018776909 0.036926858 0.55597115
-0.020873636 0.034628958 0.55706972
0.016383022 0.061057061 0.53433734
0.014164442 0.060134299 0.53527445
0.010604603 0.056780785 0.53699905
0.0071406737 0.053957313 0.53894347
0.0035786144 0.051055543 0.54094392
0.00011517107 0.048214696 0.54287732
-0.0035065562 0.045093141 0.54480767
-0.0070693865 0.042109847 0.54675961
-0.01056223 0.039191462 0.54867703
-0.014229182 0.03624709 0.55076236
-0.017763831 0.033254467 0.55267894
-0.019773893 0.031242892 0.55411291
0.017535171 0.057515115 0.53098464
0.015373006 0.0564759 0.53178447
0.011795092 0.053540811 0.53378153
0.0081638079 0.050598763 0.53583068
0.0046847351 0.047540173 0.53764868
0.001107825 0.04456865 0.5396226
-0.0023733452 0.041684277 0.54154831
-0.0060465112 0.038535334 0.54351634
-0.0094657876 0.035613835 0.54535425
-0.012924533 0.032789819 0.54729283
-0.016471945 0.029800095 0.54922462
-0.018590808 0.027743481 0.55053538
0.018538196 0.054100987 0.5275557
0.016514033 0.053053834 0.5285089
0.012955995 0.049956717 0.53038687
0.0094868205 0.047076933 0.53230268
0.0058831424 0.044009291 0.53424668
0.0023615491 0.041281573 0.53630984
-0.001185447 0.038264535 0.5382247
-0.0047562122 0.035146445 0.54010338
-0.0082042441 0.032201834 0.54195762
-0.011745945 0.029251494 0.54390723
-0.015427507 0.026152216 0.54591423
-0.017405771 0.023995344 0.54717082
0.019825846 0.050604362 0.52452135
0.017612126 0.049494319 0.52519536
0.014143907 0.046346918 0.52694815
0.010676242 0.043515764 0.5288918
0.0071152747 0.040562458 0.53085995
0.0033377595 0.03754174 0.53301573
-3.7115067e-05 0.034772307 0.53489888
-0.0035148561 0.031457894 0.5365606
-0.0070875436 0.028645113 0.53862619
-0.010571085 0.025579296 0.54044449
-0.014140625 0.022742338 0.54249215
-0.016181014 0.020384923 0.54369104
0.021048885 0.047008704 0.52121574
0.018932302 0.04609777 0.52174622
0.015301399 0.042850994 0.52361047
0.0119032 0.040041022 0.52549368
0.0083053373 0.036970682 0.52742988
0.0045695417 0.034072362 0.5296157
0.001082547 0.030947931 0.53140223
-0.0024150014 0.027873382 0.53323007
-0.0059461631 0.025170662 0.53531849
-0.009443447 0.022164755 0.53718758
-0.013012566 0.019222379 0.53917092
-0.015143834 0.017254792 0.54073131
0.022076163 0.043436255 0.51758701
0.019981157 0.042568326 0.51850283
0.01639 0.039416425 0.52038258
0.01276237 0.03645914 0.52241862
0.0092589334 0.033380874 0.52425045
0.0057113357 0.030499004 0.52624774
0.0022690818 0.027710475 0.52819037
-0.0012348965 0.024542458 0.52996844
-0.0049142279 0.021343395 0.53191262
-0.0083742663 0.018704474 0.53396463
-0.011986718 0.015526146 0.53585082
-0.013955947 0.013712958 0.53719682
0.023169555 0.040134467 0.5144971
0.020922467 0.038676649 0.51515359
0.017374944 0.035772339 0.51713723
0.014106002 0.032870479 0.51882845
0.010595754 0.029985212 0.52078426
0.0069852993 0.02696158 0.52276206
0.0033598915 0.023888357 0.52472556
-0.00022448972 0.021031022 0.52677649
-0.0037042201 0.017899834 0.52855122
-0.0072955675 0.015064277 0.53062272
-0.010668561 0.011992328 0.53232074
-0.012836874 0.010251187 0.53395629
0.024347097 0.036574431 0.511163
0.022381749 0.035534605 0.51171184
0.018746624 0.032409094 0.51365393
0.015229678 0.029362924 0.51551938
0.011612101 0.026310243 0.51748705
0.0082027595 0.023559004 0.51941764
0.0045900848 0.020518512 0.52138752
0.0011042375 0.017492957 0.52323264
-0.0024714284 0.014633693 0.52527326
-0.0059373789 0.011551648 0.52706319
-0.0095865428 0.0084823444 0.52905416
-0.0116392 0.0064004064 0.53035158
0.025405675 0.03297887 0.50755596
0.023210209 0.031764977 0.50855547
0.019841235 0.028707646 0.51025814
0.016231645 0.025725164 0.5122599
0.012813326 0.022643931 0.51400006
0.0092880987 0.020114884 0.51618743
0.0057669394 0.01721064 0.51814324
0.0023079291 0.014018945 0.51985949
-0.0014295727 0.010865375 0.52189261
-0.0048206635 0.0080695748 0.52377689
-0.0083211511 0.004855983 0.52552366
-0.010592178 0.0031421259 0.52715778
0.026472909 0.029601902 0.50430214
0.024362987 0.02813413 0.50514108
0.020967424 0.025416709 0.50707757
0.01748953 0.022221781 0.50881177
0.013901377 0.019318983 0.51083916
0.010166867 0.016299814 0.51295048
0.006684456 0.013346761 0.51483589
0.0032115392 0.010277435 0.5166409
-0.00025385618 0.0073986724 0.51855338
-0.0039633401 0.0041589364 0.52050477
-0.0071598887 0.0015513673 0.5222978
-0.0094168 -0.00039307028 0.52387607
0.027647708 0.026339766 0.5014227
0.025529414 0.02461718 0.50178123
0.022040989 0.021654576 0.50366724
0.018391373 0.018578149 0.50565434
0.015000362 0.015574947 0.50741297
0.011522993 0.012659676 0.50931597
0.0077816639 0.0096718073 0.51145345
0.0044305883 0.0067427754 0.51321483
0.0010370873 0.00393904 0.5150969
-0.0025979653 0.0011891574 0.51726633
-0.0061952136 -0.002084963 0.51907849
-0.0082347021 -0.0039321929 0.52050602
0.028918002 0.022334538 0.49757177
0.026781205 0.021149166 0.49836099
0.02329335 0.018091202 0.50018865
0.019701362 0.015376322 0.50233388
0.016217157 0.012198366 0.504085
0.012597552 0.0093228817 0.50616211
0.00914759 0.0062608495 0.50794733
0.0056589432 0.0033740923 0.50987947
0.0020493567 0.00042229146 0.51189977
-0.0015452057 -0.0025740936 0.51387727
-0.0049758777 -0.0055015758 0.51572359
-0.0072511025 -0.0073889047 0.51742536
0.03011086 0.018877324 0.49442443
0.027937012 0.017760485 0.49509001
0.024529736 0.014733605 0.49685147
0.020959914 0.011879891 0.49888927
0.017260607 0.0087461844 0.50089407
0.013913177 0.0057922825 0.50263661
0.010309553 0.0026000589 0.5045051
0.0066743735 -0.00024026632 0.50661993
0.0032671355 -0.003030695 0.50852454
-0.00032275915 -0.0061701015 0.51041049
-0.0037241578 -0.0090688542 0.51224333
-0.0059761032 -0.010934092 0.51385176
0.031264737 0.015318595 0.49104899
0.029124772 0.014028288 0.49157733
0.025479367 0.011116497 0.49365968
0.021929774 0.0079345703 0.49547738
0.018499415 0.0053716227 0.49754411
0.014780236 0.0020323098 0.49944541
0.011388166 -0.00091794878 0.50123721
0.0077515785 -0.0036966875 0.50339085
0.0043558478 -0.0067046359 0.50515157
0.0007703118 -0.0097446293 0.50709319
-0.0026244223 -0.012618929 0.50893378
-0.0048031658 -0.014547326 0.51059097
0.032414079 0.011776134 0.48769033
0.030112458 0.010533065 0.48841918
0.026829487 0.0076519176 0.49013776
0.023142155 0.0046691447 0.49222136
0.019574629 0.0016910136 0.49418139
0.016080402 -0.0014449432 0.49596852
0.012586253 -0.0042744428 0.49794114
0.0090988446 -0.0072381347 0.49982542
0.0054332092 -0.010363527 0.50179976
0.0020595528 -0.013361759 0.50354308
-0.0015625246 -0.016150169 0.50567555
-0.0036879666 -0.018178351 0.50707126
0.033576034 0.0080422387 0.48405939
0.031400591 0.0070231333 0.48493522
0.027926825 0.0040499344 0.4867993
0.024523836 0.0011727735 0.48864692
0.020803954 -0.0019538701 0.49067771
0.01736092 -0.0050049648 0.49246225
0.013844725 -0.0078499466 0.49444875
0.010226646 -0.010726266 0.49652374
0.0067687351 -0.013821006 0.49829754
0.0031550229 -0.016749032 0.50033665
-0.00048620254 -0.019653715 0.50241888
-0.0025149286 -0.021669589 0.50369918
0.034593083 0.0050371066 0.4812873
0.032554992 0.0034477636 0.48155266
0.029011019 0.0006140992 0.48357534
0.025616117 -0.0025115311 0.48526394
0.021862024 -0.0053834766 0.48748508
0.018373178 -0.0085569322 0.48924384
0.014813196 -0.011340752 0.49131358
0.011409132 -0.014304802 0.49310967
0.0078312308 -0.017295368 0.49507314
0.0043535158 -0.020189732 0.49698913
0.00065667555 -0.023265734 0.4990263
-0.0015186183 -0.025119908 0.50054038
0.035901725 0.00075768679 0.47708356
0.033473197 -5.4135919e-05 0.47846377
0.03004645 -0.0029825196 0.48030543
0.026700322 -0.0059831515 0.48201829
0.023006463 -0.008943595 0.48412228
0.019510502 -0.011905812 0.48601645
0.016104016 -0.014889158 0.48780346
0.012507478 -0.017756954 0.48986089
0.0090885051 -0.020871922 0.49158135
0.0053727441 -0.023990668 0.49361259
0.0020779185 -0.026683353 0.4954578
-0.00010585785 -0.02890224 0.49687162
0.036945507 -0.0024043843 0.47411829
0.034686755 -0.0035748631 0.47505194
0.031367261 -0.0064978302 0.47678372
0.027683459 -0.0094226226 0.4788987
0.024075199 -0.012514919 0.48083258
0.020533102 -0.015597008 0.48270282
0.017117774 -0.018574007 0.484503
0.013568938 -0.02138897 0.48654211
0.010122823 -0.024466753 0.4883137
0.0065354276 -0.027310535 0.49037606
0.0029014237 -0.03041999 0.49232668
0.00079909153 -0.032112584 0.49387929
0.037949815 -0.0058021545 0.47071695
0.03587649 -0.0071654692 0.47162291
0.032458171 -0.010114096 0.47344342
0.028842203 -0.013066866 0.47546989
0.025359865 -0.016136162 0.47728485
0.021749042 -0.01896596 0.47938037
0.018297328 -0.022104613 0.48112103
0.014643718 -0.025020517 0.48320955
0.011208287 -0.027849972 0.48512024
0.0077773463 -0.03093829 0.48686948
0.0041255895 -0.03375081 0.48901862
0.0021606646 -0.036209069 0.49009201
0.039243553 -0.0094357282 0.46748248
0.037243027 -0.010669798 0.46805963
0.033493899 -0.013588846 0.47024697
0.030071244 -0.016628005 0.47201723
0.026529524 -0.019668624 0.47391221
0.022997187 -0.02244512 0.47595719
0.019433901 -0.025454812 0.47789365
0.015939763 -0.028452985 0.47976413
0.012320217 -0.03163676 0.4816545
0.0088350903 -0.034568779 0.48355553
0.0054485016 -0.037434243 0.48539293
0.0031175148 -0.039197013 0.48710579
0.040288437 -0.012693465 0.46437162
0.038213596 -0.01429449 0.46484113
0.034548856 -0.01735419 0.46685433
0.031176895 -0.020183817 0.46869797
0.027720463 -0.023020096 0.47062671
0.024163594 -0.026075564 0.47252867
0.020645102 -0.028802618 0.47458899
0.017062785 -0.031914473 0.47648364
0.013565559 -0.03500101 0.47830388
0.0099731013 -0.038037203 0.48025504
0.0065308288 -0.040817536 0.48220271
0.0043224245 -0.04266873 0.48378134
0.04122984 -0.015962668 0.46105331
0.039179992 -0.017872579 0.46165529
0.035905369 -0.020502672 0.46351707
0.032432094 -0.023437098 0.46540415
0.02894807 -0.02641651 0.46727532
0.025323004 -0.029499874 0.46923232
0.0217284 -0.032479323 0.47122011
0.018283034 -0.035468347 0.47304466
0.014799973 -0.038386501 0.47495192
0.011183392 -0.041459478 0.47690624
0.0075483136 -0.044482149 0.47891057
0.005593745 -0.046764657 0.48010594
0.042525008 -0.019558825 0.45787919
0.040588684 -0.021402724 0.45804858
0.036983531 -0.024014115 0.46025366
0.033426188 -0.027282275 0.46202734
0.029854244 -0.030156031 0.46405524
0.026263179 -0.033147886 0.46603179
0.022881422 -0.036161833 0.46777415
0.019366901 -0.038877673 0.46983707
0.015794726 -0.041934706 0.47175425
0.01225958 -0.044899665 0.47368807
0.0088482779 -0.047942109 0.47548628
0.0065928623 -0.049765795 0.47700214
0.041800208 -0.022842005 0.4565827
0.037813351 -0.026340589 0.4589085
0.03443265 -0.029097274 0.46065912
0.030811265 -0.032112472 0.46260005
0.027407508 -0.035171531 0.46466178
0.023996444 -0.03788919 0.46636087
0.020278132 -0.04095453 0.46832153
0.017008876 -0.043826938 0.4702324
0.013230644 -0.047092222 0.47238347
0.010044541 -0.049590185 0.4739278
0.0073698275 -0.051462434 0.47498709
0.010347795 0.084849872 0.55998415
0.0078774206 0.085210986 0.56244969
0.0045291595 0.082167841 0.56451362
0.00089788064 0.079252921 0.56634539
-0.0026068762 0.076231748 0.56833261
-0.0063830763 0.073377222 0.57005101
-0.0098764822 0.070321545 0.57207847
-0.013299976 0.067152046 0.57424998
-0.016684391 0.064468212 0.57592249
-0.02016449 0.061343934 0.57802689
-0.023871578 0.058365636 0.57989955
-0.025767744 0.054659851 0.57956535
0.011356378 0.081454799 0.55659479
-0.024495583 0.050848383 0.57606363
0.012556722 0.077805877 0.55316538
-0.023493987 0.047564648 0.57283324
0.013699379 0.074285559 0.54982865
-0.022241626 0.043986104 0.56960779
0.014789492 0.070749044 0.54637057
-0.021240793 0.040554814 0.56614834
0.016100999 0.067242712 0.543365
-0.019944165 0.036791153 0.56271851
0.01728585 0.063458644 0.5396986
-0.018926021 0.033363223 0.55929589
0.018283729 0.060229242 0.53654528
-0.017710283 0.029974028 0.55629551
0.019281972 0.056726247 0.53297049
-0.01646971 0.026266899 0.55285007
0.020525031 0.05306628 0.52960235
-0.015327308 0.022843346 0.54966205
0.021919765 0.049378596 0.52646953
-0.014182597 0.019254811 0.54622382
0.022918459 0.046075445 0.52320391
-0.013003595 0.015536733 0.54264855
0.024097528 0.042437788 0.51975286
-0.011972032 0.01223883 0.5394513
0.025264766 0.038920391 0.51646566
-0.010935925 0.0088100582 0.53606039
0.026332799 0.035404976 0.51299965
-0.0098382533 0.0052987039 0.532655
0.027409146 0.031887554 0.5095458
-0.0086867735 0.0018206239 0.52939963
0.028651984 0.028301708 0.50629163
-0.0074631572 -0.001855731 0.52597052
0.029804459 0.024740063 0.50290912
-0.0062839538 -0.005399704 0.52266431
0.031045498 0.021207776 0.49973428
-0.005158063 -0.0090019032 0.51917046
0.032076828 0.017783478 0.49634159
-0.0039623752 -0.012589477 0.51582718
0.033175074 0.014213908 0.49284738
-0.0026963763 -0.016134791 0.51267803
0.034506384 0.01060614 0.48972163
-0.0017148554 -0.019544296 0.50921679
0.035517171 0.007119976 0.48619574
-0.00064094365 -0.023081981 0.50572717
0.036737874 0.0036210045 0.48303506
0.00066350214 -0.026700966 0.50253481
0.037792265 0.0002476275 0.47976318
0.0017879046 -0.030226864 0.499156
0.038999096 -0.0034880787 0.47621176
0.0028229523 -0.033729687 0.49564892
0.040008463 -0.0069423988 0.47273242
0.0041877814 -0.037379727 0.49251938
0.041086398 -0.010441042 0.46931043
0.0051925518 -0.040761642 0.48914337
0.042349048 -0.013936758 0.4662317
0.0063374396 -0.04428646 0.48580378
0.043376148 -0.017348923 0.46284992
0.0076231286 -0.047958709 0.48249486
0.04473681 -0.021121241 0.45952407
0.039826892 -0.02580411 0.459032
0.028928217 -0.037822485 0.46797931
0.025043748 -0.040754981 0.46974292
0.017527061 -0.045078442 0.47173017
0.014526792 -0.046824731 0.47254515
0.01279738 -0.051360421 0.4767381
0.0085639711 -0.051478423 0.47878897
0.043361742 -0.024256125 0.45860928
0.040081747 -0.02745501 0.46086094
0.036309332 -0.03050857 0.46279067
0.032753676 -0.033303387 0.46452165
0.029606793 -0.03606876 0.46636149
0.025985658 -0.039037339 0.46825334
0.022572886 -0.042165332 0.47038469
0.018736102 -0.045137584 0.47220659
0.015437195 -0.048183545 0.47429043
0.01141 -0.051177047 0.47606951
0.0095325932 -0.052924462 0.47727016
0.013566058 0.082991466 0.56301785
0.010973223 0.083282046 0.56554484
0.0077746529 0.080252476 0.56764573
0.0042264611 0.077280425 0.56956625
0.00057740137 0.074373081 0.57138389
-0.0028931499 0.071252689 0.57348746
-0.0065817796 0.068212025 0.57543224
-0.0099502802 0.065410569 0.57723433
-0.013546921 0.062314481 0.57926905
-0.016753197 0.059355319 0.58129305
-0.020512708 0.056454651 0.58306587
-0.022441067 0.052771293 0.58271605
0.014834402 0.079392746 0.55979061
-0.021415561 0.049237881 0.57922632
0.01574422 0.076013982 0.55624533
-0.02013804 0.045663238 0.57605308
0.0171897 0.072173081 0.55296916
-0.019034155 0.042099383 0.57257801
0.018270932 0.068706028 0.54960197
-0.017934974 0.038574476 0.56915444
0.019524446 0.06519445 0.54648197
-0.016674064 0.035123676 0.56614184
0.020580171 0.061726905 0.54306728
-0.015651628 0.031616759 0.56260526
0.021729004 0.058129616 0.53962308
-0.014386471 0.028009959 0.55935973
0.02270738 0.054747403 0.5361982
-0.013135508 0.024465114 0.5561837
0.023814924 0.051374711 0.53302479
-0.012082685 0.020952515 0.55269414
0.025234561 0.047688898 0.52994061
-0.010862045 0.017437149 0.54950804
0.026278567 0.044095881 0.5263108
-0.0097856522 0.013863407 0.54596728
0.027437868 0.040517017 0.52291423
-0.0085759684 0.010231443 0.54258114
0.028473089 0.037183292 0.51966834
-0.0075465068 0.0068597794 0.53926623
0.029717354 0.033458367 0.51620221
-0.0062708482 0.0032163262 0.53598332
0.030797679 0.030004255 0.51285332
-0.0051714256 -0.00032399595 0.53253645
0.031870633 0.026470147 0.50936747
-0.0040436462 -0.0038406104 0.52917814
0.033053998 0.023013014 0.50620288
-0.0030173808 -0.0072740838 0.52576196
0.034367453 0.019404709 0.50304353
-0.0016649067 -0.010991849 0.52250528
0.035424061 0.015840866 0.49948183
-0.00065375865 -0.014431968 0.51905107
0.036436021 0.012534156 0.49623504
0.00045181438 -0.018055506 0.51548707
0.037815861 0.0087416843 0.49291325
0.0017067436 -0.02155263 0.51239198
0.038807824 0.0052994117 0.48942059
0.0028570611 -0.02507595 0.50906467
0.040111821 0.0016867742 0.48623726
0.0040988512 -0.028621569 0.50587064
0.041194335 -0.0018283427 0.48279822
0.0051242411 -0.032178469 0.50226241
0.042327188 -0.0052855536 0.47954088
0.0062179435 -0.03567905 0.49886635
0.043517247 -0.0089075118 0.47613421
0.0072923396 -0.039075725 0.49559522
0.044586167 -0.012455255 0.47261992
0.0086118486 -0.042777106 0.49230334
0.04575 -0.01607503 0.46916854
0.0097531173 -0.046264149 0.4890154
0.047003973 -0.01957228 0.46607149
0.010907125 -0.049905509 0.48551267
0.047998313 -0.023072712 0.46249348
0.030436689 -0.040252671 0.47105971
0.025107138 -0.044945829 0.474186
0.022678439 -0.047176532 0.47570771
0.017414875 -0.049210608 0.47605121
0.013882488 -0.05212649 0.47791788
0.011968642 -0.053338163 0.48216242
0.046587646 -0.026488811 0.46206948
0.043088675 -0.029493049 0.46404082
0.039589263 -0.032282479 0.46578532
0.036444198 -0.035168722 0.46775335
0.032742854 -0.038193315 0.46967676
0.028903771 -0.041222721 0.47155818
0.025657184 -0.043961257 0.47333559
0.021988574 -0.046988644 0.47527325
0.01865482 -0.050106101 0.47742054
0.015348192 -0.053115956 0.47946367
0.012743086 -0.054627828 0.48016661
0.017043 0.081038274 0.56637967
0.014408395 0.08120884 0.56890839
0.011192746 0.078416765 0.57075286
0.0074993689 0.075354658 0.57271868
0.0040535517 0.072417744 0.57463717
0.00065524131 0.069462627 0.57659107
-0.002782017 0.066386372 0.57865953
-0.0063361079 0.063481614 0.58050698
-0.0099784285 0.060514458 0.58239007
-0.01354159 0.057628404 0.58421469
-0.017185576 0.054558657 0.58620548
-0.019148592 0.050871026 0.5858258
0.01816649 0.077511959 0.56299847
-0.018122293 0.04731603 0.58229965
0.019147586 0.074036099 0.55943412
-0.016811952 0.04363453 0.57902169
0.020491472 0.070425801 0.55632746
-0.015761502 0.040240109 0.57571012
0.021642076 0.066895992 0.55299067
-0.014669809 0.036765866 0.57235098
0.022839794 0.063251108 0.54956263
-0.013495564 0.033210937 0.56901872
0.02390356 0.059742361 0.54609913
-0.012292236 0.029585022 0.56563032
0.025177309 0.056214504 0.5429911
-0.011210024 0.026122019 0.56227118
0.026173048 0.052729797 0.53943992
-0.010118619 0.022609804 0.55885291
0.027254853 0.049339321 0.53619194
-0.0090005249 0.019141063 0.55555075
0.028607432 0.045613091 0.53292233
-0.0077534914 0.015604451 0.5523802
0.029609893 0.042141445 0.52940363
-0.0065634325 0.011952952 0.54892796
0.03075413 0.038673177 0.52615011
-0.0053560473 0.0084483624 0.54573411
0.031950526 0.035058618 0.52276647
-0.0041920617 0.0048409179 0.54230207
0.032989919 0.031688713 0.51947242
-0.0029274523 0.0013374537 0.53921491
0.034122229 0.027991958 0.51584446
-0.0019184873 -0.0020970404 0.53576547
0.035468202 0.024290405 0.5126009
-0.00075055659 -0.005692549 0.532359
0.03657401 0.020934187 0.50944978
0.00041862577 -0.0093083829 0.52892351
0.037660673 0.017337423 0.5058924
0.0015645474 -0.012798235 0.52563977
0.038677581 0.014011305 0.50262469
0.002717115 -0.016370408 0.52224118
0.040054828 0.010247603 0.49934256
0.0038152598 -0.019773073 0.51900434
0.041024301 0.0069155172 0.49597871
0.0049419217 -0.023314074 0.51560634
0.042221867 0.003403835 0.49275595
0.0062850453 -0.026986673 0.51240218
0.043342948 -0.00020837784 0.48923784
0.00731612 -0.030523904 0.50883472
0.044573694 -0.0038107485 0.48593602
0.0083189476 -0.03385362 0.50553566
0.045708686 -0.0073897988 0.48249459
0.00961449 -0.037525199 0.5022459
0.046834469 -0.010857269 0.47920841
0.010808274 -0.041064724 0.49897325
0.047864374 -0.01434131 0.47572088
0.011897674 -0.044599622 0.49551633
0.049070299 -0.017906956 0.4724302
0.013074607 -0.048129909 0.49222705
0.050341241 -0.021555148 0.46913135
0.01423464 -0.051701955 0.48884234
0.051554024 -0.025132053 0.4658359
0.033830058 -0.041204952 0.4732264
0.032508366 -0.042728521 0.47438118
0.021855317 -0.052628167 0.48117733
0.018292103 -0.056427114 0.48396504
0.01529775 -0.055137284 0.48547834
0.050101977 -0.028247163 0.46512797
0.046774521 -0.030973732 0.46686509
0.043083955 -0.034115329 0.46891564
0.039713286 -0.037122093 0.47093359
0.036319174 -0.040072374 0.47288388
0.032211483 -0.042985022 0.47455013
0.028916657 -0.046076827 0.47668368
0.025465058 -0.048971847 0.47855598
0.022088621 -0.051831596 0.48041683
0.018435512 -0.054822929 0.48232171
0.016287092 -0.056605674 0.48346683
0.020530995 0.078946464 0.56954783
0.017960966 0.079429716 0.57200193
0.014335983 0.07638853 0.57396907
0.010826115 0.073373936 0.57594752
0.0073250439 0.070336312 0.57795334
0.0039009675 0.067500703 0.57977241
0.00036917999 0.064409822 0.58182389
-0.0031513348 0.061493136 0.58369541
-0.0067000203 0.058517288 0.58561975
-0.010195538 0.055471268 0.58763629
-0.013886884 0.052596077 0.5894056
-0.015709683 0.049217846 0.58935881
0.02153432 0.075500518 0.56607032
-0.014630396 0.045395933 0.58573985
0.022532502 0.072180718 0.56277806
-0.01337095 0.041749574 0.58242279
0.023786241 0.068529524 0.55944306
-0.012393042 0.038309995 0.5789085
0.024956113 0.065001979 0.55614507
-0.011162732 0.03468819 0.57557589
0.02610079 0.061482538 0.55281335
-0.010108005 0.031241842 0.57219201
0.027325606 0.057836231 0.54943281
-0.0089162551 0.027559392 0.56869513
0.028446473 0.05434645 0.54610324
-0.0078482367 0.024143618 0.56538284
0.029578786 0.050767809 0.54265755
-0.0065377988 0.020604286 0.5623244
0.030765723 0.047268964 0.53943509
-0.0055183247 0.017151862 0.5588665
0.031875912 0.043843977 0.53618592
-0.004356727 0.013484698 0.55533791
0.032757405 0.040462542 0.53258455
-0.0031222738 0.0099098012 0.55208528
0.034007698 0.03674069 0.52913421
-0.0019671358 0.0064480752 0.54886186
0.035302043 0.033191312 0.52603078
-0.00079049543 0.0029107183 0.54556108
0.036430582 0.029602174 0.52256197
0.00026940927 -0.00059682876 0.54209232
0.03750547 0.02611459 0.51915145
0.0014095809 -0.004071787 0.53882098
0.03851236 0.022634298 0.5156275
0.0025457162 -0.0075960681 0.53546613
0.039873943 0.018943641 0.51242936
0.0036966838 -0.011083052 0.5321961
0.04099204 0.015434217 0.50906438
0.0049583688 -0.014777012 0.52880967
0.041966647 0.011930749 0.50544548
0.0060124807 -0.018207341 0.5254494
0.043300882 0.008367978 0.5023945
0.0072599407 -0.0218767 0.52207482
0.044445366 0.0049206242 0.49917367
0.0083437562 -0.025382645 0.51865238
0.045579374 0.0013390183 0.4957265
0.0094295405 -0.028718933 0.5154953
0.046732765 -0.002242431 0.49231511
0.010780845 -0.032448798 0.51221782
0.047886521 -0.0057004392 0.48909482
0.011889338 -0.035949476 0.50884873
0.048880357 -0.009096548 0.48567688
0.012965254 -0.03953591 0.50528753
0.050137363 -0.012748927 0.482346
0.014267698 -0.043018848 0.50230145
0.051352121 -0.01632648 0.47905314
0.015215456 -0.046411544 0.49880427
0.052395981 -0.019782625 0.47563425
0.016238598 -0.049892157 0.49530962
0.053620696 -0.023356728 0.47236499
0.017523546 -0.053401984 0.49225
0.05474966 -0.026879825 0.46899885
0.045993302 -0.037797935 0.47379711
0.041209444 -0.039875381 0.47435066
0.039988633 -0.042109795 0.47628993
0.029633995 -0.050906278 0.4820244
0.024676934 -0.05352702 0.48309183
0.020961396 -0.057185881 0.4856796
0.018739695 -0.057165153 0.48858601
0.053366914 -0.030290246 0.46840146
0.050000843 -0.033110172 0.47022384
0.046452161 -0.035938323 0.47199234
0.043155245 -0.038988136 0.47408092
0.03950537 -0.04187081 0.47587231
0.035715193 -0.044894822 0.47776473
0.0323794 -0.047946528 0.47984198
0.028864626 -0.050962485 0.48182026
0.025198247 -0.053942122 0.48370826
0.021963391 -0.056761585 0.48557508
0.019667076 -0.058601446 0.48672977
0.023750743 0.077117227 0.57262927
0.021329619 0.077488638 0.5752033
0.017630426 0.074409105 0.57718545
0.014273977 0.071495391 0.57911009
0.010835245 0.068516403 0.58107537
0.0073305704 0.065664239 0.58288425
0.0034858026 0.062641479 0.58475673
0.00015632063 0.059528887 0.58690035
-0.003259398 0.056652561 0.5887652
-0.0067829154 0.053452298 0.59093493
-0.010158807 0.050604574 0.59278327
-0.012466777 0.04760332 0.59270012
0.024783477 0.073716678 0.56927574
-0.011222675 0.043460205 0.58900166
0.025847554 0.070252344 0.56588125
-0.0099741891 0.039754786 0.58557338
0.027136335 0.066588841 0.56259155
-0.0089944117 0.036395364 0.58218622
0.028270468 0.063070126 0.55924165
-0.0077079535 0.032673795 0.57880259
0.029561706 0.059389301 0.55592966
-0.0065430477 0.029144697 0.5754931
0.03064226 0.05597068 0.55263597
-0.0055136979 0.025705934 0.57207441
0.031607822 0.052640025 0.54926711
-0.0045070946 0.022296548 0.56865937
0.032915577 0.048846599 0.54581165
-0.0031152889 0.018680312 0.56563145
0.03409031 0.045300364 0.54249376
-0.0022372939 0.015244879 0.56194037
0.03526365 0.041796666 0.53923893
-0.0010521337 0.011667974 0.55859423
0.036159277 0.038426183 0.53568035
0.00015521795 0.00816039 0.55539578
0.037376661 0.034822159 0.53235149
0.0013434887 0.0045240223 0.55196357
0.038527749 0.031312276 0.5290463
0.0025081616 0.001014404 0.5486837
0.039544202 0.027923912 0.52568173
0.0036910959 -0.0025047958 0.54542255
0.040840279 0.024218768 0.52234113
0.0048032999 -0.0060549751 0.5419839
0.041873153 0.020813614 0.51898074
0.0061155688 -0.0097173229 0.53873897
0.043116413 0.017107829 0.51554227
0.0071449634 -0.013204284 0.53524601
0.044152651 0.013656795 0.51211733
0.0082398988 -0.016679727 0.53189099
0.045459751 0.010002002 0.5088746
0.0094257556 -0.020271502 0.52852321
0.046598837 0.0065558702 0.50564575
0.010609355 -0.023845568 0.52517855
0.047783006 0.0030144826 0.5023526
0.011728883 -0.027364679 0.52180129
0.048758917 -0.00026519597 0.49908143
0.01282179 -0.030804329 0.51849777
0.05008851 -0.0041175708 0.49557507
0.014085859 -0.034415074 0.51524413
0.051228557 -0.0076344237 0.49223888
0.015140694 -0.037970185 0.51169264
0.052419029 -0.011218049 0.48889214
0.016314341 -0.04138232 0.50857967
0.053552561 -0.01472991 0.48555171
0.01756479 -0.045063175 0.50519282
0.054601781 -0.018235013 0.48206708
0.018685518 -0.048532799 0.50189412
0.05576783 -0.021734312 0.47880566
0.019613184 -0.051970012 0.49829137
0.056918439 -0.025223374 0.47553173
0.020796578 -0.055412285 0.49514973
0.058044992 -0.028725393 0.47219369
0.056336239 -0.034570523 0.47393399
0.049462352 -0.037620664 0.47479802
0.044420213 -0.040141597 0.47573102
0.029729733 -0.05638244 0.48783457
0.0265617 -0.058216907 0.48868507
0.022040522 -0.059068628 0.4917888
0.056901965 -0.032076828 0.47149685
0.05329724 -0.035152979 0.47350779
0.049941417 -0.038133763 0.47550339
0.046413958 -0.0410925 0.47741693
0.042784713 -0.043837272 0.47906989
0.039275326 -0.046808578 0.48100287
0.035762951 -0.049863696 0.48302326
0.032157447 -0.052856825 0.48494637
0.028349977 -0.055858172 0.48680893
0.024990886 -0.058895238 0.48886272
0.022873614 -0.060402445 0.48972785
0.026867138 0.075464852 0.5757941
0.024619143 0.075473323 0.57845592
0.021146692 0.072469898 0.58043545
0.017389685 0.069616072 0.5821597
0.013967145 0.066553742 0.58421844
0.010487955 0.063551106 0.58619487
0.0069439206 0.060732778 0.58795458
0.0034583881 0.057661079 0.59000164
-0.000223618 0.054713879 0.5918501
-0.0033798255 0.051847734 0.59379309
-0.0069653951 0.048809171 0.59577096
-0.0091529638 0.045667406 0.59578651
0.028244732 0.071719006 0.5725401
-0.0078063533 0.041363552 0.59203094
0.029232215 0.068339348 0.5691359
-0.0067826435 0.037892733 0.58855247
0.030504912 0.064637981 0.56575823
-0.0055748075 0.034372821 0.58533585
0.031544827 0.061172761 0.56231809
-0.0043765232 0.03089175 0.58216166
0.032720894 0.057644054 0.55902964
-0.003382273 0.0274112 0.57861412
0.03394917 0.054022893 0.55569428
-0.0021276623 0.023692429 0.57517642
0.035006717 0.050483968 0.55217278
-0.0011479296 0.020244814 0.57165313
0.036081661 0.047074519 0.5488829
0.00023602135 0.016756222 0.56880778
0.037296213 0.043587364 0.54572916
0.0012902077 0.013339065 0.56546801
0.03837052 0.040091563 0.54230493
0.0024378933 0.0097328648 0.56200796
0.039604742 0.036373742 0.53883129
0.0035003405 0.0061069503 0.55836117
0.040754758 0.032958619 0.53567034
0.0048906039 0.0024884641 0.55532694
0.041828424 0.029425606 0.53218752
0.0058420822 -0.00088623911 0.55186433
0.043018788 0.025833763 0.52882791
0.0070374422 -0.0045032278 0.54847509
0.044093095 0.02231507 0.52536827
0.0082224887 -0.0079893619 0.54526877
0.045162261 0.018865701 0.52200627
0.0092909429 -0.011443004 0.54189885
0.046621412 0.015057947 0.51880634
0.010550715 -0.015127361 0.53852373
0.047562055 0.011792921 0.51549309
0.011602569 -0.018533714 0.5351963
0.048861917 0.0081608593 0.51227218
0.012753407 -0.022115536 0.53177965
0.050134964 0.0044520348 0.50888366
0.013991231 -0.025783338 0.52838987
0.051064532 0.0011839569 0.50554538
0.014913542 -0.028998844 0.52511936
0.052288011 -0.0025303587 0.50205749
0.016248094 -0.032707147 0.52184445
0.053466547 -0.0061453506 0.49864042
0.017320057 -0.036157921 0.51848537
0.054652579 -0.0096615776 0.49538952
0.018339943 -0.039641783 0.51497972
0.055690732 -0.013086848 0.49200779
0.019572226 -0.043274358 0.51163411
0.056853332 -0.016606063 0.48870933
0.020851521 -0.046911411 0.50836778
0.058045607 -0.020138353 0.48544508
0.021989169 -0.050477616 0.50495106
0.059049845 -0.023587525 0.48196429
0.0230233 -0.053855576 0.50163496
0.060263708 -0.027242601 0.47855014
0.024182919 -0.057446294 0.49822068
0.061548132 -0.030857347 0.47532767
0.061143905 -0.033911191 0.47488469
0.05695872 -0.036453106 0.47613329
0.03364449 -0.058176331 0.49106771
0.027349995 -0.059624232 0.49043974
0.025428589 -0.060982905 0.49504769
0.060029939 -0.03394901 0.47454315
0.056546304 -0.036993094 0.47656173
0.05327623 -0.039760068 0.47836113
0.049764462 -0.042790703 0.48035586
0.046220005 -0.045852989 0.48237282
0.042712536 -0.048788123 0.48426828
0.039092068 -0.051819004 0.48622608
0.035564411 -0.054627873 0.48798144
0.031973843 -0.057754286 0.49005023
0.02857928 -0.060834251 0.49213713
0.026502408 -0.062484495 0.4931671
0.030350875 0.0733606 0.57893521
0.029638892 0.071548022 0.58158964
0.026188321 0.068609074 0.58348984
0.022514109 0.065755367 0.58544374
0.019029584 0.062848836 0.5872215
0.015276164 0.059875771 0.5892849
0.011709806 0.056962974 0.59120846
0.0082680359 0.054152288 0.59309834
0.0045024902 0.051519342 0.59496206
0.00088256225 0.048491988 0.59698319
-0.0026703514 0.045523591 0.59882212
-0.0051375814 0.04350815 0.59939313
0.031644259 0.069681324 0.57562959
0.031314854 0.067289814 0.57820088
0.02789153 0.064459905 0.58009851
0.024342723 0.061508864 0.58205521
0.020816747 0.058453023 0.58392435
0.017268006 0.055576719 0.58592618
0.013793541 0.052511875 0.58773553
0.010123119 0.049469464 0.58976519
0.0067309216 0.046465226 0.59152448
0.0031708088 0.043569662 0.59352666
-0.00047800317 0.040497594 0.59551555
-0.0038539208 0.039340053 0.59569538
0.032634005 0.066322625 0.57226181
0.032421563 0.063770175 0.57490236
0.029004058 0.060790308 0.57670307
0.025588892 0.057971254 0.57859874
0.021940324 0.054964945 0.58062714
0.018488986 0.052156892 0.58256763
0.01488661 0.048935596 0.58441716
0.011341112 0.046032984 0.58639967
0.0078595299 0.042806145 0.58811843
0.0042849779 0.040072903 0.59023416
0.00069348887 0.037004795 0.59216499
-0.0026545413 0.035706058 0.59233278
0.033728443 0.062883124 0.56896138
0.033663504 0.060134098 0.57139075
0.030364454 0.05757137 0.57331908
0.026737824 0.054382503 0.57521385
0.023120489 0.051372103 0.57720691
0.01948579 0.048372872 0.579225
0.016047997 0.045413677 0.58105963
0.012359891 0.042574137 0.58323079
0.0089984536 0.039515376 0.58492458
0.0054221861 0.03654011 0.58689559
0.0019251909 0.033569679 0.58878583
-0.0013488308 0.032151144 0.58909142
0.034954581 0.059147932 0.56544614
0.035013404 0.056852024 0.56797957
0.031437639 0.05404909 0.57005435
0.027825363 0.050820719 0.57191008
0.024266805 0.047840744 0.57385951
0.020723293 0.04485891 0.57579195
0.0171549 0.041882161 0.57775378
0.013590958 0.03912811 0.57984567
0.010025619 0.036089413 0.58176672
0.0065489672 0.032896899 0.5835011
0.0031287279 0.029982403 0.58534425
-0.00017713755 0.028694019 0.58588356
0.036082834 0.055690326 0.56217974
0.036105748 0.053430181 0.56475544
0.032558858 0.05045478 0.56669539
0.029060043 0.047433101 0.56855655
0.025591359 0.044412479 0.57038659
0.021913299 0.041321106 0.57239467
0.018288765 0.038461734 0.57448673
0.014662575 0.035263903 0.5763756
0.011153758 0.032358848 0.57831794
0.0077354573 0.029217366 0.58002162
0.0042009745 0.026507497 0.58210921
0.0010002665 0.025034409 0.58248001
0.037139412 0.052170515 0.5586859
0.037245724 0.049757153 0.56132901
0.033594921 0.046907268 0.56345457
0.030145507 0.043873385 0.56525624
0.026609719 0.040801987 0.56712627
0.022888448 0.03764822 0.56914216
0.01942735 0.03486434 0.57110751
0.015843328 0.031835482 0.57305425
0.012397073 0.02885741 0.57488638
0.008829914 0.025715429 0.57674682
0.0055018831 0.023029625 0.57863122
0.0021121763 0.021496776 0.57897425
0.038367312 0.048682228 0.55555493
0.038393501 0.046201937 0.5579657
0.034715686 0.043348644 0.5601176
0.031255513 0.040290382 0.56191587
0.027766999 0.037384119 0.5638361
0.024100401 0.034314662 0.56584531
0.02053982 0.031284161 0.56776631
0.016997671 0.028314792 0.56970489
0.013445437 0.025416557 0.57169712
0.0099883173 0.02231428 0.57346553
0.006461475 0.019494131 0.57547832
0.0031484179 0.018080279 0.57567436
0.039329361 0.045179769 0.55191451
0.039562434 0.042820856 0.55468547
0.035922624 0.039816406 0.55670577
0.032466803 0.036752373 0.558496
0.028766647 0.033598479 0.56048948
0.025340196 0.030657478 0.56232315
0.02178752 0.027912587 0.56440878
0.018101249 0.024494089 0.56622744
0.014629873 0.021846604 0.56828624
0.011125837 0.018786378 0.57012957
0.0076196585 0.015845217 0.57204723
0.0043064058 0.014464587 0.57226104
0.040495425 0.041667394 0.54863298
0.040581997 0.039197732 0.55141628
0.037080359 0.036142681 0.55326021
0.033428866 0.033349946 0.55542105
0.03001957 0.030105259 0.55705279
0.026495591 0.027191345 0.55900574
0.022728842 0.024166554 0.56114769
0.019233637 0.021152854 0.56300986
0.015884053 0.0182743 0.56480026
0.012394728 0.015408859 0.56674606
0.0087349247 0.012332533 0.56874394
0.005603103 0.010980383 0.56914502
0.041771293 0.038133886 0.54552013
0.041762657 0.035643786 0.54801899
0.038137853 0.032616027 0.55000937
0.034611408 0.029767893 0.55200481
0.031110168 0.026612241 0.55378741
0.027614377 0.023759264 0.55574751
0.024021991 0.020532727 0.55758339
0.020408304 0.017569527 0.55960113
0.016938813 0.014743496 0.56154984
0.013493817 0.0119491 0.56349188
0.0098686665 0.0088986829 0.56546891
0.006546149 0.0074246451 0.56547469
0.042968862 0.03456359 0.54220694
0.042778976 0.032046195 0.54476869
0.039349806 0.028978761 0.5465287
0.035785951 0.026115086 0.54855412
0.032254256 0.022984229 0.55038387
0.028714227 0.020043358 0.55233747
0.02524714 0.017144129 0.55423933
0.021766011 0.014296226 0.55618703
0.018225623 0.011250116 0.55807728
0.014702639 0.0083056763 0.56001073
0.0111624 0.0052064583 0.56186867
0.0077123083 0.0040835738 0.56245387
0.044172842 0.03094995 0.53883862
0.043936245 0.028466146 0.54138029
0.040373556 0.025584314 0.54339349
0.036953215 0.022653025 0.54522663
0.033428691 0.019695826 0.54715395
0.02980705 0.016520761 0.54905182
0.026234549 0.013541713 0.55101657
0.022881858 0.010843754 0.55291963
0.0192552 0.0076173171 0.55479169
0.015864441 0.0049080402 0.55672801
0.012218438 0.0019126236 0.55876034
0.0088693202 0.00036106259 0.55878484
0.045242522 0.027423762 0.53535903
0.045080453 0.024714511 0.53790176
0.041771621 0.022210952 0.53987628
0.038238082 0.019097079 0.54171824
0.034608006 0.016224016 0.54380786
0.030945491 0.013086829 0.54577178
0.027492691 0.01008191 0.54759455
0.023869893 0.0070985183 0.54960972
0.020589013 0.0043155923 0.55138558
0.016850641 0.0011860952 0.55343413
0.013332296 -0.0019357428 0.55525529
0.010142146 -0.0032742396 0.55560315
0.046327166 0.023914643 0.53193313
0.04647458 0.021541305 0.5345099
0.042820774 0.018485956 0.53651416
0.039343752 0.015488163 0.53836679
0.035752803 0.012638249 0.54042917
0.032186307 0.0094231293 0.54224461
0.028632801 0.0064737648 0.54420727
0.025129078 0.0036993474 0.54622334
0.021632282 0.00066696852 0.54807591
0.018034652 -0.0024693534 0.54997188
0.014466653 -0.005371578 0.55197841
0.011110581 -0.0066472515 0.55217719
0.047492307 0.02035382 0.52857512
0.047376018 0.017897449 0.5313527
0.043863043 0.01487916 0.5332309
0.040272009 0.011915281 0.53522432
0.036807392 0.0089229569 0.53706717
0.033267491 0.0060178041 0.53904229
0.029727407 0.0030531362 0.54098153
0.026338303 -4.4561923e-05 0.54268092
0.022756649 -0.0029870868 0.54467744
0.019150173 -0.0058556199 0.54674488
0.015635706 -0.0090006217 0.54854792
0.01256544 -0.010244355 0.54907578
0.048767082 0.016847316 0.52550197
0.048457734 0.01439688 0.52809215
0.045060471 0.011523135 0.52993578
0.041450828 0.0083441585 0.53181863
0.037903387 0.0053116977 0.53372455
0.034358926 0.002427496 0.53571713
0.030914515 -0.0004818216 0.53758895
0.027361007 -0.0033740327 0.53958619
0.024014866 -0.0065423921 0.54119754
0.020279361 -0.0094988346 0.5433479
0.016774677 -0.012436055 0.54526639
0.013643643 -0.013695888 0.54569906
0.049811535 0.01346105 0.522192
0.049781404 0.01083871 0.5245415
0.046285361 0.0078013912 0.52639025
0.042673405 0.0049095452 0.52844942
0.039019138 0.0018983036 0.53048086
0.035585288 -0.0010768846 0.53230166
0.032010421 -0.0040364638 0.53428066
0.02855603 -0.0070103854 0.53612393
0.024966305 -0.010016374 0.53809047
0.02155821 -0.012935981 0.53991777
0.017880607 -0.015886739 0.54201049
0.014670622 -0.017222345 0.54225969
0.050873503 0.0099294037 0.51868975
0.05088941 0.0072737634 0.52121419
0.047317095 0.0042088404 0.52312672
0.043725368 0.0011504963 0.52506369
0.040271029 -0.0017348379 0.52696049
0.03673052 -0.0046074018 0.528956
0.033049226 -0.0075393841 0.53106391
0.029668892 -0.010493167 0.53284127
0.026111715 -0.013539545 0.53474903
0.022704532 -0.016581617 0.53650123
0.019106785 -0.019441001 0.53856504
0.015812764 -0.020780474 0.53880638
0.052052882 0.006329976 0.51529831
0.052108109 0.0035100803 0.51764983
0.048430875 0.00077553838 0.51987308
0.044943228 -0.0022497997 0.52172023
0.041419301 -0.0051945597 0.52365446
0.037903927 -0.0081314147 0.52558446
0.034395497 -0.011149161 0.52745819
0.03075859 -0.014118738 0.52949661
0.027280252 -0.016997591 0.53142262
0.023719199 -0.020064466 0.5333221
0.020250773 -0.022892036 0.53526878
0.017017227 -0.024499848 0.53533554
0.053329889 0.0027301311 0.5120852
0.053191461 0.00013227761 0.51446187
0.049768798 -0.0027251169 0.51634216
0.046096087 -0.005765073 0.51837575
0.04265108 -0.0086684376 0.52025175
0.039064277 -0.011666477 0.52222008
0.035486486 -0.014625967 0.52420223
0.031940088 -0.017537907 0.52618003
0.028570464 -0.02035749 0.5280273
0.024883924 -0.023663767 0.5299142
0.021457264 -0.026484519 0.53182089
0.018086175 -0.027890004 0.53208482
0.054343216 -0.00068150461 0.50867897
0.054338425 -0.0033379048 0.51115084
0.050905734 -0.0062192902 0.51302725
0.047462396 -0.0091034248 0.5149132
0.04382265 -0.012175173 0.51689267
0.040043108 -0.015317276 0.51897711
0.036602251 -0.018129416 0.520904
0.033005528 -0.021156713 0.52286506
0.029547103 -0.024198614 0.52467138
0.026038624 -0.027199052 0.5265556
0.022484917 -0.030053303 0.52857608
0.019152574 -0.031489775 0.52857745
0.055744305 -0.0044403672 0.50544804
0.055442519 -0.0070256814 0.50775337
0.051959112 -0.0098387003 0.50972462
0.048414215 -0.012800433 0.51167071
0.044983756 -0.01570563 0.51353031
0.041400094 -0.018685766 0.51550615
0.037900828 -0.021696143 0.51737463
0.034202896 -0.024801068 0.51939541
0.030867152 -0.027729176 0.52114123
0.027254855 -0.030621894 0.52320021
0.023634391 -0.033568144 0.52523541
0.020423142 -0.034919962 0.52543676
0.056655422 -0.0077811256 0.50196373
0.056735002 -0.010387965 0.50435418
0.053265259 -0.01330024 0.50625092
0.049713619 -0.016145863 0.50827444
0.046213098 -0.019045487 0.51021129
0.042538203 -0.022284947 0.51212633
0.038922481 -0.025288254 0.51412201
0.035328887 -0.028308295 0.51608413
0.031832311 -0.031248942 0.51799202
0.028381115 -0.034192383 0.51985031
0.025004029 -0.036872938 0.52178961
0.021660948 -0.038579635 0.5221262
0.057817873 -0.011352919 0.49858388
0.057902884 -0.013896964 0.5009976
0.054278661 -0.016818658 0.50305164
0.050814655 -0.019844025 0.50487387
0.047240678 -0.022693947 0.50691831
0.043675538 -0.025897458 0.50873935
0.04010427 -0.028784171 0.51075864
0.036544852 -0.031784117 0.51269692
0.032965194 -0.034723051 0.5146935
0.029357934 -0.037850045 0.51660526
0.025976164 -0.040587157 0.51851529
0.022473501 -0.042008035 0.51849842
0.0589526 -0.014857247 0.49525726
0.058759332 -0.017576642 0.49786621
0.055342879 -0.020376578 0.49977478
0.051770691 -0.023389764 0.50171852
0.048246626 -0.026245698 0.50370669
0.044879399 -0.029224716 0.5054549
0.041225545 -0.032255597 0.50747401
0.037614807 -0.035182253 0.50951076
0.034277681 -0.03817378 0.51121968
0.030750154 -0.041163154 0.51313066
0.027176183 -0.044234298 0.51504117
0.023841422 -0.045513734 0.51546848
0.060074054 -0.01838433 0.49187118
0.06000261 -0.021112479 0.49441388
0.05656122 -0.023844056 0.49639013
0.053034883 -0.026820108 0.49830797
0.049504522 -0.029982679 0.50011712
0.045884944 -0.032800376 0.50222921
0.042425044 -0.03566394 0.50414503
0.038876586 -0.038944274 0.50590199
0.03533037 -0.041646592 0.50800651
0.031843141 -0.044681184 0.50984764
0.028365605 -0.047609836 0.51174271
0.024896126 -0.0490015 0.51195621
0.061475843 -0.022218511 0.4885253
0.061139286 -0.0246097 0.49109736
0.057603538 -0.027373627 0.49315357
0.05409399 -0.03037934 0.49503571
0.050708964 -0.033399567 0.49677777
0.047100954 -0.036375284 0.49878195
0.043613181 -0.039267652 0.50070977
0.040039014 -0.042263128 0.50266629
0.03648375 -0.045224153 0.50462377
0.032896928 -0.048190594 0.50661123
0.029507898 -0.051124014 0.50841004
0.026224438 -0.052695163 0.50870138
0.062390096 -0.025608562 0.48497072
0.062260911 -0.028057255 0.48782679
0.058817912 -0.030941449 0.48971236
0.055340342 -0.033923902 0.49157485
0.051798962 -0.037011601 0.49344096
0.048294488 -0.039915651 0.49537933
0.044666119 -0.042923763 0.49738538
0.04109326 -0.045905054 0.49934912
0.037597477 -0.048894703 0.50122648
0.034011286 -0.051987015 0.50313705
0.03064891 -0.054697938 0.50504249
0.027191348 -0.056063809 0.50534374
0.063557163 -0.029082134 0.48175088
0.063480854 -0.031584911 0.48440403
0.05999358 -0.034463942 0.48633939
0.056563012 -0.037608728 0.48805404
0.052850313 -0.0405159 0.49021018
0.049495518 -0.043441452 0.49197763
0.04573293 -0.046519853 0.49408269
0.042262536 -0.049557976 0.49590394
0.03887286 -0.052269123 0.49783802
0.035372503 -0.05550494 0.49957114
0.031855986 -0.058287121 0.50159603
0.028443582 -0.059655569 0.50216061
0.064878322 -0.032748759 0.47851568
0.064603679 -0.035087831 0.48087314
0.061079498 -0.037953988 0.48282206
0.05772654 -0.040981546 0.48478454
0.054132715 -0.043864153 0.48683012
0.050324094 -0.047103055 0.48888659
0.047057025 -0.049912304 0.49063194
0.043397665 -0.052827068 0.49272719
0.039906248 -0.055839129 0.49458638
0.036480665 -0.058890827 0.496252
0.032848958 -0.061839737 0.49828142
0.029433329 -0.063168101 0.4985013
0.06348291 -0.03597714 0.47786525
0.059907671 -0.038765259 0.47958243
0.056561921 -0.041780122 0.48161736
0.053014211 -0.045010455 0.48381051
0.049425244 -0.04787603 0.48560476
0.045918215 -0.050844423 0.48753542
0.042241514 -0.053837009 0.48943353
0.038690895 -0.056769155 0.49131104
0.035222258 -0.059713699 0.49322975
0.031787142 -0.062680207 0.49518323
0.030048477 -0.064712994 0.49673247
