# .PCD v0.7 - Point Cloud Data file format
VERSION 0.7
FIELDS x y z
SIZE 4 4 4
TYPE F F F
COUNT 1 1 1
WIDTH 684
HEIGHT 1
VIEWPOINT 0 0 0 1 0 0 0
POINTS 684
DATA ascii
0.3546769 -0.19545874 0.824
0.35774937 -0.19622687 0.824
0.3626653 -0.1963805 0.824
0.36696672 -0.19545873 0.82400006
0.37201434 -0.19611715 0.82399994
0.33393785 -0.19084993 0.824
0.3378675 -0.19213627 0.82374996
0.34219536 -0.19195393 0.82279998
0.34696391 -0.19158641 0.82319993
0.35262582 -0.19182703 0.82325
0.35786626 -0.19235714 0.82200009
0.36224481 -0.19191925 0.82200003
0.36696672 -0.19238618 0.82399994
0.37234354 -0.19238621 0.82400006
0.37772033 -0.19161807 0.82399994
0.33199665 -0.18755013 0.82299995
0.33695856 -0.18732163 0.82200003
0.34232232 -0.18732165 0.82200003
0.34777963 -0.1873727 0.82222223
0.35228354 -0.18732165 0.82200003
0.3575176 -0.18750206 0.82218188
0.3622933 -0.18729642 0.82285708
0.3661986 -0.18931367 0.824
0.37285563 -0.18880157 0.82399994
0.37733626 -0.1889296 0.824
0.32856104 -0.18240047 0.824
0.33166233 -0.18244386 0.82271439
0.33695856 -0.18272401 0.82200003
0.34232232 -0.182724 0.82200003
0.34768605 -0.182724 0.82200003
0.35270655 -0.18211974 0.82353854
0.35755736 -0.18336064 0.82399994
0.36082181 -0.18393674 0.824
0.37403336 -0.18193957 0.824
0.37618411 -0.18163233 0.82400006
0.33233118 -0.17730793 0.82328588
0.33709583 -0.1774314 0.8223334
0.34235007 -0.17776239 0.8228572
0.34688532 -0.177561 0.82333332
0.3505803 -0.1780477 0.82400006
0.3324016 -0.17318287 0.82399994
0.33777842 -0.17318289 0.82399994
0.34238708 -0.17395099 0.82400006
0.34545955 -0.173951 0.824
0.34440362 -0.19617036 0.82700002
0.34748912 -0.19617036 0.82700002
0.35022393 -0.19640757 0.82800001
0.35630774 -0.19747315 0.82599998
0.36708742 -0.19747315 0.82599998
0.37286463 -0.19898045 0.82800001
0.32861233 -0.19100451 0.82800001
0.33245733 -0.19267999 0.82714283
0.33630249 -0.19403672 0.82666665
0.34860799 -0.19362316 0.82599998
0.35274109 -0.19455005 0.82666665
0.32881194 -0.18719828 0.82628578
0.36323756 -0.18515317 0.82599998
0.36763975 -0.18718483 0.82666671
0.37197602 -0.18652003 0.82660007
0.37731713 -0.18625318 0.82600009
0.32840198 -0.18179746 0.8265
0.35784769 -0.18053317 0.82599998
0.36204323 -0.18169563 0.82628578
0.36720443 -0.18251404 0.82800001
0.37207568 -0.18254168 0.82725
0.37863711 -0.18361317 0.82599998
0.32898545 -0.17766802 0.82699996
0.34937793 -0.17591318 0.82599998
0.35297117 -0.17693986 0.82600003
0.35736594 -0.17759517 0.82666671
0.36237919 -0.17778654 0.82755554
0.36566076 -0.17865473 0.82800001
0.32906002 -0.17330936 0.82679999
0.33186781 -0.17101096 0.8265
0.33705831 -0.1712932 0.82599998
0.34244815 -0.17206319 0.82600003
0.34777746 -0.17291053 0.82742852
0.35228342 -0.17312503 0.82740003
0.35763359 -0.17417793 0.82799995
0.36180153 -0.17479542 0.82800001
0.33269316 -0.16849719 0.82740003
0.33707601 -0.16930012 0.82679999
0.34013823 -0.16975319 0.82599998
0.34491596 -0.2064954 0.83133334
0.34752378 -0.2065748 0.83039999
0.34493381 -0.20433486 0.83200002
0.34728214 -0.20346385 0.8326667
0.36432496 -0.20045877 0.83200002
0.36801603 -0.20155746 0.83333343
0.37252787 -0.20147716 0.833
0.3760848 -0.20249553 0.83399999
0.32854196 -0.19733919 0.83285713
0.33237353 -0.19728279 0.83109087
0.3373211 -0.19778709 0.8312
0.34205866 -0.19781445 0.83066672
0.34726238 -0.19890757 0.83200002
0.35238218 -0.19755717 0.8306666
0.35725951 -0.19894524 0.82999998
0.36112803 -0.19997689 0.82999998
0.32842907 -0.19305626 0.83257145
0.33095348 -0.19378707 0.82999998
0.32798696 -0.18773367 0.83257151
0.32854658 -0.18259946 0.83342856
0.3680914 -0.18295488 0.83000004
0.37195992 -0.18140744 0.82999998
0.32786873 -0.17741682 0.83160001
0.36499655 -0.17521763 0.82999998
0.36825046 -0.17761083 0.83085716
0.37247169 -0.17755443 0.83079994
0.37733552 -0.17828339 0.83066666
0.32847762 -0.17181322 0.83000004
0.3441065 -0.17057525 0.82999998
0.34797502 -0.17057525 0.82999998
0.35261726 -0.17057525 0.82999998
0.35725951 -0.17134897 0.82999998
0.3626233 -0.17233813 0.83036363
0.36774474 -0.17225555 0.83171433
0.37240615 -0.17233008 0.83099991
0.37643218 -0.17239797 0.83133334
0.32903281 -0.16755627 0.83166665
0.33221191 -0.16656226 0.83160001
0.33794004 -0.16679177 0.8312
0.34205988 -0.16761363 0.83066666
0.3474884 -0.16799831 0.83179986
0.3524023 -0.16728078 0.83181804
0.35736275 -0.16725765 0.83246142
0.36220902 -0.16750297 0.83319998
0.36716077 -0.167648 0.83363634
0.37310642 -0.16913898 0.83360004
0.37563387 -0.16886128 0.833
0.33253965 -0.1636198 0.83319998
0.33746052 -0.16349071 0.83333337
0.34264252 -0.16337337 0.83345449
0.34767976 -0.16420214 0.833
0.35216251 -0.16391245 0.83350003
0.3574264 -0.16362274 0.83399993
0.36131355 -0.16362274 0.83399999
0.36226532 -0.20502912 0.838
0.36677605 -0.20743029 0.83759993
0.37163925 -0.20737267 0.838
0.32730693 -0.20139331 0.83750004
0.33205315 -0.20158313 0.83666664
0.33726808 -0.20190437 0.838
0.34195504 -0.20190437 0.838
0.34586084 -0.20190437 0.838
0.35049054 -0.20298114 0.83600003
0.35814422 -0.20100179 0.83750004
0.36261418 -0.20322394 0.83700001
0.36687437 -0.20401344 0.83640003
0.37231091 -0.20453979 0.83600003
0.37620741 -0.20453979 0.83600003
0.32700092 -0.19752757 0.83742851
0.34113893 -0.19986388 0.83600003
0.32672164 -0.19230039 0.83699995
0.32695609 -0.18797696 0.83720005
0.32789409 -0.18237476 0.838
0.32828212 -0.17747656 0.83700001
0.32925984 -0.17289594 0.83750004
0.32945642 -0.16831344 0.838
0.36451793 -0.16557378 0.83600003
0.36607653 -0.16557378 0.83600003
0.37222695 -0.16698708 0.83625001
0.37542811 -0.16635309 0.83600003
0.33191904 -0.16174133 0.83633333
0.33802173 -0.16089785 0.83600003
0.34269753 -0.16089785 0.83600003
0.34768504 -0.16152132 0.83600008
0.35204911 -0.16167718 0.83600003
0.35750419 -0.16167717 0.83600003
0.36318201 -0.16201118 0.83600003
0.3676351 -0.16245651 0.83600003
0.37320161 -0.16284515 0.83799994
0.33290488 -0.15773569 0.83783334
0.33745646 -0.15728156 0.83750004
0.34214064 -0.15728156 0.83750004
0.34758732 -0.15734962 0.83785719
0.35268083 -0.15728156 0.83750004
0.35762119 -0.15746917 0.83753848
0.36243883 -0.15728156 0.83750004
0.36721465 -0.15729088 0.8372308
0.37195173 -0.15815803 0.838
0.33726808 -0.15347093 0.838
0.35445368 -0.15347093 0.838
0.35757831 -0.15347093 0.838
0.36226532 -0.15347093 0.838
0.36617112 -0.15347093 0.838
0.36442679 -0.21096751 0.84299999
0.36599842 -0.21096751 0.84299999
0.3435854 -0.20600776 0.84200001
0.34590328 -0.20551844 0.83999997
0.35436523 -0.20667128 0.84149998
0.35656855 -0.20703828 0.84299999
0.36356124 -0.20811599 0.84100002
0.32554454 -0.20082015 0.83999997
0.33885601 -0.20395234 0.83999997
0.34277114 -0.20356083 0.83999997
0.34746933 -0.20343029 0.83999997
0.352559 -0.20277777 0.83999997
0.35745355 -0.20281811 0.84085715
0.36128351 -0.20468076 0.84299999
0.32641652 -0.19743022 0.84224999
0.32670718 -0.19210722 0.84299999
0.32686853 -0.18681216 0.84180003
0.32690886 -0.18235202 0.84149998
0.3282043 -0.17726766 0.84119999
0.32844931 -0.17253363 0.84171432
0.32926357 -0.16744471 0.84149998
0.33024269 -0.16636598 0.83999997
0.33083242 -0.16273803 0.84149998
0.3315188 -0.15699834 0.84224999
0.34746933 -0.1554033 0.83999997
0.37349173 -0.15820034 0.84100002
0.37602887 -0.15786517 0.84200001
0.33317953 -0.15248266 0.84030008
0.33807299 -0.15148805 0.83999997
0.34277114 -0.15227109 0.84000003
0.3474693 -0.15227109 0.84000003
0.35216749 -0.15227109 0.84000003
0.35773569 -0.15174906 0.84000003
0.36312988 -0.15148805 0.83999997
0.368265 -0.15218948 0.84100002
0.37122968 -0.15214869 0.84149998
0.33317906 -0.14776856 0.84000003
0.33795154 -0.14774662 0.84100002
0.34252375 -0.14772315 0.84214294
0.34726265 -0.14848951 0.84187496
0.35251072 -0.1478117 0.84218192
0.35794359 -0.14804396 0.84180003
0.362378 -0.14801109 0.84250003
0.36757007 -0.14967154 0.84299999
0.3337796 -0.14495647 0.84299999
0.33770874 -0.14495647 0.84299999
0.34163785 -0.14495647 0.84299999
0.35826045 -0.21038941 0.847
0.36371601 -0.21225575 0.84500003
0.35898989 -0.2075295 0.84500003
0.36135292 -0.20831721 0.84500009
0.32352006 -0.2009145 0.847
0.32550305 -0.20067731 0.84600002
0.31953549 -0.19505739 0.84899998
0.32280526 -0.19752774 0.84663641
0.32590693 -0.19728927 0.84500003
0.31953549 -0.19268307 0.84899998
0.32266778 -0.19277467 0.84700006
0.32590693 -0.19256298 0.84500003
0.31878275 -0.18828131 0.84699994
0.32214016 -0.18745436 0.84683341
0.32567096 -0.18696283 0.84614289
0.32289901 -0.18239437 0.84899998
0.32601669 -0.1820357 0.84733337
0.32270119 -0.17922862 0.84899998
0.32702672 -0.17775282 0.847
0.3275952 -0.17255707 0.84733343
0.32854983 -0.16799882 0.84724998
0.32943451 -0.16320738 0.84800005
0.33063307 -0.16263001 0.84500003
0.32956851 -0.15761186 0.84766668
0.33063307 -0.15790375 0.84500003
0.37474367 -0.15632832 0.84500003
0.37710673 -0.15632832 0.84500003
0.32983652 -0.1511713 0.847
0.33141726 -0.15237366 0.84600008
0.37356216 -0.15199593 0.84500003
0.37734705 -0.15235989 0.84660006
0.32983652 -0.14880258 0.847
0.33151332 -0.14698118 0.84675002
0.34481147 -0.14530039 0.84500003
0.34764713 -0.14593056 0.84500009
0.3526884 -0.14530039 0.84500003
0.35741451 -0.14530039 0.84500003
0.36214066 -0.14530039 0.84500003
0.36686674 -0.1468758 0.84500015
0.37208277 -0.14706853 0.84611118
0.37651762 -0.14757107 0.84899998
0.33248961 -0.14265978 0.84718192
0.33737805 -0.14233522 0.84611118
0.34237993 -0.14244819 0.8467778
0.34720671 -0.14248598 0.84700006
0.3520925 -0.14257587 0.84660006
0.35721713 -0.14238392 0.84640008
0.36231393 -0.14252526 0.84724998
0.36725873 -0.14270903 0.8483333
0.37261677 -0.14261667 0.84863639
0.33328736 -0.13814875 0.84825003
0.33755845 -0.13789184 0.84788889
0.34288096 -0.13788262 0.8488
0.34802651 -0.1380738 0.84899998
0.35277507 -0.1380738 0.84899998
0.3573257 -0.13827166 0.84899998
0.36227205 -0.13965668 0.84899998
0.37256044 -0.13886523 0.84899998
0.333781 -0.13490804 0.84899998
0.33655098 -0.13451232 0.84899998
0.34011236 -0.13490804 0.84899998
0.34723508 -0.13490804 0.84899998
0.32263127 -0.18325372 0.85299999
0.32422155 -0.17848271 0.85299999
0.32614166 -0.17640767 0.85220003
0.32740214 -0.1737117 0.85299999
0.32822108 -0.16616468 0.85100001
0.32940003 -0.16239063 0.852
0.32926416 -0.15768625 0.85233331
0.32980764 -0.15267853 0.85100001
0.32980764 -0.1479187 0.85100001
0.33058271 -0.14508566 0.85299999
0.37899113 -0.1479187 0.85100001
0.3307856 -0.14182182 0.85249996
0.37819782 -0.1431589 0.85100001
0.33150026 -0.13740358 0.85185719
0.34329343 -0.13522585 0.85100001
0.34567326 -0.13522585 0.85100001
0.35201955 -0.13522585 0.85100001
0.35804847 -0.13554317 0.85100001
0.36314002 -0.13709024 0.85149992
0.36769992 -0.13782302 0.85190904
0.37217769 -0.1361388 0.85174996
0.37751544 -0.13764548 0.85124993
0.33363584 -0.13273668 0.852
0.33751243 -0.13200173 0.85214293
0.34250724 -0.13213275 0.8524546
0.3475711 -0.13244399 0.85225004
0.35270956 -0.13310581 0.85266668
0.35784486 -0.13281737 0.85300004
0.3621898 -0.13256177 0.85300004
0.36715949 -0.13315815 0.85299999
0.37213397 -0.13318202 0.85242862
0.37648043 -0.13307965 0.85250002
0.32337716 -0.17721063 0.85549998
0.32347074 -0.17299515 0.85733336
0.32666159 -0.17247701 0.85575002
0.32471153 -0.16762772 0.8585
0.32694927 -0.16769673 0.85640001
0.32490066 -0.16372295 0.85900003
0.32774183 -0.1624787 0.85666674
0.32797694 -0.15710923 0.85700005
0.32911983 -0.15260965 0.85655558
0.32970512 -0.14770773 0.85900003
0.33053517 -0.14736383 0.85700005
0.33053517 -0.14257044 0.85700005
0.33074084 -0.13729815 0.85650003
0.32970512 -0.13249327 0.85900003
0.33144781 -0.13259044 0.85574996
0.35208014 -0.13107926 0.85500002
0.35686219 -0.13107926 0.85500002
0.36483231 -0.13107926 0.85500002
0.36802033 -0.13107926 0.85500002
0.37280241 -0.13107926 0.85500002
0.37678745 -0.13107926 0.85500002
0.32970512 -0.12688793 0.85900003
0.33254176 -0.12804011 0.85599995
0.33773395 -0.12789114 0.85500002
0.34269443 -0.12795681 0.85544443
0.34738874 -0.12792397 0.85522223
0.35235465 -0.12798962 0.85566664
0.35686219 -0.12789114 0.85500002
0.36222392 -0.12803607 0.85500008
0.3677747 -0.12798961 0.85566664
0.37285492 -0.12752531 0.85645449
0.37694895 -0.12726648 0.85677785
0.32970512 -0.12208337 0.85900003
0.33231851 -0.12275995 0.85684621
0.33692813 -0.12232711 0.8566364
0.34235856 -0.12275781 0.85700011
0.34791318 -0.12266815 0.85750002
0.35270926 -0.12266815 0.85750002
0.35750529 -0.12266815 0.85750002
0.36244261 -0.12271551 0.85783339
0.36801937 -0.12377569 0.85825008
0.37232852 -0.12401234 0.8585
0.37694871 -0.12368489 0.85900003
0.3339757 -0.11834649 0.85900003
0.33739218 -0.11823972 0.85900003
0.34251693 -0.11888033 0.85900003
0.34732136 -0.11888033 0.85900003
0.35212579 -0.11888033 0.85900003
0.32518101 -0.1670922 0.86400002
0.32552275 -0.16259268 0.86320001
0.32591826 -0.15753239 0.86311114
0.32751304 -0.15246144 0.86324996
0.32882607 -0.1483946 0.86300004
0.33029446 -0.14577059 0.8633334
0.33043498 -0.14195961 0.86299998
0.33035067 -0.13748588 0.86320001
0.33001342 -0.13245906 0.86400002
0.3292495 -0.12572397 0.86199999
0.33001342 -0.12843195 0.86400002
0.3292495 -0.12331329 0.86199999
0.36781925 -0.12130441 0.86199999
0.37296185 -0.12154548 0.86199999
0.37748984 -0.1219791 0.8628
0.33298922 -0.11777817 0.86266661
0.33728483 -0.11608128 0.86199999
0.34210607 -0.11688485 0.86199999
0.34692729 -0.11688485 0.86199999
0.35220763 -0.11699964 0.86199999
0.35768351 -0.11778939 0.86274993
0.36248562 -0.11786919 0.86333334
0.36705032 -0.1176909 0.86349994
0.37189424 -0.11796144 0.86399996
0.37649652 -0.11842169 0.86399996
0.33484581 -0.11393435 0.86400002
0.33807266 -0.11326388 0.86349994
0.34289983 -0.11312893 0.86399996
0.34773222 -0.11312893 0.86399996
0.35233453 -0.11358916 0.86399996
0.35739705 -0.11393434 0.86400002
0.36222947 -0.11409543 0.86400002
0.36665916 -0.11433706 0.86400002
0.37350506 -0.11473977 0.86400002
0.37511584 -0.11473977 0.86400002
0.34773222 -0.10990723 0.86400002
0.32431921 -0.16586441 0.866
0.32506821 -0.16867492 0.86799997
0.3241019 -0.16151683 0.86649996
0.32327819 -0.15736829 0.86700004
0.32349131 -0.15333404 0.86666662
0.32591042 -0.15131159 0.86679995
0.32702282 -0.14742438 0.86675
0.3277992 -0.14256276 0.86666667
0.32803285 -0.13793038 0.86675
0.32881957 -0.13321197 0.86679995
0.32941619 -0.12801917 0.86666662
0.32992297 -0.12417161 0.86799997
0.33077732 -0.12146366 0.866
0.33207288 -0.11692275 0.86675
0.37194782 -0.11500537 0.866
0.37840596 -0.11581265 0.866
0.33290234 -0.11194832 0.86733335
0.33691254 -0.11080748 0.866
0.34207904 -0.11016164 0.866
0.3453081 -0.11016165 0.866
0.35370365 -0.11080748 0.866
0.3582243 -0.11096894 0.866
0.3631877 -0.11135126 0.86628574
0.36821955 -0.1116062 0.86625004
0.37275508 -0.11177623 0.86600006
0.37708211 -0.1118629 0.86666673
0.38008898 -0.11365266 0.86799997
0.33328047 -0.10760602 0.86771429
0.33732158 -0.10695953 0.86622226
0.34216723 -0.10695954 0.86622226
0.34718969 -0.10701357 0.86666667
0.35241443 -0.10719162 0.86680001
0.3574293 -0.10691451 0.86750001
0.36188358 -0.10839318 0.86799997
0.36552465 -0.10879776 0.86799997
0.37199771 -0.10879776 0.86799997
0.37685248 -0.10879776 0.86799997
0.33781198 -0.10252684 0.86799997
0.34286904 -0.10313371 0.86799997
0.34740016 -0.10329554 0.86799991
0.35176945 -0.10394286 0.86799997
0.32390174 -0.16648726 0.87066668
0.32337037 -0.16297534 0.87039995
0.32297873 -0.15243775 0.87
0.32394177 -0.14741848 0.8714999
0.3258172 -0.14716616 0.87
0.3249405 -0.14344008 0.87199998
0.32619172 -0.14246176 0.87099993
0.32739913 -0.13683234 0.8713333
0.32862657 -0.13150279 0.87099993
0.32886475 -0.12739021 0.87119997
0.32981765 -0.12230521 0.87199998
0.33068317 -0.12121367 0.87
0.32981765 -0.1182408 0.87199998
0.33068317 -0.1171586 0.87000006
0.32981765 -0.11173777 0.87199998
0.33068317 -0.11229251 0.87000006
0.32981765 -0.10848625 0.87199998
0.33180842 -0.10682625 0.87039995
0.36312294 -0.1066154 0.87
0.36765474 -0.10729895 0.87085712
0.37247008 -0.10673749 0.87099993
0.37757006 -0.10682625 0.87039995
0.38021484 -0.10604761 0.87199998
0.33298379 -0.10276948 0.87177765
0.33554915 -0.10256032 0.87000006
0.34203708 -0.1009383 0.87000006
0.34690306 -0.1009383 0.87000006
0.35190439 -0.10178799 0.87033325
0.35720533 -0.10279214 0.87059993
0.36253515 -0.10259288 0.87199986
0.36612532 -0.10387993 0.87199998
0.37289912 -0.10442185 0.87199998
0.37696341 -0.10442185 0.87199998
0.38021484 -0.10442185 0.87199998
0.33388194 -0.098731697 0.87199998
0.33742949 -0.097767845 0.87066662
0.34256127 -0.097842716 0.87133324
0.34790373 -0.098122038 0.87199986
0.35257769 -0.097918816 0.87199986
0.35745478 -0.097918816 0.87199986
0.36070624 -0.099544577 0.87199998
0.33794621 -0.094667293 0.87199998
0.3420105 -0.094667301 0.87199998
0.32279581 -0.14638059 0.875
0.32412589 -0.1431157 0.8775
0.32561356 -0.14164823 0.87599993
0.32345206 -0.1372169 0.87900001
0.32631892 -0.13740006 0.87624997
0.32726341 -0.13296583 0.87677777
0.3270154 -0.12741916 0.87611103
0.32819811 -0.12297771 0.87679994
0.32918775 -0.11755119 0.87900001
0.33029342 -0.11762608 0.87650001
0.32918775 -0.11017653 0.87900001
0.33029342 -0.11353932 0.87650001
0.32924107 -0.10703059 0.87740004
0.33036664 -0.10711964 0.8763333
0.32918775 -0.10198248 0.87900001
0.33051309 -0.1024501 0.87599993
0.36792865 -0.10206219 0.875
0.37222445 -0.1028235 0.875
0.37838382 -0.10201711 0.87528569
0.38075992 -0.10011536 0.87699997
0.32918775 -0.09788546 0.87900001
0.33172897 -0.097506076 0.87627262
0.33584628 -0.096624345 0.875
0.34726542 -0.096624345 0.875
0.36292601 -0.097929426 0.875
0.36684114 -0.098255694 0.875
0.37255073 -0.098255694 0.875
0.37787691 -0.097550452 0.87599993
0.38141394 -0.096518174 0.87699997
0.3334904 -0.092532493 0.87699991
0.33731443 -0.09205655 0.875
0.34254581 -0.091776051 0.87544441
0.34752974 -0.092614919 0.87566662
0.35236058 -0.092597447 0.87550002
0.35746133 -0.092649855 0.87599993
0.36222267 -0.092614911 0.87566668
0.36705074 -0.092597447 0.87549996
0.37231344 -0.092814252 0.8757692
0.37757668 -0.092286825 0.87719995
0.38119411 -0.092862338 0.87800002
0.33410403 -0.088872001 0.87900001
0.3375192 -0.088082992 0.87814283
0.34272596 -0.087951489 0.87799996
0.34749582 -0.087165788 0.87833333
0.3522383 -0.087362207 0.87824994
0.35737452 -0.087888718 0.87900001
0.36155337 -0.088462308 0.87900001
0.36720711 -0.088216469 0.87900001
0.37189975 -0.088082992 0.87814289
0.37724504 -0.087985195 0.87833333
0.34885293 -0.083955579 0.87900001
0.3504917 -0.083955579 0.87900001
0.3244679 -0.14211775 0.884
0.32336676 -0.1350653 0.88099998
0.32500926 -0.1375291 0.88099998
0.32410085 -0.13207752 0.88299996
0.32566628 -0.13145171 0.88099992
0.3244679 -0.12810865 0.884
0.32537818 -0.12699471 0.88199997
0.32797617 -0.12184559 0.88279998
0.32926384 -0.11678454 0.88249999
0.32931235 -0.11232325 0.88299996
0.32830578 -0.10768956 0.88279998
0.32941219 -0.10256258 0.884
0.32954332 -0.09712474 0.88325
0.32967448 -0.094161883 0.88249999
0.33137164 -0.092155471 0.88219994
0.3327381 -0.087520994 0.88189995
0.33814922 -0.085789137 0.88099998
0.34307671 -0.085789137 0.88099998
0.35457417 -0.085789137 0.88099998
0.35785913 -0.085789137 0.88099998
0.36311513 -0.086446151 0.88099992
0.36730349 -0.086199775 0.88099998
0.37264165 -0.085789137 0.88099998
0.37756911 -0.085789137 0.88099998
0.33370256 -0.08323887 0.88299996
0.33775929 -0.082405306 0.88154542
0.34307671 -0.082504064 0.88099998
0.34779885 -0.082298741 0.88099998
0.35327426 -0.082582727 0.8818571
0.35749277 -0.082607321 0.88212502
0.36251149 -0.082689494 0.8829999
0.36745018 -0.082689494 0.8829999
0.37257832 -0.082670957 0.88279992
0.37727249 -0.082778215 0.88174999
0.33435643 -0.077840611 0.884
0.33786651 -0.077978455 0.88370001
0.34248689 -0.077628717 0.88160002
0.34792081 -0.077739455 0.88287491
0.35248542 -0.078939363 0.884
0.35742965 -0.078664683 0.884
0.36278597 -0.079076707 0.884
0.36690617 -0.079076707 0.884
0.37308651 -0.079488739 0.884
0.338202 -0.073445588 0.884
0.34259689 -0.072896212 0.88399994
0.34699178 -0.073445588 0.884
0.32520199 -0.12592068 0.88599998
0.32639492 -0.12275536 0.88700002
0.32733601 -0.11776051 0.88674998
0.32428053 -0.11130463 0.88800001
0.32710707 -0.11307175 0.88725001
0.32428053 -0.10964904 0.88800001
0.32706913 -0.10791237 0.88733333
0.32804862 -0.10291065 0.88700002
0.32827711 -0.098308161 0.88649994
0.32924718 -0.093093134 0.88800001
0.33015743 -0.092057534 0.88599998
0.33075669 -0.087563612 0.8865
0.33225793 -0.083084688 0.8872
0.33300966 -0.078104772 0.88700002
0.35361323 -0.077025607 0.88599998
0.35823831 -0.07636486 0.88599998
0.36286339 -0.077025607 0.88599998
0.36847958 -0.077025607 0.88599998
0.37298849 -0.077569388 0.88628578
0.37640831 -0.078016721 0.88599998
0.333662 -0.074329786 0.88800001
0.33634019 -0.072537385 0.88633329
0.34942865 -0.07195989 0.88599998
0.35292825 -0.073523447 0.88759995
0.35763285 -0.074123926 0.88742858
0.36235809 -0.074053854 0.88800001
0.36732471 -0.074053854 0.88800001
0.37118766 -0.074329786 0.88800001
0.33841652 -0.069757417 0.88599998
0.34172013 -0.069757417 0.88599998
0.34584969 -0.069757417 0.88599998
0.32444158 -0.12525062 0.89300001
0.32610643 -0.12525062 0.89300001
0.32377562 -0.12158783 0.89300001
0.32574123 -0.12261674 0.89199996
0.32271233 -0.11661975 0.89225
0.32570827 -0.1176609 0.89099997
0.32253161 -0.11198323 0.89174998
0.32537606 -0.11334183 0.89099997
0.32324645 -0.10681561 0.89199996
0.3261866 -0.10641202 0.89139998
0.32360914 -0.10360678 0.89300001
0.32735509 -0.1023581 0.89300001
0.32869834 -0.096730016 0.89099997
0.32943618 -0.091952406 0.89299995
0.33035949 -0.090085275 0.89099997
0.32943618 -0.086957663 0.89299995
0.33035949 -0.086762905 0.89099997
0.33156082 -0.081871144 0.89199996
0.33168504 -0.076910116 0.89233333
0.37646377 -0.075218961 0.89199996
0.33251622 -0.073583394 0.89233333
0.36524341 -0.073473446 0.89099997
0.3735491 -0.073473446 0.89099997
0.37646377 -0.073555909 0.89199996
0.32458398 -0.12427769 0.898
0.32183102 -0.11885658 0.89499998
0.32349959 -0.10217018 0.89499998
0.32627499 -0.10142007 0.89574999
0.32891271 -0.097825691 0.89725
0.32850537 -0.09215834 0.89499998
0.32850537 -0.087152421 0.89499998
0.32960653 -0.082421847 0.898
0.33017397 -0.082146496 0.89499998
0.32960653 -0.078236267 0.898
0.33017397 -0.07714057 0.89499998
0.32602978 -0.10128759 0.90200001
0.32704613 -0.097578749 0.90075004
0.32434812 -0.092879139 0.90200001
0.32730651 -0.092764311 0.90088898
0.32434812 -0.089515753 0.90200001
0.32808757 -0.088045947 0.90171427
0.32866269 -0.082605414 0.89999992
0.32866269 -0.079249486 0.89999998
0.32445511 -0.097621515 0.90700001
0.32542688 -0.09824989 0.90499997
0.32377097 -0.092513531 0.90666658
0.32445511 -0.088320941 0.90700001
0.3261863 -0.086846225 0.90633327
0.32847992 -0.08425162 0.90566665
0.32369328 -0.087957658 0.912
0.49325526 -0.099443473 0.93199998
0.49759921 -0.09944348 0.93199998
0.47793171 -0.12108138 0.96600002
0.48153365 -0.12108138 0.96600002
0.46741256 -0.12870362 0.97600001
0.47378123 -0.12779379 0.97600001
0.45704094 -0.13927644 0.99299997
0.4439714 -0.14198056 0.99900001
0.44676512 -0.14198056 0.99900001
0.44250247 -0.14240691 1.002
