# .PCD v0.7 - Point Cloud Data file format
VERSION 0.7
FIELDS x y z
SIZE 4 4 4
TYPE F F F
COUNT 1 1 1
WIDTH 835
HEIGHT 1
VIEWPOINT 0 0 0 1 0 0 0
POINTS 835
DATA ascii
0.024375292 0.05463418 0.43399999
0.027921274 0.054052621 0.43382353
0.032622602 0.053950109 0.43338889
0.037106492 0.054132368 0.43384615
0.023987519 0.057271298 0.43373686
0.027720923 0.057451237 0.43126318
0.032295357 0.057430815 0.43010011
0.036782965 0.057261743 0.43257686
0.024982138 0.060905099 0.43399999
0.027817288 0.062182013 0.43199998
0.032554295 0.062361203 0.43112487
0.036052093 0.061686981 0.43354547
0.028967913 0.06594041 0.4331111
0.031930663 0.066206038 0.43270591
0.024451498 0.049738921 0.43900001
0.027316079 0.049738917 0.43900004
0.032226786 0.049738921 0.43900001
0.03713749 0.049738917 0.43900004
0.04163897 0.049738921 0.43900004
0.018752489 0.052673988 0.43858832
0.022304464 0.052417737 0.43683785
0.027309485 0.051607583 0.43596551
0.03271126 0.051390328 0.43608007
0.037825234 0.051939074 0.43614295
0.04196969 0.052492924 0.43785718
0.018949825 0.056151725 0.43885717
0.021499218 0.057525493 0.43685707
0.039217196 0.058252111 0.43533331
0.041827224 0.057231534 0.43728569
0.023144735 0.062138278 0.43754998
0.02566063 0.063757174 0.43571424
0.03819498 0.062836953 0.43618181
0.040860936 0.062337518 0.43863639
0.024246886 0.065903753 0.43900001
0.02724693 0.067802563 0.4368276
0.033353634 0.068475239 0.43542105
0.037409354 0.067330413 0.43735999
0.040274885 0.065562725 0.43900001
0.028210966 0.071845442 0.43790913
0.032529686 0.072596744 0.43694276
0.036623795 0.071946926 0.43883342
0.029362204 0.075520813 0.43900001
0.031817559 0.076118939 0.4390001
0.035091363 0.075111583 0.43900001
0.012984467 0.048426174 0.44315791
0.017712632 0.048143111 0.44205889
0.022370432 0.048183028 0.44170964
0.02763474 0.047865018 0.44207686
0.032632813 0.047675308 0.44171873
0.037273485 0.047721285 0.442
0.042411696 0.047672082 0.44136667
0.047088005 0.048194595 0.44180647
0.050790649 0.048222002 0.44387501
0.012909269 0.051998839 0.44234383
0.016392242 0.052622002 0.44005263
0.044194762 0.0527234 0.44
0.047142759 0.052595247 0.44114703
0.050629038 0.051233102 0.44366667
0.014011887 0.056199897 0.44300002
0.01732547 0.058018636 0.44133332
0.02040562 0.059696268 0.44
0.044102453 0.058205195 0.44112498
0.046910711 0.05713341 0.44238466
0.050390948 0.056099989 0.44400001
0.018479707 0.062066536 0.44194439
0.021070298 0.063040026 0.44042856
0.043320794 0.062745892 0.44222224
0.045749571 0.06232854 0.44371429
0.019545281 0.065789856 0.44374999
0.022463748 0.067613989 0.44170368
0.025327513 0.069540314 0.44
0.039451387 0.069856405 0.442
0.041469395 0.067597128 0.44400001
0.023709418 0.071976252 0.44331253
0.026156861 0.073027372 0.44123077
0.038704913 0.072466992 0.44285718
0.040457673 0.071000285 0.44400001
0.024316102 0.075139269 0.44400001
0.027755288 0.077343181 0.44203848
0.032455772 0.078590728 0.44063163
0.036361866 0.077336326 0.44325
0.029028235 0.081878327 0.44300002
0.032232385 0.082024686 0.44177777
0.035864953 0.081255645 0.44350001
0.031766057 0.085072801 0.44400001
0.0089242384 0.044533808 0.447
0.013015819 0.043860298 0.44715786
0.017841285 0.044042155 0.4476667
0.022890538 0.044260785 0.44792303
0.027569817 0.044031013 0.44755554
0.032646812 0.04419972 0.44813329
0.037510585 0.044111975 0.44836837
0.042280808 0.044140074 0.44753328
0.047565714 0.044373564 0.44718179
0.052116763 0.044159859 0.44764286
0.055924475 0.043901458 0.44854543
0.0085538104 0.047735687 0.44659996
0.012446122 0.046300799 0.44529417
0.017318953 0.04564818 0.44499996
0.022917688 0.045703486 0.44536364
0.02735756 0.045772627 0.44499999
0.031561058 0.045717318 0.44499996
0.03807104 0.045660943 0.44512495
0.042326592 0.045559287 0.44499996
0.047751047 0.045703486 0.44536364
0.052916426 0.047422785 0.44608331
0.056569442 0.0470987 0.44822723
0.00817532 0.051815961 0.44827271
0.010901268 0.054005623 0.44550002
0.052728113 0.052987318 0.44683325
0.055140387 0.052548449 0.44799998
0.0099407779 0.055476066 0.449
0.012453313 0.057893354 0.44628569
0.049225349 0.058695 0.44562498
0.050756201 0.057465423 0.44599998
0.013696531 0.062153112 0.44735008
0.016378336 0.063012801 0.44521433
0.047792841 0.06223692 0.44677776
0.05000969 0.061616905 0.44800001
0.014621844 0.066245496 0.4488
0.017645838 0.067685001 0.44633332
0.020637501 0.069500886 0.44499999
0.043530744 0.06775263 0.44519049
0.045941226 0.066987485 0.44544446
0.018898515 0.072173357 0.44806248
0.021588184 0.072875082 0.44561115
0.03947236 0.074258067 0.44533333
0.042496517 0.07261432 0.4469167
0.045098748 0.071799845 0.449
0.019507574 0.075985432 0.44899994
0.022937398 0.077567123 0.44696549
0.02578125 0.078461207 0.44499999
0.038868792 0.077546656 0.44593754
0.042023122 0.076472983 0.4484615
0.024133114 0.082298741 0.44830766
0.026859045 0.082729653 0.44591302
0.034594283 0.084473193 0.44666669
0.037446178 0.082181454 0.44757143
0.040076181 0.080171011 0.449
0.028044952 0.086840205 0.44741666
0.032746661 0.087687679 0.44606668
0.036367908 0.086675256 0.44799998
0.029289505 0.090639912 0.44833335
0.032471258 0.09191262 0.44854549
0.035242904 0.091421857 0.44874999
0.016977642 0.039214827 0.45360002
0.043484922 0.039588284 0.454
0.047717005 0.039588284 0.454
0.0527955 0.039588284 0.454
0.057662394 0.039588284 0.454
0.06422212 0.039588284 0.454
0.065068536 0.039588284 0.454
0.017151048 0.041473802 0.45150006
0.022247624 0.041703586 0.45148158
0.027315808 0.041567262 0.45254171
0.032286678 0.041697837 0.45219231
0.037374172 0.041494969 0.45175004
0.042594768 0.041693691 0.45215395
0.047450744 0.041889906 0.45146674
0.052545022 0.041700915 0.45144439
0.057975478 0.041935235 0.45196429
0.062414669 0.042382505 0.45382145
0.065310374 0.042006679 0.454
0.059725765 0.046157431 0.45199999
0.060769454 0.04588645 0.4535
0.0049401191 0.054041483 0.45100001
0.0067792796 0.053622287 0.45029998
0.004963852 0.057683285 0.45316669
0.0077660941 0.0575656 0.45147058
0.010813879 0.059021518 0.45050001
0.053483211 0.058262844 0.454
0.0049729794 0.060749255 0.454
0.0079268403 0.062005945 0.45355558
0.011020866 0.062936947 0.4517895
0.04944887 0.064061001 0.45050001
0.051992204 0.062924646 0.45300001
0.009205061 0.065827884 0.454
0.012478908 0.06746009 0.45233333
0.015029998 0.069597133 0.45100001
0.048577912 0.067410804 0.4515883
0.051081043 0.066744342 0.45255554
0.013744248 0.07108742 0.45299998
0.016413752 0.072666168 0.45136848
0.046832267 0.072716676 0.45168424
0.018010633 0.077440947 0.45200002
0.020670773 0.079345003 0.45024997
0.043370258 0.078205556 0.45133331
0.045873269 0.076895624 0.45249999
0.019079918 0.081769146 0.454
0.0215178 0.082556404 0.4516364
0.038615227 0.083269402 0.45066667
0.042377479 0.082472697 0.45259374
0.045812566 0.081063785 0.454
0.023073997 0.087043539 0.45305559
0.026244372 0.088672727 0.4510833
0.03863715 0.087492533 0.4525834
0.04147701 0.08644297 0.45311111
0.024440555 0.090797827 0.454
0.027149497 0.092569299 0.45199999
0.032055501 0.094332576 0.45000002
0.036379505 0.092696674 0.45158336
0.028478665 0.096819028 0.45273337
0.032295991 0.09743306 0.45139992
0.035913724 0.09666986 0.45324999
0.029519053 0.10053188 0.454
0.03266535 0.10118925 0.45362502
0.019090608 0.039047666 0.45559996
0.022593787 0.037808839 0.4569118
0.02737111 0.037986252 0.45645162
0.032625224 0.038485099 0.456
0.037845604 0.038066182 0.45676661
0.042464856 0.038018454 0.45669225
0.047396481 0.037721414 0.45704162
0.052397985 0.037524074 0.456375
0.057161886 0.037506036 0.45628566
0.062254913 0.037970647 0.45562068
0.065636829 0.038134504 0.45542854
0.063939437 0.044765301 0.45500001
0.066060141 0.040523786 0.45500001
0.058986317 0.049220309 0.45539999
0.062528543 0.047844779 0.45574996
0.065412506 0.047459137 0.45640001
0.058327913 0.052707866 0.45644438
0.061860841 0.052176159 0.45750004
0.057623453 0.057328008 0.45627585
0.061255656 0.056466699 0.45840001
0.0049912357 0.062671982 0.45566666
0.0065927412 0.063883476 0.45555556
0.05418421 0.062579677 0.45500001
0.056538638 0.062105689 0.45718181
0.0073580197 0.067622818 0.45724136
0.010291222 0.06876798 0.45525002
0.053205092 0.067663305 0.45699993
0.055395342 0.065553971 0.458
0.0084378049 0.071156047 0.45833334
0.012002023 0.072699085 0.45646149
0.015163301 0.074455917 0.45500001
0.049436212 0.072839051 0.45816669
0.051235624 0.072303832 0.45850006
0.013025614 0.077387251 0.45800003
0.015871339 0.078057684 0.45621422
0.048087724 0.077691026 0.45692852
0.05069904 0.07622768 0.458
0.013403867 0.081498556 0.45866674
0.016953064 0.082699805 0.45668
0.047881998 0.080582544 0.458
0.018001286 0.086415157 0.45712498
0.021252889 0.088118486 0.4554615
0.039382994 0.089823976 0.45550001
0.042927884 0.088500269 0.45663634
0.019553971 0.091698736 0.4585
0.022374891 0.092474565 0.45658618
0.025342669 0.094391048 0.45500001
0.039001308 0.092474431 0.45599991
0.042029075 0.091998979 0.45766664
0.023429787 0.09749452 0.45790482
0.026502574 0.098013237 0.45581245
0.03777393 0.097640961 0.45656246
0.040402494 0.096207939 0.45839995
0.024241943 0.10104603 0.45824999
0.027733099 0.10236593 0.4571481
0.032363124 0.10370381 0.45571423
0.036416858 0.10194892 0.45770007
0.028933216 0.10608629 0.45814285
0.032551166 0.10694946 0.45745829
0.03583432 0.10548998 0.45899999
0.023916723 0.03412237 0.46019998
0.027798541 0.033129267 0.46079326
0.032196585 0.033522755 0.4629285
0.037434269 0.033892754 0.46291664
0.042390574 0.034223922 0.46263635
0.047799736 0.034330543 0.46300003
0.05237329 0.033899125 0.46354544
0.055508491 0.033861861 0.46250004
0.029062407 0.035836015 0.46016669
0.032520138 0.035864137 0.46053332
0.036687005 0.035594948 0.46074998
0.042209335 0.0355107 0.46040002
0.04755947 0.035445213 0.46066666
0.052513119 0.035403922 0.46063635
0.056187928 0.035041735 0.461
0.066931263 0.049223315 0.461
0.064013347 0.053399865 0.46087497
0.066160426 0.052303117 0.46161541
0.059925258 0.059836853 0.46000001
0.062735885 0.057742476 0.46110001
0.065830134 0.055375773 0.46333334
0.058577601 0.06363491 0.46000001
0.060955226 0.06212521 0.46130767
0.054898728 0.068991572 0.461
0.057498965 0.067624249 0.46214285
0.004217457 0.074198499 0.46399999
0.0070522786 0.073348239 0.46186361
0.010184317 0.074416488 0.46000001
0.053797785 0.072592683 0.46040002
0.055880081 0.072155043 0.46199998
0.0032776287 0.077358417 0.46349999
0.0071235946 0.076710902 0.46299997
0.010626402 0.077520087 0.46059999
0.049634028 0.079133421 0.46000001
0.052515052 0.077588737 0.46161905
0.055176597 0.076684035 0.46333334
0.013642925 0.08446192 0.461
0.048055459 0.083499663 0.46090007
0.05165289 0.0820655 0.46271423
0.013493983 0.087310024 0.46282351
0.016766366 0.088411964 0.46078569
0.044488415 0.086852051 0.46000001
0.047230173 0.087500229 0.4613215
0.050443277 0.086217582 0.46349999
0.014299334 0.090858318 0.46366668
0.01745178 0.092209883 0.46123081
0.020904347 0.094999492 0.46000001
0.044039808 0.093494199 0.46042857
0.046530154 0.091822512 0.46245453
0.019105747 0.096610896 0.46242857
0.021120939 0.097786345 0.46100003
0.039342802 0.098858804 0.46000001
0.042256758 0.097481996 0.46119997
0.023472559 0.10283088 0.46227273
0.025925593 0.10422317 0.46033335
0.038509637 0.10278219 0.46028572
0.040884282 0.10189927 0.46233335
0.024446387 0.10653687 0.46328571
0.02744106 0.10798998 0.46117392
0.032220893 0.10965853 0.46033335
0.036635056 0.10772373 0.461
0.028286869 0.11226811 0.46294993
0.032320928 0.1126464 0.46164295
0.035978202 0.11204179 0.46253842
0.029283138 0.11650443 0.46366668
0.032123767 0.11671958 0.46327275
0.03535961 0.11615501 0.46399999
0.048264313 0.02943456 0.46749997
0.050933488 0.02946604 0.46799999
0.034040194 0.03221206 0.46566665
0.037609048 0.0320407 0.46664709
0.042898476 0.032064915 0.46649998
0.047324859 0.031891536 0.46610337
0.052023094 0.031617545 0.46564999
0.055375073 0.032744944 0.465
0.064168163 0.059001062 0.46499997
0.066307358 0.058121603 0.46533334
0.06364014 0.063116312 0.46733335
0.065469623 0.06406799 0.46900001
0.059709694 0.068723254 0.465
0.06227494 0.067177311 0.46710527
0.058530763 0.07260599 0.46514294
0.06062004 0.072244026 0.46533331
0.003648597 0.078404166 0.465
0.0072670267 0.079281762 0.46540004
0.05450815 0.079560094 0.465
0.057450235 0.077294074 0.46570837
0.0042356355 0.080600001 0.46599999
0.0076235887 0.08234001 0.46655554
0.010989221 0.083130315 0.46557149
0.053882778 0.082888484 0.46583334
0.055777892 0.082256958 0.46716666
0.0087754298 0.085859716 0.46719998
0.01112846 0.087750323 0.4666667
0.049306605 0.089963466 0.465
0.052745525 0.08761815 0.46670368
0.013751063 0.092655666 0.46788895
0.015596538 0.094470307 0.46799999
0.048479114 0.093150876 0.46619996
0.051027171 0.091498546 0.46714285
0.014318293 0.095546573 0.46900001
0.017102586 0.097934924 0.46649995
0.043884467 0.098569952 0.46528572
0.046744868 0.09753602 0.46673688
0.01824861 0.10223783 0.46699998
0.021526162 0.10320343 0.46550006
0.04316742 0.10301027 0.46588239
0.046114448 0.102152 0.46778569
0.019511739 0.10575704 0.46775001
0.022284396 0.10782304 0.46690902
0.025032727 0.10990325 0.465
0.039469838 0.10772623 0.46600002
0.042467039 0.1076982 0.46769565
0.045796029 0.10560223 0.46900001
0.023516484 0.11182886 0.46791664
0.025737062 0.11296418 0.46600005
0.038430613 0.11287847 0.46653846
0.040717196 0.11211357 0.46863639
0.024373682 0.11609509 0.46900001
0.027229825 0.11731329 0.46616665
0.032835044 0.11922293 0.46499997
0.037459295 0.11739956 0.46799999
0.040112551 0.11565788 0.46900001
0.028661473 0.12217428 0.46764284
0.032478578 0.12255268 0.4671725
0.036032099 0.12075857 0.46900001
0.029619971 0.12571354 0.46900001
0.032243114 0.12604144 0.46900004
0.039269164 0.02905789 0.472
0.042518448 0.028803222 0.47144446
0.047522578 0.028157214 0.47166672
0.03896644 0.030533057 0.47099999
0.041266676 0.030656451 0.4702
0.066485457 0.064642735 0.47
0.06400276 0.068439901 0.47
0.066030093 0.067108832 0.4702222
0.063364349 0.072484434 0.47170594
0.065587074 0.072553419 0.47300005
0.059981663 0.078448787 0.47400001
0.062254041 0.077565067 0.47400001
0.065283887 0.07579761 0.47400001
0.058525667 0.082618654 0.47229412
0.0076247118 0.088302337 0.47087502
0.057163857 0.086210802 0.47157145
0.0043083508 0.091262832 0.47400001
0.0078583714 0.092035718 0.47273913
0.011494523 0.092934713 0.47077778
0.049836781 0.094435886 0.47
0.05316167 0.092943579 0.47131255
0.055514753 0.092412949 0.47233334
0.0091027012 0.096094623 0.47385716
0.012559189 0.097726189 0.4715862
0.049287964 0.09757074 0.47033334
0.052228335 0.097415797 0.47312501
0.013422951 0.10221543 0.47295007
0.016117977 0.10345504 0.47049999
0.047974758 0.10265091 0.47
0.050967891 0.10089545 0.47400004
0.014912792 0.10672805 0.47400001
0.017284401 0.10762089 0.4721905
0.02004442 0.10889433 0.47
0.044579305 0.10889433 0.47
0.046875987 0.10778716 0.47193336
0.018425785 0.11176733 0.47346157
0.021334009 0.11282447 0.47055551
0.043306891 0.1128471 0.47044441
0.045990799 0.11163314 0.47325
0.019331308 0.11644905 0.47400001
0.022101305 0.11744951 0.47170371
0.025740018 0.11940956 0.47
0.038664646 0.11962863 0.47
0.041684832 0.11738193 0.47131252
0.023793958 0.12217696 0.47353846
0.026414376 0.12281886 0.47131249
0.037742481 0.12279524 0.47105002
0.041040894 0.1218126 0.47236365
0.024633529 0.12528631 0.47400001
0.027667588 0.12751085 0.47241667
0.032765053 0.12794127 0.4702222
0.036503717 0.12733439 0.47276926
0.029109586 0.13161308 0.47363636
0.032489479 0.13220435 0.47259095
0.035163626 0.13163736 0.47299999
0.032586858 0.13500731 0.47400001
0.063416727 0.07806889 0.47514281
0.066678405 0.077459656 0.47606248
0.059222635 0.084813431 0.47499999
0.062778682 0.082585178 0.47633329
0.066398941 0.081210911 0.47724998
0.058380902 0.088380955 0.47599995
0.061470412 0.087271146 0.47771427
0.0043174401 0.092783757 0.47499999
0.0058405166 0.093880899 0.47542858
0.058058083 0.091852859 0.47830772
0.060614381 0.091332465 0.479
0.0069962298 0.097740345 0.47659093
0.054440569 0.098628655 0.47499999
0.055680364 0.095883325 0.47499999
0.0081097158 0.10178412 0.47822225
0.011245539 0.10334186 0.47589999
0.049585566 0.10407321 0.47600001
0.052307285 0.1029115 0.47605878
0.055256233 0.101156 0.479
0.0097119482 0.10606777 0.479
0.012600376 0.10759851 0.47665387
0.049539823 0.10762737 0.47799996
0.051544428 0.10700174 0.47845456
0.013657259 0.11185711 0.47753331
0.016562341 0.11320959 0.47573328
0.047751296 0.11293233 0.47781822
0.017454227 0.11735068 0.47680956
0.020257659 0.11935148 0.47499999
0.043919291 0.11844299 0.47550002
0.046281375 0.11766797 0.47737503
0.019535225 0.1212496 0.479
0.021678125 0.12298664 0.47708336
0.043721389 0.12217434 0.47737497
0.046449654 0.12178993 0.47815388
0.023474965 0.12753075 0.47743753
0.02558901 0.128298 0.47533333
0.039112177 0.12805055 0.47633335
0.040882297 0.12768036 0.47799999
0.024578376 0.13172583 0.47866666
0.027059354 0.13299446 0.47647056
0.037353005 0.13248225 0.47663146
0.040521313 0.13062662 0.479
0.028207818 0.13660246 0.47815385
0.032368362 0.1378606 0.47680762
0.036101844 0.13721047 0.47690907
0.032899633 0.14106363 0.47855556
0.035535332 0.14060251 0.47799999
0.066110261 0.084363833 0.47999999
0.063567527 0.088149399 0.48045453
0.065455094 0.087320805 0.48066667
0.059249435 0.09405873 0.47999999
0.062816612 0.092634417 0.48154542
0.065758832 0.092285834 0.484
0.058114536 0.097436741 0.48047361
0.061756115 0.097402073 0.48326668
0.0043628863 0.10226209 0.47999999
0.0067760055 0.10374029 0.4803077
0.054476693 0.10449938 0.47999999
0.057424322 0.10251749 0.48127991
0.060261633 0.10162118 0.48333335
0.0074396054 0.10763273 0.48185182
0.05350234 0.10811202 0.48042855
0.056356549 0.10698011 0.48229998
0.0084785447 0.11201654 0.48358822
0.011562767 0.11296427 0.48175001
0.049141463 0.11352792 0.48033333
0.052050307 0.11249557 0.48166668
0.01281148 0.11691707 0.4823125
0.015472101 0.11855904 0.4804
0.04883467 0.11752626 0.48122221
0.050792303 0.11710653 0.48277774
0.014265865 0.12021171 0.48199999
0.017428858 0.12278131 0.48149994
0.020470897 0.12418748 0.47999999
0.044632912 0.12418748 0.47999999
0.04642269 0.12329256 0.47999999
0.018365663 0.12740068 0.48289475
0.021089127 0.12745339 0.48049998
0.043237712 0.12725231 0.48105553
0.045710947 0.12781334 0.48312497
0.019023722 0.13154906 0.48366663
0.022318494 0.13256213 0.48130426
0.038965281 0.13462812 0.47999999
0.041966863 0.13261096 0.48188889
0.023027901 0.13674344 0.48288232
0.02647293 0.13855943 0.48107138
0.038672809 0.13812391 0.48099998
0.041422855 0.13680343 0.4822
0.024250876 0.14056268 0.484
0.027700104 0.14227946 0.48191664
0.032406267 0.14344478 0.48005554
0.03727052 0.14275758 0.48314291
0.02893248 0.1472771 0.48308334
0.03250448 0.14711045 0.48134619
0.035956915 0.14722869 0.48366666
0.029664956 0.15093994 0.484
0.03233856 0.15078448 0.48350006
0.064990491 0.094737098 0.48500001
0.06646096 0.092786886 0.48583332
0.064123094 0.098080039 0.48700002
0.066278502 0.097285464 0.4873077
0.062264062 0.10190857 0.4874545
0.065526485 0.1000769 0.48899999
0.058858112 0.108242 0.48661539
0.061314534 0.10749881 0.48845452
0.0065844767 0.1132998 0.48550004
0.057267249 0.1122017 0.48640907
0.061361641 0.11044785 0.4885
0.0080966176 0.11759406 0.48712492
0.011204989 0.11841068 0.48566666
0.05336659 0.11800571 0.48673335
0.055441387 0.11682411 0.4885
0.0076323063 0.12100457 0.48883331
0.012520707 0.12247801 0.48727271
0.015269355 0.12375823 0.48533335
0.049318533 0.1231156 0.48585716
0.052000329 0.12225857 0.4875333
0.013912418 0.12724385 0.48799995
0.015799867 0.12811394 0.48622221
0.048403144 0.12755494 0.48716664
0.051138889 0.12565072 0.48800001
0.014017211 0.1306186 0.48899999
0.017214946 0.13262516 0.48623535
0.044216409 0.13323644 0.48525
0.046560045 0.13250071 0.4866111
0.019139012 0.1373788 0.48754546
0.021523999 0.1386878 0.48612499
0.043989833 0.13800341 0.48650002
0.046076924 0.13615522 0.48714283
0.019943057 0.14110307 0.48899999
0.022702258 0.14245553 0.48738888
0.025457229 0.14394033 0.48550004
0.03955717 0.14362101 0.48580003
0.041924696 0.14245285 0.48841664
0.0239197 0.14691043 0.4883
0.026387565 0.14771831 0.48623535
0.038440287 0.14765607 0.48655558
0.040869605 0.14596845 0.4885
0.027940106 0.15265784 0.48686364
0.032479633 0.1537028 0.48560005
0.036793597 0.15252571 0.48811108
0.029092984 0.15733272 0.48818177
0.032593012 0.15771945 0.4873043
0.036254946 0.15710972 0.48861536
0.032706417 0.16079564 0.48899999
0.064042374 0.1029733 0.49020004
0.067485385 0.10362777 0.49253848
0.063672237 0.107294 0.49188888
0.067075871 0.10658281 0.49329409
0.0053673135 0.11946626 0.49000001
0.057315446 0.11802659 0.49137503
0.0044537801 0.12403404 0.49000001
0.0076281438 0.12358502 0.49035287
0.010848511 0.12494759 0.49000001
0.054026898 0.1236089 0.490125
0.057055108 0.1223323 0.4922353
0.0082741473 0.1271975 0.49318749
0.011782804 0.12777536 0.49091664
0.049216896 0.12905861 0.49000001
0.052816235 0.12770054 0.49074998
0.055952419 0.12724449 0.493
0.012636299 0.13246787 0.49215001
0.01564456 0.13431157 0.49000001
0.049337428 0.13258331 0.49120003
0.052127361 0.13225386 0.49277276
0.013841096 0.13710219 0.49309093
0.016719064 0.13800532 0.4907333
0.047998644 0.1379524 0.49357143
0.051000152 0.13563824 0.49399999
0.017773664 0.14229928 0.4921363
0.020897375 0.14367552 0.49000001
0.043775991 0.14334927 0.49044445
0.046709549 0.14216734 0.49314284
0.01867773 0.14606103 0.49342856
0.021403098 0.14768381 0.4917368
0.04289721 0.14762522 0.49199998
0.046241701 0.14561589 0.49399999
0.022803318 0.15233956 0.49263638
0.025534332 0.15277076 0.49133334
0.038863525 0.15326788 0.49000001
0.040880375 0.15221106 0.49190003
0.023995463 0.15568259 0.49359998
0.026676781 0.1577962 0.49237505
0.038625017 0.15708755 0.49211109
0.040408764 0.15636107 0.49399999
0.027829027 0.1623317 0.49288234
0.032192074 0.16315588 0.49063635
0.03647783 0.16237552 0.49161544
0.029111773 0.16617818 0.49374998
0.032497905 0.16745031 0.49274993
0.03612835 0.16665842 0.49340001
0.066884205 0.10905702 0.49499997
0.063567914 0.11297718 0.49600002
0.066907674 0.11262826 0.49700007
0.0596398 0.11699378 0.49499995
0.062676333 0.11737172 0.49643993
0.066106811 0.11737324 0.49828571
0.059562895 0.12191581 0.495
0.0610382 0.12210166 0.49699998
0.0071393512 0.12906541 0.49528572
0.058355153 0.1272615 0.49709091
0.060354318 0.12538189 0.49900001
0.0073446622 0.1326119 0.49715003
0.010522059 0.13345812 0.49616668
0.054333385 0.1336056 0.495
0.055516709 0.13238281 0.49733338
0.0079608308 0.13652124 0.49838465
0.011299603 0.13783923 0.49737504
0.049390145 0.13851702 0.49540001
0.052821271 0.13766728 0.49721056
0.013333318 0.14234482 0.49668422
0.015881104 0.14437252 0.495
0.048976298 0.14244026 0.49577776
0.051138204 0.14263505 0.49833333
0.014164594 0.14649431 0.49739999
0.017039623 0.1478457 0.49574998
0.047213897 0.14790179 0.49593747
0.050020441 0.14602125 0.498
0.017789379 0.1520274 0.49726319
0.020380486 0.15304826 0.49520001
0.04336812 0.15322448 0.49623075
0.046407733 0.15228878 0.49825001
0.018955423 0.15561783 0.49900001
0.022660175 0.15785371 0.49644449
0.039647643 0.15976834 0.49599999
0.042598948 0.15779522 0.49699998
0.045779426 0.15623806 0.49900004
0.023507802 0.16222541 0.49752942
0.026032506 0.16329157 0.49499997
0.03901707 0.16269948 0.49620003
0.041411612 0.16195664 0.49774998
0.0244142 0.16574457 0.49839997
0.027504724 0.16761981 0.49606663
0.038366057 0.16769852 0.49666664
0.04077686 0.16661568 0.49849999
0.02910831 0.1723547 0.49762499
0.032375179 0.17215504 0.49590477
0.036905482 0.17214353 0.49718753
0.032540165 0.17568476 0.49842858
0.035165273 0.17526813 0.498
0.063247465 0.1230169 0.50041664
0.065800406 0.12170831 0.50062495
0.059543088 0.12936196 0.5
0.06229274 0.12735814 0.50157893
0.06552697 0.12544915 0.50300002
0.058244273 0.13278179 0.50105262
0.061339431 0.13180502 0.50271428
0.0069439667 0.13898042 0.50144446
0.054991968 0.13989539 0.50099999
0.057397306 0.13736297 0.50262499
0.0076444861 0.1427628 0.50305557
0.010773323 0.14281125 0.50066668
0.053455092 0.14295822 0.50059998
0.055886507 0.14224702 0.50344449
0.0077521522 0.14612047 0.50338465
0.012041334 0.14780572 0.50177282
0.052013773 0.14754257 0.50207698
0.013829581 0.15211354 0.50149995
0.015971702 0.1539095 0.50024998
0.048896868 0.15309116 0.50170004
0.050887104 0.15233146 0.50312501
0.014574196 0.15577118 0.50299996
0.017750889 0.15764402 0.50135291
0.020391675 0.1587263 0.5
0.047819789 0.15748566 0.50106245
0.050522655 0.15545858 0.50300002
0.018911846 0.16214645 0.50279999
0.021036914 0.16264455 0.50058335
0.043698899 0.16298279 0.50084615
0.046304785 0.16226445 0.50200003
0.019615175 0.1661039 0.50400001
0.022333909 0.16754638 0.50181246
0.025397306 0.16936181 0.50066668
0.043028783 0.16720997 0.50228578
0.023486873 0.17197716 0.50308341
0.026556043 0.17269936 0.50199997
0.03996738 0.17037882 0.5
0.040997759 0.17221086 0.50262499
0.024313344 0.17597032 0.50400001
0.027771296 0.1763158 0.50181252
0.032402042 0.1775313 0.50012499
0.037755996 0.17636779 0.50312501
0.06597767 0.12882297 0.50766671
0.0640525 0.13239504 0.50866669
0.06638319 0.13175339 0.50890905
0.05931424 0.13940477 0.50599998
0.060138524 0.13630472 0.505
0.058449645 0.14231449 0.50600004
0.007827037 0.14884762 0.50557142
0.054233648 0.14913186 0.50699997
0.056575071 0.14678796 0.50787503
0.0087198205 0.15255217 0.50788891
0.011306569 0.15304303 0.50716662
0.053770188 0.15265569 0.50771421
0.0088967783 0.15541498 0.509
0.012379697 0.15727985 0.50695449
0.015888099 0.15937203 0.505
0.052905273 0.15695833 0.5084666
0.014310276 0.16134582 0.50749999
0.016461872 0.16307156 0.50643754
0.04827844 0.16395582 0.509
0.050650831 0.1601599 0.509
0.017634207 0.16758323 0.50731808
0.020595592 0.16925803 0.505
0.044133049 0.16925803 0.505
0.04614399 0.16765144 0.50639999
0.019224826 0.17179245 0.50860006
0.021489253 0.17264934 0.50590909
0.043148465 0.17226399 0.50587499
0.045894895 0.17198026 0.50887501
0.022971593 0.1755511 0.50549996
0.040367056 0.17584869 0.505
0.062635593 0.13480173 0.50999999
0.066438869 0.13432631 0.50999999
0.06336356 0.13750678 0.51161116
0.065702073 0.13715078 0.51166672
0.062442366 0.14222488 0.514
0.058420289 0.14844547 0.51114285
0.057112534 0.15120918 0.51162499
0.0089547308 0.15834534 0.51233333
0.053796615 0.15931101 0.5103333
0.055244833 0.15871744 0.51200002
0.0094633121 0.16077487 0.514
0.012240265 0.16284157 0.5126667
0.049388587 0.16354184 0.51066667
0.052447245 0.16278417 0.51211113
0.055244833 0.16110387 0.51200002
0.013257037 0.16715306 0.51253849
0.015339691 0.1686396 0.51024997
0.048733115 0.16779265 0.51266664
0.051048875 0.16572249 0.51300001
0.013748759 0.17050469 0.51300001
0.016751001 0.17162864 0.51085716
0.047608443 0.17064962 0.51200002
0.062289521 0.14476481 0.51499999
0.062663719 0.14754654 0.51649994
0.065448344 0.14731252 0.51719999
0.058409873 0.15379855 0.51585716
0.062379628 0.15181468 0.51784211
0.065549582 0.15043692 0.51800001
0.058167499 0.15753987 0.51674992
0.060791243 0.15738043 0.51859999
0.0082274936 0.1630854 0.51543742
0.010441864 0.16348808 0.51499999
0.052688103 0.16492833 0.51499999
0.057742309 0.16187069 0.51724994
0.060838126 0.16040358 0.51899999
0.0083147092 0.16722187 0.51592296
0.011216061 0.16819462 0.51529992
0.052968729 0.1669952 0.51518178
0.056000128 0.16620933 0.51899999
0.063986562 0.15422224 0.52100003
0.065632433 0.15466624 0.52250004
0.063257501 0.1577405 0.52299994
0.065959476 0.15787163 0.52316666
0.063021377 0.1623316 0.52353847
0.06553226 0.16180235 0.523
0.057077494 0.16556008 0.51999998
-0.36606488 0.083105981 0.65133333
-0.36288908 0.082310453 0.65144444
0.043330662 -0.046266884 0.84899998
0.043330662 -0.044684004 0.84899998
0.045704912 -0.044684004 0.84899998
0.041052889 -0.046375878 0.85100001
0.48821917 -0.10401026 0.93400002
0.49325526 -0.099443473 0.93199998
0.48629355 -0.10521781 0.93699998
0.48629355 -0.10347087 0.93699998
0.47982353 -0.1231368 0.96799999
0.4724997 -0.13001183 0.97899997
0.47287142 -0.12870362 0.97600001
0.47120139 -0.13041024 0.98199999
0.46814874 -0.13835078 0.99299997
0.35722095 -0.13969724 0.99599999
0.36000627 -0.13969724 0.99599999
0.44820881 -0.13969724 0.99599999
0.45285106 -0.13969724 0.99599999
0.4415426 -0.15591533 1.017
0.43964651 -0.15401924 1.017
0.40100899 -0.16017865 1.02
0.39886293 -0.15716247 1.021
0.40100899 -0.1573261 1.02
0.43714017 -0.15685068 1.02
0.44094342 -0.15637526 1.02
0.41342276 -0.16206309 1.0319999
