# .PCD v0.7 - Point Cloud Data file format
VERSION 0.7
FIELDS x y z
SIZE 4 4 4
TYPE F F F
COUNT 1 1 1
WIDTH 1190
HEIGHT 1
VIEWPOINT 0 0 0 1 0 0 0
POINTS 1190
DATA ascii
0.04325344 -0.033781797 0.57667363
0.017555267 -0.034259528 0.55531585
0.047765672 -0.030755691 0.58537704
0.046665683 -0.030390143 0.58500266
0.042501178 -0.032688931 0.57813823
0.015738629 -0.033033088 0.55599493
0.0089339018 -0.031429954 0.55292577
0.007915467 -0.031528533 0.55225086
0.041682087 -0.028039165 0.58558691
0.039057676 -0.027683012 0.58366877
0.034906801 -0.02815152 0.58035386
0.014793664 -0.028406523 0.56357205
0.0098875389 -0.028200679 0.55957651
0.0086311251 -0.029174328 0.55693364
0.0076433718 -0.030884281 0.55313838
0.040699732 -0.027041353 0.58646268
0.037913226 -0.027034469 0.58382571
0.034334544 -0.026949883 0.58165431
0.013740689 -0.027411945 0.56445956
0.010516405 -0.027323917 0.56128538
0.0078763962 -0.027568959 0.55922437
0.05440174 -0.041980416 0.56186044
0.051925592 -0.042438656 0.5599044
0.032233551 -0.042559601 0.54356796
0.03019385 -0.04232651 0.54183048
0.053122181 -0.041562617 0.56539911
0.04981865 -0.042226516 0.56197363
0.047232993 -0.040393025 0.5602529
0.033002183 -0.040387943 0.54809171
0.031069241 -0.04228501 0.5460524
0.027044896 -0.041998602 0.54340851
0.052602626 -0.036454178 0.57074243
0.051513921 -0.038840942 0.56926048
0.046407092 -0.038838767 0.56566763
0.045663048 -0.038153566 0.5625664
0.031621188 -0.038596131 0.54959917
0.028024152 -0.039318427 0.54969388
0.02336283 -0.039350383 0.54570061
0.021545544 -0.03648749 0.54507107
0.051336803 -0.035338715 0.57306606
0.047784135 -0.036710523 0.57232434
0.044251293 -0.03521803 0.56759381
0.026060686 -0.035699405 0.55213594
0.021055274 -0.037358545 0.54944938
0.019318134 -0.035602868 0.54692197
0.048961185 -0.032525122 0.57774615
0.045253143 -0.034626275 0.57579076
0.040798891 -0.032420628 0.57060599
0.023452107 -0.032719232 0.55607718
0.018068269 -0.035185382 0.55291629
0.015757337 -0.033080101 0.54965776
0.049191922 -0.029200181 0.58402383
0.046689697 -0.029390052 0.58200461
0.041914213 -0.030653328 0.57949394
0.038338259 -0.03015741 0.57361662
0.020922109 -0.030515142 0.55909276
0.014275223 -0.031853475 0.55604708
0.01162903 -0.030108251 0.55221927
0.0089742467 -0.02993153 0.55068451
0.047670797 -0.028693914 0.58548188
0.04450611 -0.026663788 0.58413947
0.04039821 -0.026707627 0.58057892
0.036098383 -0.026413582 0.57736242
0.017592788 -0.02668754 0.56201601
0.013842776 -0.027244337 0.55860043
0.0098463446 -0.027554423 0.55481768
0.0078702867 -0.029294848 0.55235565
0.041511264 -0.024949618 0.58638388
0.037908796 -0.025125265 0.58293778
0.03453422 -0.024495043 0.58090842
0.014341518 -0.024774343 0.56406957
0.011695474 -0.025459655 0.56109619
0.0078789592 -0.02544114 0.55854404
0.055704225 -0.039697647 0.56049055
0.053345993 -0.03995695 0.55822903
0.033517797 -0.040130399 0.54195368
0.031136043 -0.04055015 0.54051548
0.055682089 -0.037949964 0.56315982
0.05125273 -0.038787946 0.55702645
0.048510775 -0.038143754 0.55814379
0.03442163 -0.038336262 0.54661763
0.035070181 -0.038840763 0.54359132
0.029047988 -0.03841614 0.54050779
0.052969038 -0.035061412 0.57014233
0.054133214 -0.034925237 0.56730431
0.04637292 -0.033379421 0.56259942
0.046606164 -0.035312667 0.56095356
0.032548457 -0.035784647 0.5485419
0.030786682 -0.034353778 0.54946148
0.024865739 -0.035303533 0.54286093
0.021946784 -0.035657704 0.54473239
0.052277848 -0.031749107 0.5716176
0.051761627 -0.031014659 0.57002473
0.044856224 -0.032055929 0.56567711
0.027783766 -0.032360569 0.55134094
0.022209015 -0.032215238 0.54526782
0.020605348 -0.032357104 0.5457229
0.050348662 -0.029405549 0.57558501
0.047952887 -0.028020412 0.57205689
0.043633234 -0.029248215 0.56924915
0.024667196 -0.029753268 0.5530436
0.021059595 -0.028474607 0.54954314
0.017563812 -0.030118376 0.5478093
0.048150904 -0.027314246 0.57895344
0.04484643 -0.026220977 0.57600808
0.041037157 -0.026414119 0.57312375
0.021089382 -0.026852414 0.55627817
0.0176659 -0.026755571 0.5532372
0.014428124 -0.028116412 0.55057365
0.044762097 -0.024750821 0.58118004
0.043714691 -0.024891548 0.57889903
0.038857035 -0.02465231 0.57597095
0.018497542 -0.025018543 0.55907232
0.015048057 -0.025327235 0.5554477
0.012811743 -0.025309943 0.55437249
0.056015022 -0.037258416 0.55892491
0.054732248 -0.037436292 0.55768621
0.056886133 -0.033729412 0.56144357
0.053516865 -0.034130149 0.55681723
0.049978107 -0.033992924 0.55734485
0.034891628 -0.03439679 0.5452733
0.03484489 -0.034551516 0.54173082
0.030464478 -0.034076802 0.53919065
0.054874487 -0.030697234 0.56447142
0.04955972 -0.029456533 0.56101567
0.048622906 -0.03135398 0.55830318
0.034294739 -0.03162989 0.54654837
0.031817198 -0.029526263 0.54591531
0.027359046 -0.031394273 0.54125816
0.051408917 -0.029327042 0.56695908
0.048935089 -0.02932211 0.56366193
0.028867677 -0.029559769 0.54724383
0.025459547 -0.029799446 0.54523724
0.056919556 -0.029579446 0.5588001
0.055177037 -0.029858209 0.5558936
0.035493977 -0.030068144 0.53969449
0.032262899 -0.030522257 0.53878164
0.055665988 -0.027504049 0.56075251
0.05197908 -0.027056888 0.5583899
0.050322548 -0.028988287 0.55715936
0.035240192 -0.029405206 0.54462808
0.033727974 -0.027499698 0.54333448
0.030710716 -0.028007478 0.53998607
0.053415231 -0.023964971 0.56031853
0.031865697 -0.0246571 0.54273397
0.030813985 -0.024196669 0.54163682
0.057691742 -0.025285713 0.5565868
0.05674652 -0.025413319 0.55438066
0.036680102 -0.025800593 0.53775668
0.057750594 -0.02293019 0.55849278
0.05401057 -0.023101963 0.55494893
0.036679536 -0.023431599 0.5404278
0.032692466 -0.02353511 0.53735822
0.055691861 -0.020387843 0.56065655
0.053056795 -0.020443745 0.5586614
0.03339351 -0.020245284 0.5423069
0.030593231 -0.020914465 0.53990716
0.058034983 -0.021442167 0.55256605
0.03812005 -0.022178844 0.53645891
0.059975818 -0.018929929 0.55648708
0.056695092 -0.019573145 0.55241877
0.054017581 -0.017823301 0.55193424
0.039694868 -0.017965421 0.53983271
0.038383462 -0.020014293 0.53695709
0.034112744 -0.019267872 0.53482962
0.057496261 -0.015884019 0.55989301
0.052755367 -0.016255297 0.55699229
0.052502964 -0.015992634 0.55360895
0.037930261 -0.016085371 0.54194486
0.034484126 -0.016616821 0.54223508
0.030984111 -0.016521595 0.53759992
0.0558304 -0.012727417 0.56020188
0.053305261 -0.012894578 0.55821186
0.033493713 -0.013131276 0.54191637
0.030802242 -0.013543509 0.53970879
0.062234361 -0.015058883 0.55450034
0.059205867 -0.016218603 0.5501039
0.055439577 -0.014698029 0.549254
0.041824974 -0.015021816 0.5381276
0.040228918 -0.016454801 0.53450769
0.035610151 -0.015370362 0.53220904
0.060638927 -0.011905715 0.55863088
0.052812435 -0.01241605 0.55145794
0.040104076 -0.012695566 0.54108739
0.031580217 -0.012431584 0.53439826
0.05697602 -0.0088189207 0.56008261
0.053042468 -0.008680515 0.55785078
0.051337503 -0.008559972 0.55422515
0.037356932 -0.0094537549 0.54296601
0.033315077 -0.0090616867 0.54176533
0.030599967 -0.0092904083 0.53812718
0.054610621 -0.0053196847 0.55978084
0.053833656 -0.005413603 0.55892789
0.035848651 -0.0058984719 0.54344916
0.032741815 -0.0058898702 0.54163599
0.030723102 -0.0059928745 0.53971159
0.063493647 -0.010938741 0.5521403
0.060499832 -0.011593789 0.54844761
0.056900661 -0.010682017 0.54744577
0.043203585 -0.011070617 0.53609484
0.041470651 -0.011852376 0.53288144
0.037442654 -0.011313051 0.53061867
0.062959939 -0.0081381984 0.55653554
0.054416314 -0.0080390237 0.54884374
0.042385805 -0.008330714 0.5388754
0.033508144 -0.0083682649 0.53147703
0.060058087 -0.0049630888 0.55920219
0.052844256 -0.0054745674 0.55755222
0.05217405 -0.0052376539 0.55185401
0.039746724 -0.0055057555 0.54165864
0.030818187 -0.0055740736 0.53517205
0.056107223 -0.002095174 0.5604986
0.05239417 -0.0016425624 0.55813646
0.051163208 -0.0023193434 0.55483663
0.036785737 -0.0026737973 0.54314709
0.033450708 -0.0018907823 0.54250932
0.030218553 -0.0024024919 0.53875953
0.054077901 0.0015742816 0.56145614
0.052092969 0.0015363023 0.56020337
0.031381451 0.0010010824 0.54303759
0.029534906 0.0011123717 0.54092771
0.063391477 -0.0073841587 0.5508588
0.060907118 -0.0075483657 0.54826683
0.058040559 -0.0073923543 0.54700434
0.041519426 -0.0077763535 0.53239357
0.038773328 -0.0081056021 0.53046668
0.062934048 -0.0042235143 0.55303466
0.059989475 -0.0036459789 0.54901212
0.05642255 -0.004711099 0.54790813
0.042831615 -0.0052740052 0.53648555
0.040722288 -0.0040666685 0.53313577
0.036623269 -0.0049772002 0.53107941
0.061763272 -0.0010258742 0.55606526
0.058547907 -0.00043730065 0.55021858
0.054062646 -0.0015276745 0.55018312
0.041034184 -0.0016774051 0.53911662
0.039366778 -0.0006178692 0.53455245
0.033845983 -0.001492016 0.53278726
0.058781415 0.0020232499 0.55965739
0.051772054 0.0016114265 0.55572772
0.052446168 0.0022701286 0.55332637
0.03782329 0.0020555481 0.54161882
0.035861228 0.00083747879 0.54248434
0.030675724 0.00142112 0.53597486
0.055370584 0.005087249 0.56127065
0.051390793 0.0053082705 0.55921334
0.051005229 0.004945267 0.55550838
0.035993509 0.0044880062 0.5432651
0.032432109 0.0046944916 0.5436365
0.029551834 0.0045289844 0.53960508
0.052489709 0.008136984 0.56031704
0.030725505 0.0073223561 0.54276204
0.029863846 0.0072502941 0.54188561
0.061099172 0.0035162121 0.55367237
0.058511365 0.002952788 0.55108249
0.055763684 0.003556598 0.54914063
0.041658558 0.0033783875 0.53707266
0.039018419 0.0026324987 0.53493726
0.036004204 0.0031295978 0.53297615
0.060430709 0.0062067583 0.55714762
0.05820705 0.004051473 0.55272424
0.053526383 0.0057094768 0.55118519
0.040018693 0.0053810105 0.53984326
0.037656784 0.0038011037 0.53557646
0.032998532 0.0054656342 0.53384173
0.057003975 0.0087763928 0.55912066
0.05275736 0.0096238665 0.55695105
0.052028842 0.0079992786 0.55349809
0.037603598 0.0078084618 0.54192656
0.034114599 0.009696763 0.54127204
0.031308379 0.0082332119 0.53747976
0.052909769 0.0091522746 0.55969542
0.032117158 0.0088378787 0.54239649
0.030178003 0.008315824 0.5408721
0.069242753 -0.0030549243 0.5350545
0.06717132 -0.0038399212 0.53269809
0.063636303 -0.0040750504 0.529199
0.059877604 -0.0043655895 0.52621704
0.055466026 -0.0037413724 0.52377766
0.053608403 -0.0025370866 0.52171063
0.069459252 -0.00066705421 0.53797072
0.053793825 -0.0029280148 0.52360523
0.05002071 -0.0016640835 0.522385
0.04692959 0.0001385659 0.52140057
0.069649383 0.0013812594 0.54084581
0.047242865 0.00075311214 0.5224843
0.045644268 0.0014406145 0.52191293
0.065341175 0.0063202791 0.54699033
0.063469559 0.0047557242 0.54540277
0.059875678 0.0052455142 0.5424279
0.04694169 0.0050290488 0.53206944
0.043815989 0.0046711303 0.52873278
0.041798446 0.0060214363 0.52750993
0.06382785 0.0070912093 0.55044132
0.061381426 0.0043220967 0.54774523
0.056568056 0.0068184324 0.54423243
0.046226386 0.0067799762 0.53579766
0.041718774 0.004215911 0.53126997
0.038620837 0.0067928247 0.52959597
0.062157415 0.010094669 0.55441093
0.054330103 0.0096753761 0.54797208
0.043328065 0.0095993653 0.53822261
0.035181046 0.0096504912 0.53158081
0.059170969 0.011558272 0.55559605
0.056108996 0.012356877 0.55364531
0.054042429 0.012197971 0.55071867
0.039945871 0.011942655 0.53937507
0.036602758 0.012079023 0.53771383
0.03418608 0.011254758 0.53470111
0.071894966 -0.00011504814 0.53370106
0.069227383 -0.001416415 0.53047478
0.065621532 -0.0017685369 0.52674282
0.061609611 -0.0016898401 0.52419442
0.057504755 -0.0013072602 0.52090889
0.054958433 -0.00012239441 0.5193876
0.071517073 0.0028053038 0.53949624
0.070883527 0.0011033937 0.53659207
0.068334132 0.0015655756 0.53292274
0.064147338 0.001360368 0.52819383
0.060479127 0.0012362264 0.52531391
0.055196404 0.0016365498 0.52367133
0.051428497 0.0006467998 0.52036059
0.048151746 0.0027708262 0.51952648
0.070421778 0.0041437298 0.54191172
0.067680106 0.0050699115 0.53945589
0.064272515 0.0061854981 0.53660947
0.062180437 0.0074828453 0.53445834
0.052347831 0.005903773 0.52624565
0.048925988 0.0044538416 0.52398264
0.045586739 0.0041538924 0.52083331
0.0683918 0.0083114728 0.54513752
0.066228464 0.0057726614 0.54262459
0.061141402 0.0061456822 0.53926617
0.058922775 0.008439187 0.53746271
0.052351989 0.0081949309 0.53183043
0.050257862 0.0060946085 0.53012627
0.045755628 0.0056530312 0.52543038
0.04248105 0.0076527894 0.52402002
0.067020319 0.011061013 0.5480125
0.056727141 0.011345744 0.54211652
0.057323195 0.0099429935 0.53995723
0.050158322 0.010030761 0.53389692
0.048205458 0.011353169 0.53493452
0.040198449 0.010752112 0.52587968
0.063197784 0.013838544 0.55140615
0.060120299 0.015605323 0.54946136
0.056453392 0.013725884 0.54568934
0.044912189 0.013528742 0.53578484
0.040119253 0.015432552 0.53274012
0.037573107 0.013421636 0.53015751
0.0573867 0.01480801 0.55060542
0.05554131 0.014163435 0.54921281
0.041396692 0.014635492 0.53682309
0.039349109 0.014635857 0.53561759
0.036589466 0.013651289 0.53310704
0.073821642 0.0034073889 0.53150153
0.071826063 0.0019974075 0.52736819
0.068347275 0.0015530884 0.52357906
0.064344727 0.0014500432 0.52098602
0.060060851 0.0017578341 0.51817507
0.055854484 0.0032234862 0.51657426
0.0748666 0.0064540729 0.53632879
0.074537702 0.0047025494 0.53436881
0.067713849 0.0059994496 0.53137696
0.065466821 0.0059314854 0.52753669
0.061087299 0.0052717514 0.52438134
0.057418898 0.0068500824 0.52306628
0.052687407 0.0045340285 0.51665699
0.050168801 0.0062948428 0.51652426
0.07344348 0.0094099008 0.53980172
0.06811329 0.005627621 0.53544837
0.065735132 0.0068950169 0.53328508
0.06269668 0.0089834593 0.53217578
0.056680419 0.0089849979 0.52742201
0.054935563 0.006679289 0.52442205
0.047471832 0.0082084462 0.51785326
0.071246974 0.011858456 0.54379386
0.060320254 0.010937847 0.53459179
0.054649778 0.011233516 0.53008282
0.043870829 0.011545524 0.52022135
0.068288438 0.014575332 0.54731858
0.059276551 0.015366375 0.53925538
0.057234161 0.015399095 0.53760302
0.053046543 0.015324883 0.53405428
0.050072774 0.015238427 0.53182185
0.041149173 0.014359456 0.52359766
0.065281413 0.017283671 0.54868305
0.061958518 0.017920315 0.54652643
0.05817689 0.016928177 0.54317087
0.054365829 0.016932219 0.53981978
0.051017776 0.016488317 0.53602576
0.046302162 0.017291907 0.53326392
0.042367414 0.017820954 0.53038114
0.040147848 0.016037133 0.52722073
0.070211515 0.0048379637 0.52027935
0.067929648 0.0059821159 0.51725811
0.075751439 0.0074000992 0.52887589
0.073848888 0.0060051121 0.52466953
0.070699371 0.0052533932 0.521469
0.066419594 0.0047785453 0.51850164
0.062014468 0.0059957653 0.51452243
0.057568464 0.0068706758 0.51351458
0.076321557 0.010214221 0.53425711
0.076487266 0.0090790726 0.53191251
0.067250296 0.0088954344 0.52902919
0.065869607 0.010557573 0.52618456
0.062131155 0.01034205 0.5233565
0.054558054 0.0080531202 0.51364005
0.052368362 0.009978205 0.51369315
0.074966818 0.012372274 0.53736973
0.064395756 0.012670025 0.52866316
0.060144566 0.012542404 0.52460486
0.048976108 0.012327865 0.51547557
0.07271079 0.016079426 0.54074913
0.062841646 0.016036361 0.53195572
0.056787003 0.015484676 0.52705956
0.055439532 0.018366966 0.52686012
0.045457907 0.015421297 0.51837552
0.069923952 0.018388417 0.54365295
0.066718012 0.021214318 0.54176575
0.061979827 0.018073481 0.53638488
0.058496311 0.018780172 0.53410554
0.054483082 0.019068308 0.53168368
0.052889045 0.01785453 0.5287779
0.045699704 0.020363908 0.52362543
0.043843634 0.017993473 0.52173913
0.066490345 0.019517414 0.5451566
0.064335853 0.020039447 0.54306805
0.060645767 0.020305935 0.53971034
0.057582486 0.020109423 0.53694201
0.053661425 0.019696489 0.53335118
0.049113065 0.0204743 0.5304634
0.046002936 0.020055376 0.52716583
0.042907521 0.018908504 0.52589172
0.075956874 0.010494262 0.51911926
0.072767399 0.0092167407 0.5178079
0.069950402 0.0092381164 0.51546252
0.067154467 0.010299068 0.51232749
0.077687472 0.01140061 0.52601373
0.075843871 0.0097037777 0.52291179
0.072332993 0.00920026 0.5186463
0.06779208 0.0096533969 0.51438141
0.064159095 0.0093873106 0.51265001
0.059470609 0.010800309 0.5112201
0.07775981 0.014711328 0.53217441
0.078060105 0.013442762 0.52967012
0.056572005 0.012596156 0.51100647
0.054117952 0.013817668 0.51192558
0.076202527 0.016855981 0.53461921
0.064753734 0.016313933 0.52614069
0.062061787 0.016322985 0.52408969
0.051316116 0.016456235 0.51372331
0.073798254 0.019807119 0.53734362
0.072102189 0.022475014 0.53745794
0.06324926 0.019186698 0.52948582
0.059294689 0.018975228 0.52591842
0.048780534 0.019749768 0.51669604
0.070893511 0.021129977 0.54023492
0.06858366 0.023096852 0.53883326
0.063830599 0.02381672 0.53652477
0.059796747 0.023676857 0.53269178
0.055937797 0.024036527 0.53010076
0.05240804 0.0244179 0.52593923
0.049124174 0.023150891 0.52238375
0.046851177 0.021284278 0.51996869
0.063127078 0.02366963 0.5377773
0.059778538 0.023797248 0.53470981
0.055243351 0.024530493 0.52980423
0.051198825 0.023363421 0.52798527
0.04878768 0.022690689 0.52597457
0.081149414 0.013300546 0.52090025
0.07886526 0.012384191 0.51843512
0.075519487 0.011692602 0.51492673
0.071392782 0.011732116 0.51191843
0.067486674 0.012203626 0.50905633
0.064584538 0.012536742 0.50741661
0.080825597 0.01445866 0.5240767
0.079040676 0.012467667 0.52112567
0.068957828 0.011028267 0.51351273
0.064910471 0.011674706 0.51016814
0.06136255 0.014070544 0.50790828
0.080306761 0.018184166 0.52933705
0.079829216 0.016851336 0.52818626
0.057403088 0.015399352 0.51031542
0.056526843 0.017774682 0.50900328
0.07794942 0.020776931 0.53210753
0.053456374 0.020181216 0.51205641
0.075822733 0.022657314 0.53406775
0.073717676 0.024579614 0.53430641
0.052425705 0.0244924 0.51663381
0.051727995 0.022217199 0.51457483
0.070091926 0.026202988 0.53464478
0.066305757 0.027174722 0.53340954
0.061965439 0.027254827 0.53143859
0.057353985 0.026984686 0.52780414
0.054422602 0.027150039 0.52344471
0.052305274 0.025505926 0.5201441
0.061243437 0.029428065 0.53033799
0.057826139 0.029019229 0.52781308
0.055664521 0.029178888 0.52539557
0.07979472 0.015602633 0.51653594
0.076907195 0.016087558 0.51292747
0.073347718 0.015867081 0.50970852
0.069186069 0.015519641 0.50769317
0.081409208 0.01874448 0.52223849
0.080162257 0.018358767 0.51800054
0.078244753 0.018561371 0.51414114
0.071616158 0.018458981 0.5085448
0.067835651 0.017935421 0.50738162
0.063571766 0.018636599 0.50684756
0.059590116 0.017881837 0.50633293
0.081473306 0.020861551 0.52740413
0.080563009 0.021743037 0.52463889
0.061464246 0.021875391 0.50769436
0.057811953 0.020560097 0.50757301
0.078819618 0.023422923 0.53035539
0.078548305 0.025507309 0.52764899
0.058187518 0.025547037 0.51067597
0.05592674 0.022896435 0.50989199
0.077346027 0.025353238 0.53190392
0.075155362 0.027805094 0.53080517
0.07145495 0.029789105 0.52853727
0.058330771 0.029685596 0.5174917
0.055760562 0.027932275 0.5140779
0.053385794 0.024769394 0.51291806
0.071805932 0.029319791 0.53249109
0.068107396 0.030252848 0.53070503
0.06444747 0.030634996 0.52759296
0.060429472 0.030577691 0.52416062
0.056825507 0.030275024 0.52123111
0.054342277 0.02932683 0.5177207
0.062628642 0.030688675 0.53026056
0.058584183 0.030521953 0.52688617
0.055981129 0.030248057 0.52445441
0.03820914 0.063854188 0.55720216
0.0352006 0.063525751 0.55485082
0.036117908 0.06560909 0.55928403
0.033381902 0.06529516 0.55692405
0.033954866 0.067478478 0.56033474
0.032435115 0.06734629 0.55926305
0.077619329 0.020314123 0.51004386
0.075587757 0.019957889 0.50852168
0.081204578 0.02235572 0.52018362
0.080615595 0.022650233 0.51633155
0.078920051 0.021360844 0.51269764
0.073048413 0.021550776 0.50746053
0.069442593 0.022246361 0.50665247
0.065653473 0.022867432 0.50636375
0.08037018 0.024981081 0.52195954
0.080544114 0.026657011 0.51929826
0.065816723 0.026326369 0.50700754
0.063482493 0.024850285 0.50767809
0.077920362 0.027345534 0.52510184
0.076686293 0.029790813 0.52267987
0.063087106 0.029457964 0.51141149
0.060878031 0.027137827 0.5105738
0.075422533 0.028883666 0.52725255
0.072741091 0.03134644 0.52509874
0.068541892 0.033981856 0.52214062
0.064948894 0.033995897 0.51916116
0.061569467 0.031134348 0.51559651
0.058882661 0.028852064 0.51389247
0.069316864 0.031907137 0.52661008
0.06687218 0.032809667 0.52438736
0.063579708 0.032900855 0.52129936
0.060313981 0.031602148 0.51916355
0.068665132 0.046959668 0.54297584
0.068077609 0.046964936 0.54211318
0.045356445 0.046599261 0.52304751
0.044413958 0.046426881 0.5224793
0.067439266 0.048163421 0.54465848
0.064762443 0.048585281 0.54315341
0.046334893 0.049622573 0.52925205
0.044756114 0.048165929 0.52630341
0.04283496 0.047739469 0.52408087
0.06502381 0.050650306 0.54632241
0.061709672 0.051137116 0.5453757
0.058994547 0.05155259 0.54371578
0.045135181 0.051281326 0.53211546
0.042985946 0.050821215 0.52973694
0.041601885 0.05013252 0.52659065
0.058879189 0.053809557 0.54720956
0.055356983 0.054203816 0.54561585
0.052544344 0.055565447 0.54479349
0.045498729 0.055488095 0.53816533
0.043764383 0.053955771 0.53597146
0.041574322 0.053450409 0.53288949
0.051981054 0.05671864 0.54691738
0.049218766 0.056987375 0.54621273
0.044266701 0.057012767 0.5420298
0.042788934 0.05637306 0.5389694
0.048463985 0.060770936 0.55009735
0.0460862 0.059617303 0.54837799
0.042741239 0.059599023 0.54503411
0.040593475 0.060429741 0.54313642
0.04718316 0.062372439 0.55132449
0.043538921 0.062395647 0.55201173
0.039639473 0.062717453 0.54880196
0.039145548 0.062115971 0.54503238
0.039989207 0.064977258 0.5549323
0.037167922 0.065001287 0.5523926
0.037005518 0.066206917 0.55827558
0.034273524 0.066142946 0.55619514
0.034590177 0.068237253 0.56008959
0.032761667 0.068007499 0.55870342
0.079495557 0.024674524 0.50781375
0.077656657 0.024411073 0.50633419
0.08143314 0.027208257 0.51406771
0.080190495 0.025642699 0.51042098
0.074708916 0.02582125 0.50581199
0.07114099 0.026636444 0.50543523
0.082211621 0.031985901 0.51896274
0.081430912 0.029564328 0.51722139
0.067693174 0.029065916 0.50591451
0.066028677 0.031579204 0.50555414
0.080544367 0.033764146 0.52150816
0.077757351 0.032062575 0.5212338
0.064448662 0.031864665 0.51002771
0.063713707 0.033468448 0.50743794
0.078558736 0.035376824 0.52273858
0.074743979 0.035547514 0.52222645
0.070709884 0.035505503 0.52213699
0.064429633 0.035307996 0.51698363
0.063860714 0.035403796 0.51324922
0.062828809 0.035101525 0.50944537
0.073000237 0.038811579 0.52284706
0.069099016 0.037833642 0.52161294
0.065316223 0.037535124 0.51851279
0.063586041 0.038668968 0.51508152
0.071587637 0.048545346 0.54139376
0.06837301 0.048400737 0.54023898
0.047173824 0.048043445 0.52233648
0.045313261 0.048000403 0.51933503
0.069705047 0.050728422 0.54493463
0.065400034 0.049806058 0.54018217
0.062435042 0.051706187 0.53916371
0.04898436 0.051295754 0.52772844
0.047522802 0.049260572 0.5250361
0.04219158 0.050158139 0.52171487
0.066322193 0.054167066 0.54645991
0.063011177 0.053665094 0.54710233
0.058855627 0.053378191 0.54057115
0.048413094 0.053271383 0.53184754
0.041018896 0.053162135 0.52845687
0.04109405 0.053725734 0.52524173
0.064280614 0.056898601 0.54669124
0.060736697 0.057151981 0.54713684
0.055718906 0.055117853 0.5427357
0.053731263 0.057069391 0.54238474
0.047410134 0.056804046 0.53679192
0.04658119 0.054508865 0.53533643
0.041132592 0.056529842 0.53075892
0.041049745 0.056172989 0.52726704
0.057837125 0.059311673 0.54695702
0.053874314 0.059869878 0.54704058
0.049452018 0.059675924 0.54321283
0.047130443 0.059383348 0.54111356
0.042120773 0.059708469 0.53741395
0.041586969 0.05872912 0.53384608
0.05035438 0.062953517 0.54909533
0.046417117 0.062733173 0.54455912
0.045981441 0.063055404 0.54459786
0.040785708 0.062677123 0.54109192
0.047983915 0.066180408 0.55178541
0.044085234 0.065736711 0.54966676
0.041726682 0.065966278 0.54765272
0.038690604 0.065830439 0.54399246
0.045514423 0.069357008 0.55440152
0.041657258 0.068131216 0.55312037
0.039238539 0.068638414 0.55042022
0.0363148 0.069094554 0.54722655
0.043406054 0.071524732 0.55567646
0.039691009 0.07226868 0.55564868
0.036040135 0.071933143 0.55297351
0.03489431 0.071329713 0.549312
0.036998458 0.075094387 0.55825698
0.033826925 0.074546888 0.55609488
0.034920752 0.077596098 0.56058019
0.031649627 0.077028729 0.55844551
0.081597872 0.028587496 0.50540352
0.079300255 0.028451378 0.50368285
0.086440116 0.032794915 0.51370537
0.083611466 0.030960374 0.51126665
0.082126625 0.029357528 0.50867009
0.076317459 0.029146951 0.50370449
0.073078588 0.030804072 0.50253636
0.070113257 0.032346223 0.50041723
0.085016623 0.033827145 0.516743
0.083225243 0.031007042 0.51495862
0.069880754 0.030653907 0.50367194
0.067667916 0.03341892 0.50217521
0.082314305 0.036406197 0.52056754
0.079015799 0.036139429 0.52156627
0.063908741 0.035806961 0.50862551
0.064301938 0.036163747 0.5052107
0.079932913 0.039738383 0.52215505
0.076921776 0.03932656 0.5225296
0.063147835 0.03910742 0.51106393
0.063093431 0.039384089 0.50794721
0.074630409 0.042358287 0.52268213
0.069925226 0.042552754 0.52103776
0.065766826 0.042349007 0.51762271
0.063239731 0.041901149 0.51316363
0.069741391 0.045810223 0.52083826
0.066217721 0.045344088 0.51803553
0.078951977 0.051912125 0.53806007
0.076964892 0.050677579 0.53650361
0.051635392 0.051295027 0.51550406
0.049364939 0.050266441 0.51348829
0.047533218 0.051280275 0.51167101
0.077363349 0.053282656 0.54049039
0.074977174 0.050979111 0.5392437
0.07039015 0.052428432 0.53640747
0.05052802 0.051913552 0.51927763
0.046808634 0.050530106 0.51567435
0.045223996 0.052590467 0.51348144
0.074873291 0.054355167 0.54253185
0.071309231 0.055247977 0.54254103
0.067324191 0.055318348 0.53851938
0.063980259 0.054742627 0.53814793
0.049834229 0.054527208 0.5262363
0.048693959 0.054996707 0.52277964
0.043925844 0.054597665 0.51959378
0.043602951 0.053841271 0.51604152
0.067885391 0.057100363 0.54504311
0.065757297 0.058238786 0.54107422
0.061122771 0.057359628 0.53926718
0.049082428 0.057372026 0.52955329
0.046353176 0.057905912 0.5248549
0.042106517 0.056556009 0.52342641
0.065173388 0.058315039 0.54585308
0.062185511 0.060024608 0.54478496
0.058656111 0.060618974 0.5418995
0.05462531 0.060159221 0.54151821
0.048117589 0.059601892 0.5352459
0.046952464 0.060326878 0.53204644
0.043252837 0.059642814 0.52895528
0.041574195 0.057508595 0.52633107
0.054854728 0.062518753 0.5444454
0.052083954 0.063621759 0.54259717
0.04726987 0.063354269 0.53857732
0.044720288 0.062702835 0.53646904
0.042806849 0.060624905 0.53301251
0.052264944 0.066823296 0.54664028
0.048550662 0.065889798 0.54282612
0.047459204 0.065884873 0.54201305
0.042700361 0.066817366 0.53847414
0.049615655 0.069842353 0.5496785
0.045312822 0.070009753 0.54664868
0.044170789 0.069834329 0.54544801
0.040023893 0.069672123 0.54148865
0.04726766 0.071989983 0.55161566
0.04482789 0.072855636 0.55145615
0.042182244 0.073045574 0.54829365
0.037934862 0.072339669 0.54482102
0.042163149 0.074994348 0.5525471
0.038210601 0.075224198 0.54935014
0.037434205 0.075830035 0.54645336
0.083927542 0.032534547 0.50355691
0.080987103 0.032384396 0.50092155
0.08767686 0.035501745 0.5118683
0.086697377 0.034372553 0.50897282
0.08492405 0.03260801 0.50626302
0.078039058 0.032529052 0.50026441
0.074861869 0.034220301 0.49908912
0.071690165 0.035253149 0.49871629
0.087249309 0.037327472 0.5145489
0.071054175 0.034144439 0.50035042
0.069259427 0.036895595 0.49958545
0.085790746 0.040372595 0.51892298
0.06552273 0.039991971 0.50134706
0.085484393 0.045057181 0.52194858
0.082424417 0.043657444 0.52221036
0.06243962 0.043218412 0.50527805
0.061797515 0.045015387 0.50282109
0.079526879 0.04702235 0.52279609
0.075681731 0.046145611 0.52285957
0.062847003 0.045653518 0.5120002
0.062310509 0.046488997 0.50840539
0.083191559 0.052444465 0.53293717
0.081179291 0.051425394 0.53155291
0.07754688 0.049949929 0.52338684
0.074018687 0.049907342 0.5235886
0.069212832 0.049660072 0.5206629
0.065730274 0.049419153 0.51785183
0.06236545 0.049632866 0.51388717
0.059072614 0.050913721 0.51043588
0.053766299 0.051238652 0.50847185
0.051884234 0.052290358 0.50681031
0.081569284 0.053083055 0.53666103
0.078691065 0.051239926 0.53389889
0.07552582 0.053661231 0.53098875
0.071538426 0.05296037 0.52327734
0.062770203 0.053015448 0.51601428
0.054914318 0.053176928 0.51384449
0.051478785 0.05076918 0.51062608
0.048438631 0.052503131 0.50889003
0.079326622 0.055171456 0.53920132
0.076347373 0.057828393 0.53787732
0.071545079 0.055419981 0.53302181
0.053697512 0.055057313 0.51772803
0.047807135 0.057237979 0.51372755
0.046082716 0.054410297 0.51137948
0.075989097 0.056062423 0.54109448
0.072891265 0.057973284 0.53884178
0.070151448 0.057973146 0.53629887
0.05028148 0.057724431 0.51956558
0.047125638 0.057287611 0.51772863
0.044593997 0.055333868 0.51490933
0.05329619 0.070861995 0.54480606
0.051750805 0.070559427 0.54155219
0.048119225 0.070655875 0.53879482
0.04415198 0.070681229 0.53726089
0.051893022 0.072517872 0.54560792
0.048869092 0.074276865 0.54595053
0.04503445 0.074731708 0.54316133
0.04261145 0.073409125 0.53977507
0.047737841 0.074978352 0.55042803
0.046661805 0.076918826 0.54779601
0.042745411 0.076350421 0.54469818
0.0395432 0.07564871 0.54324967
0.0436198 0.079821065 0.55104578
0.039370064 0.079613514 0.54832017
0.037348758 0.0784306 0.54629087
0.041181888 0.083355017 0.55331159
0.037237551 0.082962565 0.55084276
0.039035797 0.086550564 0.55574888
0.03534051 0.086333856 0.55313075
0.085822567 0.035925802 0.501131
0.082627594 0.035743453 0.49827752
0.088806234 0.039122354 0.51011378
0.08837875 0.038480327 0.50691873
0.086658053 0.037335031 0.50338447
0.080414645 0.037379272 0.49780723
0.076635495 0.038346842 0.49702579
0.073781781 0.039918207 0.49667752
0.091656268 0.043557528 0.51550329
0.089316703 0.041485287 0.5124597
0.074609227 0.041451193 0.49595094
0.070906647 0.041068032 0.49707535
0.067454346 0.043179937 0.49517277
0.090661339 0.045194879 0.51854128
0.088233113 0.042609669 0.51726305
0.066200659 0.042293593 0.49905506
0.064707614 0.044621497 0.49661449
0.087487802 0.047552325 0.52155328
0.06222092 0.046920944 0.50019872
0.088110432 0.053677149 0.52785277
0.085081249 0.052314766 0.5240885
0.08175423 0.051041238 0.52225018
0.062222023 0.050727203 0.50580519
0.05990411 0.051701739 0.50270605
0.056029506 0.052978858 0.50065416
0.08655329 0.054406904 0.53122109
0.082838334 0.052387975 0.52807468
0.079293527 0.053977534 0.52446228
0.076066658 0.052605815 0.52389598
0.068738051 0.054244827 0.5189091
0.068164401 0.054549545 0.51792616
0.061577938 0.052532993 0.51159424
0.06034819 0.053497329 0.50873327
0.056152068 0.052041896 0.5054242
0.052814204 0.053705111 0.50282127
0.083860949 0.056684207 0.5340693
0.077029862 0.056801762 0.52791739
0.073681138 0.056041699 0.52363634
0.070262857 0.055859484 0.52020913
0.06596446 0.055723812 0.51682824
0.061658438 0.055518195 0.51396507
0.057614218 0.056332573 0.51171499
0.050338879 0.055806022 0.50603265
0.081112571 0.05889399 0.53515911
0.077852115 0.059908498 0.53410572
0.074320167 0.059696294 0.5314672
0.054512121 0.059432987 0.51456344
0.050930209 0.059176702 0.51171762
0.049613141 0.058025096 0.50858372
0.074103661 0.059699327 0.53580022
0.072809696 0.060050637 0.53441119
0.062769406 0.065356225 0.52722085
0.060793452 0.06531629 0.5257597
0.051845543 0.059748217 0.51654768
0.050028961 0.059238292 0.51559353
0.061338514 0.067000687 0.53116393
0.057699367 0.067006782 0.52811176
0.059605613 0.068603858 0.53214192
0.056841798 0.068543538 0.52947289
0.053673383 0.074190825 0.54360914
0.052783825 0.075273074 0.54109377
0.048329432 0.074918918 0.53775197
0.045796286 0.074397847 0.53687394
0.05319076 0.075245477 0.5439266
0.05058863 0.078028418 0.54249293
0.047086351 0.078102686 0.539599
0.044675894 0.075772591 0.53799134
0.04871941 0.081109032 0.54268879
0.045881134 0.080588728 0.54073501
0.041792277 0.0858716 0.55303466
0.036673103 0.086351499 0.55082917
0.039906431 0.088491037 0.55473572
0.035991184 0.087927558 0.55241394
0.0862948 0.038929563 0.49893948
0.084460355 0.038919948 0.49730444
0.089042298 0.04231663 0.50504333
0.086777881 0.042106323 0.50104868
0.082800984 0.04204426 0.4972707
0.078105301 0.042222049 0.49595085
0.092002466 0.045199558 0.51430476
0.091291875 0.045585975 0.51081926
0.08967571 0.045112256 0.50667298
0.076121375 0.044847466 0.49557334
0.072042786 0.045189407 0.49477354
0.068645224 0.044398844 0.49458271
0.091550231 0.048674311 0.51655895
0.091349743 0.049057845 0.51349157
0.069265917 0.048509531 0.49509597
0.066236667 0.048085932 0.49544495
0.092142776 0.054501723 0.52139878
0.091557801 0.051691357 0.52003133
0.062708631 0.05106185 0.4960286
0.06107121 0.053748667 0.4957779
0.090515152 0.055714279 0.52578682
0.088015936 0.053379983 0.52335727
0.081673898 0.05404786 0.5218519
0.062733091 0.053734846 0.50606418
0.060195342 0.052624118 0.50003803
0.057446294 0.054793574 0.49779931
0.089412108 0.057850398 0.52968168
0.08032909 0.056338053 0.52270538
0.070221968 0.059651256 0.51532722
0.062008172 0.056126289 0.50742978
0.053502232 0.056922901 0.49955004
0.086326972 0.060829297 0.53206277
0.077327937 0.060275644 0.52540845
0.075191982 0.060485758 0.5219487
0.071271196 0.059886687 0.51835525
0.067567222 0.059898078 0.5154205
0.063405737 0.06046522 0.51230764
0.05997628 0.059735794 0.51060855
0.051433049 0.060094416 0.50313765
0.083094127 0.06253086 0.53306103
0.080363363 0.063257091 0.53149539
0.077492565 0.062516198 0.52878392
0.067432567 0.066299208 0.52213907
0.064952694 0.06605909 0.52010512
0.056253057 0.062000304 0.51110578
0.053206697 0.062657744 0.50865412
0.051234633 0.061873093 0.50622469
0.067579307 0.068030514 0.52776676
0.066193134 0.06640397 0.52489126
0.061972231 0.066497453 0.52186012
0.059565879 0.06892769 0.52048707
0.066020221 0.069648489 0.53063756
0.063832819 0.068334915 0.53069752
0.057640832 0.068382859 0.52479082
0.056848504 0.070388429 0.52224624
0.06442865 0.073628277 0.53435743
0.060233273 0.072514266 0.53238124
0.056059692 0.072376356 0.52871591
0.053322583 0.073155932 0.5249579
0.062566765 0.076011121 0.53412783
0.058469839 0.075605243 0.53237033
0.055675376 0.075559169 0.52955925
0.053311821 0.075238667 0.52692372
0.051263075 0.081597835 0.54090464
0.048241634 0.081591077 0.538297
0.049649585 0.08488889 0.54256386
0.046583958 0.084674329 0.54043031
0.047914725 0.087688074 0.54354882
0.045125283 0.087640673 0.54163247
0.086102881 0.046479009 0.49960443
0.083985731 0.046402033 0.49730456
0.091507956 0.049684338 0.50858378
0.089574255 0.049557786 0.50525314
0.087023787 0.049051024 0.50093126
0.082225993 0.049145032 0.49652389
0.077819243 0.049292121 0.49537906
0.074179925 0.049359802 0.49412033
0.091593735 0.052595563 0.51498842
0.09129975 0.052514542 0.51131982
0.089988992 0.052991278 0.50673079
0.076094382 0.052748092 0.49521929
0.07147032 0.052206039 0.49471888
0.067776322 0.052022178 0.49507374
0.092804693 0.055855148 0.52088052
0.092352346 0.05532008 0.51739174
0.091439307 0.055462137 0.51318496
0.069053777 0.054979242 0.4948127
0.065222189 0.054702085 0.49461415
0.061532009 0.055387337 0.49463406
0.091749907 0.057972275 0.52312148
0.090457544 0.060013618 0.52047211
0.062290598 0.059517402 0.49687478
0.059504978 0.057176337 0.49594027
0.090018407 0.061899446 0.52640247
0.088634036 0.062475447 0.52172548
0.082509018 0.064338289 0.52024961
0.078453362 0.062744133 0.51676136
0.076320648 0.063279003 0.51613688
0.068605185 0.063321277 0.51010251
0.067815974 0.06285058 0.50804847
0.063500665 0.064100638 0.50429529
0.06094601 0.06203077 0.49875283
0.056474276 0.061290044 0.49827555
0.087196559 0.064390413 0.52883077
0.084344096 0.066426344 0.52636039
0.080481723 0.065137476 0.52307451
0.076857276 0.062483892 0.52004886
0.073005609 0.064031392 0.51757085
0.067900032 0.064258426 0.51368266
0.065337658 0.062434781 0.510113
0.061221305 0.064837769 0.50697666
0.057332095 0.065778702 0.50372726
0.054567426 0.06370502 0.50123537
0.083967388 0.064453736 0.53100961
0.082153782 0.065528594 0.52876437
0.079599909 0.065306723 0.52683479
0.072301194 0.069922194 0.52196503
0.070189632 0.067529887 0.51987112
0.066404663 0.067392901 0.51651281
0.063952826 0.069694526 0.51509255
0.057905745 0.064712375 0.50864291
0.055386722 0.064927265 0.50625652
0.070689835 0.070957206 0.52540064
0.069406919 0.06866499 0.52334702
0.063199177 0.068691254 0.51835972
0.060954526 0.070959069 0.51726687
0.069444798 0.073662214 0.52968448
0.057230353 0.073418289 0.51960957
0.067902125 0.075499266 0.53400582
0.067430519 0.07615678 0.53324413
0.054216683 0.076026767 0.52263248
0.063659847 0.078910261 0.53355289
0.059426874 0.080078989 0.53241497
0.055716615 0.079913579 0.52887279
0.05414886 0.078186028 0.52573252
0.049982175 0.087991059 0.54141229
0.047550328 0.088099658 0.5397737
0.049125444 0.089791425 0.54248464
0.046192043 0.089732841 0.5405699
0.087774426 0.052840821 0.50389087
0.085898139 0.051699933 0.49978331
0.083490975 0.051549248 0.4974449
0.079758964 0.052351285 0.49667224
0.090633377 0.05562314 0.50980848
0.088409811 0.055626236 0.5063743
0.084808379 0.056341272 0.50204164
0.081281111 0.056519199 0.49897498
0.076563753 0.05532293 0.49655223
0.072994813 0.055541329 0.49514517
0.091693453 0.059295494 0.51557791
0.089984931 0.059117444 0.51223922
0.086603604 0.060110174 0.50835669
0.083074324 0.060524642 0.50446832
0.079416268 0.060604133 0.5013116
0.074834034 0.059789479 0.49862665
0.070650652 0.058763415 0.49609622
0.066810742 0.058835335 0.49480122
0.090194449 0.061210744 0.51738727
0.087655984 0.062790185 0.51442415
0.085455753 0.063811764 0.51120543
0.079824202 0.0634306 0.50497901
0.079557113 0.062749296 0.50367409
0.072596788 0.063486233 0.5002262
0.068504848 0.062356334 0.49843553
0.065086678 0.060728759 0.49649447
0.088916697 0.065001242 0.52509588
0.087476701 0.06418062 0.5220111
0.084672108 0.064799286 0.51836348
0.080577835 0.065876596 0.5148505
0.079088531 0.068198435 0.51262057
0.072034523 0.068167381 0.50693315
0.069285214 0.06581191 0.50514406
0.065285593 0.06456618 0.50220025
0.061604299 0.063618839 0.50013697
0.057906583 0.064394996 0.499257
0.088183723 0.06568867 0.52598482
0.086398266 0.066329762 0.52480662
0.077517524 0.067346819 0.51539326
0.076122366 0.069237441 0.51542896
0.07011725 0.069343358 0.50988495
0.069242939 0.067308873 0.5084756
0.0583768 0.0655481 0.5013141
0.074393541 0.072118111 0.51945227
0.074322738 0.070396863 0.51820314
0.066557169 0.069970332 0.5129025
0.065939069 0.071975395 0.51210082
0.073476531 0.075203702 0.52464843
0.061008729 0.074662551 0.51437181
0.072202474 0.077710219 0.5266422
0.059137587 0.077186331 0.51599246
0.06854929 0.080615774 0.52981174
0.056840695 0.080338404 0.52029264
0.065193839 0.083347745 0.532031
0.061311319 0.084830098 0.53134954
0.056150369 0.084590904 0.52679259
0.055220883 0.083280608 0.52343965
0.059686616 0.085629091 0.53010029
0.05765231 0.085375175 0.52858675
0.082439423 0.062684953 0.50544965
0.078346074 0.062618054 0.50211978
0.08365988 0.064645559 0.5095892
0.081232116 0.064616539 0.50729239
0.076799065 0.064537637 0.50361782
0.073900513 0.064615801 0.50174874
0.081953295 0.066456087 0.5112437
0.078066342 0.06756115 0.50977939
0.074901305 0.067454815 0.50707436
0.072756775 0.066293254 0.50360376
0.075620122 0.071107164 0.51281267
0.072253205 0.071301453 0.5101952
0.0757268 0.075528368 0.51788694
0.07513041 0.075028822 0.51461709
0.070428818 0.07462883 0.51071072
0.066961288 0.075404212 0.51066709
0.07652019 0.081182368 0.5237509
0.075242884 0.078925051 0.52254403
0.062674299 0.078376025 0.51198077
0.060563467 0.079789817 0.51129061
0.075941391 0.080852181 0.52439344
0.0734879 0.081034884 0.52475631
0.060451217 0.080672249 0.51404303
0.060114101 0.080060661 0.51170164
0.06974709 0.084633753 0.52714199
0.05887071 0.084164426 0.51812977
0.066844702 0.087177023 0.52940196
0.062850028 0.088643156 0.52833772
0.05876331 0.088537604 0.52476931
0.057346284 0.087017968 0.52114248
0.060823426 0.087196305 0.52932566
0.058974251 0.087244257 0.52770662
0.074243151 0.079280868 0.51384544
0.071074538 0.079157025 0.51128381
0.075334802 0.082505606 0.51886898
0.07409247 0.083029941 0.51512069
0.069701985 0.082757257 0.51145911
0.065970175 0.082183182 0.51098448
0.074089013 0.085474908 0.5216313
0.06758187 0.0858064 0.51169527
0.063133955 0.085252866 0.51261491
0.070975363 0.088215321 0.52415758
0.069311276 0.091019467 0.52332199
0.062144242 0.090947546 0.51776791
0.061194789 0.088100284 0.51611203
0.068059914 0.089523032 0.52646542
0.065734141 0.091300614 0.52470589
0.061859637 0.091258347 0.52155817
0.0597771 0.089326724 0.5191471
0.072472766 0.085986577 0.51449311
0.070746496 0.085600741 0.51283938
0.073916599 0.087640271 0.51923877
0.071482785 0.090488091 0.51639384
0.068908691 0.090605989 0.51412767
0.065363497 0.088402301 0.51274151
0.072425105 0.089648806 0.52097613
0.069555432 0.092919603 0.51848549
0.066630915 0.093143463 0.51638228
0.063909292 0.089997172 0.51452255
0.066602103 0.092583463 0.5213998
0.064696155 0.092576697 0.51947147
0.077925354 0.086665764 0.50066924
0.076968387 0.086666554 0.49944267
0.077308342 0.08787474 0.50202447
0.071294099 0.093931228 0.51461536
0.070535727 0.094155714 0.51371276
0.070749119 0.095868312 0.51615924
0.068633802 0.095876999 0.51462388
0.068268634 0.097170815 0.51777518
0.067627288 0.097140901 0.51711559
0.08053188 0.085459717 0.49672002
0.079677105 0.08549159 0.49581942
0.079698689 0.0879841 0.49943906
0.077630937 0.087281473 0.49782947
0.079927243 0.092393711 0.50457168
0.077582531 0.090965346 0.50248355
0.076240152 0.0897462 0.49984407
0.079104133 0.095386967 0.50648123
0.076922446 0.094492778 0.50431508
0.075582683 0.098432243 0.51108056
0.073496349 0.098656043 0.51015538
0.073179983 0.10015681 0.51399213
0.071104452 0.099876776 0.51231331
0.08087796 0.095221587 0.50361508
0.079268098 0.094597712 0.50151902
0.080131307 0.098282322 0.50598019
0.077671379 0.097892128 0.503824
0.077865854 0.10165264 0.50888985
0.075565167 0.10044252 0.50769758
0.075055048 0.1026748 0.51113158
0.073795229 0.10190745 0.5101651
