# .PCD v0.7 - Point Cloud Data file format
VERSION 0.7
FIELDS x y z
SIZE 4 4 4
TYPE F F F
COUNT 1 1 1
WIDTH 837
HEIGHT 1
VIEWPOINT 0 0 0 1 0 0 0
POINTS 837
DATA ascii
0.023099709 0.059738029 0.4529244
0.025884876 0.059760913 0.45286956
0.01410478 0.064259306 0.45281401
0.017541997 0.06312789 0.45226908
0.022286303 0.06235148 0.45184946
0.027194319 0.062363863 0.45183569
0.031975046 0.063046485 0.45229653
0.035495482 0.064382367 0.45279086
0.013031656 0.06766177 0.45225853
0.017335748 0.067466132 0.45100507
0.022244034 0.067341581 0.45027286
0.027288076 0.06740877 0.45026189
0.032238156 0.067360774 0.4510349
0.03659492 0.067798376 0.45225605
0.0096004112 0.072727092 0.45295367
0.012300571 0.072393805 0.45181569
0.017221499 0.072403811 0.45026919
0.022169642 0.072372928 0.44951275
0.027279073 0.072438881 0.44950327
0.032254931 0.072466947 0.45025086
0.037304219 0.072450399 0.45183694
0.039975293 0.073669136 0.45290673
0.0096543878 0.076210633 0.45287573
0.012280274 0.077466123 0.45182681
0.017219065 0.077350631 0.45026964
0.022282628 0.077459931 0.4495087
0.027293041 0.077443786 0.44950745
0.032251962 0.077366874 0.45025194
0.037250418 0.077392869 0.45181653
0.039941784 0.076199822 0.45289364
0.013060304 0.082083821 0.45223325
0.017340846 0.082562745 0.45105666
0.022235401 0.082371622 0.45025596
0.027266208 0.082308754 0.45023853
0.03235843 0.082394645 0.451049
0.036513418 0.082057357 0.4522368
0.014207736 0.08552479 0.4527671
0.017668743 0.086779058 0.45228162
0.02236413 0.087352082 0.4518002
0.027191803 0.087333463 0.451794
0.031970706 0.08672972 0.4522838
0.035431568 0.085626051 0.4528375
0.0232853 0.090089284 0.45291662
0.026084376 0.090119757 0.45292175
0.014722762 0.054764077 0.45785826
0.017968601 0.054141179 0.4573229
0.022334373 0.053621292 0.45698595
0.02719176 0.053607121 0.45698825
0.031610571 0.054129966 0.45734057
0.0089790747 0.059340384 0.4575724
0.012538425 0.057828672 0.45667171
0.017230742 0.057392836 0.45525107
0.022239981 0.057208713 0.45446259
0.027354635 0.057182714 0.45447886
0.03230413 0.057373125 0.45526123
0.036852382 0.057850376 0.45658824
0.040520549 0.059219256 0.4576166
0.0077979378 0.062731519 0.45657545
0.012070566 0.062136099 0.4545455
0.01639637 0.060991514 0.45345947
0.019816503 0.060171887 0.45304784
0.029718125 0.060090907 0.45308611
0.033205505 0.060990844 0.45346415
0.037500456 0.062180173 0.45453766
0.041746143 0.062679701 0.45659742
0.045042768 0.064895973 0.45794466
0.0040095579 0.067752719 0.45742226
0.0072149169 0.067317933 0.45529145
0.010734233 0.066736311 0.45346245
0.038748737 0.066683918 0.45344627
0.042366434 0.067462765 0.45527428
0.045569502 0.067821302 0.45742264
0.0034309775 0.072549567 0.4570227
0.0070974324 0.072281286 0.45445833
0.039599992 0.070408344 0.45302352
0.042461902 0.072434805 0.45445141
0.046027564 0.072377987 0.45696729
0.0035950281 0.077339582 0.45689562
0.0071113724 0.077429585 0.45444053
0.0098410137 0.079268508 0.45305604
0.039719727 0.079042308 0.45303002
0.042432699 0.07750161 0.45444614
0.045964684 0.077326819 0.45690608
0.0041042957 0.081909381 0.45730063
0.0072355252 0.082405075 0.45525885
0.010757785 0.083029799 0.45343989
0.038732219 0.083149858 0.45344588
0.042313311 0.08248046 0.45527911
0.045538574 0.081905559 0.45737627
0.007623978 0.087023631 0.4566662
0.012076458 0.087545358 0.45448616
0.016466178 0.088899449 0.45347738
0.020119589 0.089798801 0.45308003
0.029419627 0.089765206 0.45306349
0.033032335 0.088898867 0.45346591
0.037415955 0.08759506 0.4544791
0.041732896 0.087082468 0.45656547
0.04481601 0.085409053 0.45796579
0.0091027431 0.090655088 0.45761177
0.012626092 0.09190926 0.45658252
0.017254872 0.0924972 0.45529357
0.022204984 0.092551842 0.45443434
0.027309677 0.092498094 0.45439765
0.032322988 0.092469871 0.45528716
0.036938213 0.091922291 0.45659953
0.040536344 0.090521388 0.45758522
0.017791221 0.095655002 0.45736372
0.022396537 0.096150525 0.45694822
0.027169045 0.096111044 0.45691299
0.031598888 0.095676661 0.45734122
0.017758504 0.049271677 0.4622522
0.022378204 0.04889046 0.46170315
0.02708206 0.048870899 0.4617182
0.031683408 0.049273983 0.46221957
0.008653339 0.054014843 0.46199802
0.012486804 0.052655794 0.46092066
0.017009623 0.051715411 0.45984635
0.022228893 0.051115498 0.45926824
0.027376277 0.051187698 0.45920032
0.032415196 0.051742043 0.45977443
0.037032276 0.052755289 0.46080321
0.040931266 0.053969253 0.46206784
0.0039660521 0.058621086 0.46204057
0.007251963 0.057188638 0.46035558
0.01116459 0.055877481 0.45871559
0.038591452 0.055836476 0.45886484
0.04239656 0.057308719 0.46034163
0.045691755 0.058774769 0.46203798
-0.00023610517 0.06432192 0.46296656
0.002665123 0.062578619 0.4607985
0.0057273079 0.061215378 0.45877743
0.043884289 0.06139823 0.45872578
0.046912506 0.062539734 0.46084547
0.049827997 0.064553902 0.4629007
-0.00082524121 0.067850322 0.46222576
0.0015069898 0.067229718 0.45988882
0.047862224 0.067110412 0.45974702
0.05033119 0.06781438 0.46218953
-0.0012794323 0.072665729 0.46173698
0.00092653558 0.072251707 0.45933744
0.04855442 0.072266586 0.45927149
0.050793111 0.072430409 0.46172208
-0.00131437 0.077337071 0.46179476
0.0010226928 0.07744173 0.4592298
0.048562631 0.077407748 0.45926553
0.050832026 0.07734739 0.46176982
-0.00086703151 0.081742659 0.46220258
0.0016553514 0.082657821 0.45976952
0.047899328 0.082618617 0.45976123
0.050390013 0.081859469 0.46221352
0.0025959872 0.087203868 0.46085763
0.0057186093 0.088632628 0.45880365
0.043847017 0.088443011 0.45871395
0.046968468 0.087130554 0.46083003
0.049866188 0.085221484 0.46293163
0.0038047526 0.09111543 0.46214804
0.0072522983 0.092561111 0.46031004
0.011144575 0.093935415 0.45872578
0.038260907 0.093889989 0.4586142
0.042287156 0.092591763 0.46033275
0.045773789 0.090985097 0.46207765
0.0085289702 0.095866516 0.462165
0.012445213 0.096990682 0.46077919
0.017090656 0.098070733 0.45979342
0.022108382 0.098642215 0.45922828
0.027368788 0.098630205 0.45921057
0.032432541 0.09800604 0.45972455
0.03711598 0.097068921 0.4608607
0.040953338 0.095791601 0.46203899
0.014603791 0.099942051 0.46279001
0.01773499 0.10054703 0.46227384
0.02236543 0.10088592 0.46167073
0.027119562 0.10092334 0.46170896
0.031779252 0.10059492 0.46231461
0.034831777 0.099994995 0.46279907
0.023628308 0.044834539 0.46774712
0.026735269 0.044810474 0.46789455
0.0090137031 0.049441792 0.46745318
0.012586393 0.048502721 0.46600065
0.017334528 0.047157429 0.46543741
0.022202373 0.046351232 0.46533108
0.027309613 0.046377864 0.46528527
0.032308254 0.047125854 0.46552643
0.036865368 0.04848928 0.46594569
0.040510207 0.049497664 0.46734339
0.0038607884 0.054002371 0.46677601
0.0071378238 0.052257143 0.46540213
0.011173516 0.050599877 0.46398652
0.03838497 0.050605014 0.46399489
0.042361125 0.052265726 0.46534473
0.045729399 0.054025609 0.46680373
-0.00063614175 0.059388787 0.46712416
0.0021012239 0.05731811 0.4653849
0.0052360967 0.055367447 0.46363527
0.044257224 0.055320725 0.46362835
0.04756004 0.057375282 0.46547553
0.050293345 0.059198301 0.46749416
-0.0016237646 0.062827982 0.46591869
0.00062384456 0.061169989 0.46388537
0.048909314 0.061109744 0.46390978
0.051127508 0.062689692 0.465947
-0.0029928591 0.067384735 0.46550146
0.0525233 0.067404561 0.4654738
-0.0053317547 0.073487625 0.46783975
-0.0038101319 0.072346866 0.46537745
0.05331951 0.072463416 0.4652997
0.054848555 0.073318399 0.46778953
-0.0052971803 0.076333605 0.46777436
-0.0038118046 0.077476352 0.4653773
0.053355575 0.077504806 0.46537453
0.054870173 0.076175526 0.4678013
-0.0029887464 0.082421526 0.46549207
0.052534118 0.082361601 0.46546739
-0.0016546864 0.086984038 0.46596691
0.0005211141 0.088581249 0.46398085
0.049001716 0.088550024 0.46392265
0.051194578 0.087052517 0.46600202
-0.00072299317 0.090517655 0.46736383
0.0020626895 0.092474379 0.46541679
0.0052371211 0.094375968 0.46356785
0.044182479 0.094435275 0.46349594
0.047402442 0.092508525 0.4653458
0.050184548 0.090634726 0.46734238
0.0037670545 0.09574765 0.46682709
0.0071788505 0.097566612 0.4653804
0.011137176 0.099125244 0.46391022
0.038294792 0.099136785 0.46384311
0.042405427 0.09757746 0.46542799
0.045688882 0.095822737 0.46679839
0.0090001747 0.10031439 0.46738321
0.012599429 0.10131067 0.46600369
0.017220419 0.1026706 0.46552247
0.022225313 0.10350453 0.46540859
0.027340069 0.10344189 0.46529844
0.032229774 0.10263319 0.46541855
0.036971517 0.10130177 0.46600276
0.040400155 0.10044199 0.46744543
0.023680564 0.10499281 0.46777207
0.0257705 0.10501105 0.46781504
0.014160259 0.04469645 0.47234708
0.017607812 0.044162981 0.47120151
0.022324981 0.043732736 0.47047651
0.027281947 0.043697149 0.47057346
0.032036386 0.04419563 0.47117653
0.035408422 0.044705953 0.47234687
0.0077222008 0.048503086 0.47088262
0.012090343 0.046380222 0.47035873
0.01640309 0.045377634 0.46904045
0.020106049 0.044953324 0.46816695
0.032879602 0.045320913 0.46901339
0.037417021 0.046376415 0.47032514
0.041778687 0.048492141 0.47084263
-0.00035685487 0.054762393 0.47291851
0.0025655553 0.052740134 0.47078639
0.0056983251 0.050626442 0.46943668
0.043726955 0.050624974 0.46927056
0.046933852 0.052741647 0.47069591
-0.0015743487 0.05780283 0.47083685
0.00054884702 0.055827715 0.46934491
0.049012892 0.055894352 0.46928033
0.051165592 0.057834927 0.4708963
-0.0054364949 0.064258523 0.47238967
-0.003778331 0.062255695 0.47038278
0.053324111 0.062256634 0.4703835
0.054986522 0.064255148 0.47239572
-0.0059366357 0.067651667 0.47118303
-0.0047512241 0.066545673 0.46902144
0.054318815 0.06698893 0.46881968
0.055500977 0.067621611 0.47123992
-0.0064319558 0.072446078 0.47057858
-0.0051661152 0.07001584 0.46821645
0.055942263 0.072362982 0.4704892
-0.0064301938 0.077443086 0.47057465
-0.0051872395 0.079425074 0.46814388
0.05591017 0.077455625 0.4704099
-0.0059670135 0.081972629 0.47114751
-0.0047672484 0.083152264 0.46900848
0.054276466 0.083260514 0.4689768
0.05548998 0.082006149 0.47110614
-0.0054348093 0.085556433 0.47239158
-0.0037021525 0.087604582 0.4702673
0.053301342 0.087519482 0.47030318
0.054978646 0.085559256 0.47238919
-0.0015815627 0.092000775 0.47084546
0.0004902035 0.09389744 0.46934086
0.048982777 0.09398064 0.46931553
0.051165018 0.092001475 0.47092053
0.0026198719 0.097091362 0.47073218
0.005735239 0.099137075 0.46930748
0.043889023 0.099134296 0.46941116
0.046954118 0.097064637 0.47073585
0.0077203419 0.1013061 0.47088867
0.01206768 0.10343274 0.4703871
0.016618207 0.10444363 0.46895638
0.020172797 0.10488673 0.468211
0.029582717 0.1047874 0.468077
0.033156246 0.10443094 0.46905077
0.037456274 0.10341227 0.47031936
0.041851029 0.10128277 0.47086325
0.014122305 0.10508098 0.47230953
0.01747657 0.10562696 0.47124481
0.022323342 0.10603275 0.4703747
0.02730347 0.10606054 0.47046146
0.031914353 0.10566281 0.47123718
0.035336178 0.10514256 0.47238967
0.012905748 0.044180039 0.47588149
0.017238161 0.042950206 0.4754642
0.022324163 0.042159982 0.4754774
0.027309308 0.04217108 0.4754642
0.032373875 0.042956654 0.47549757
0.036612235 0.044203654 0.47573668
0.0040751938 0.049203485 0.47608939
0.0073029026 0.047100171 0.47554708
0.010757684 0.045378629 0.47471109
0.038785595 0.045397848 0.47464803
0.042309444 0.047152471 0.47552323
0.045654252 0.049295425 0.4762758
-0.00089385919 0.054144002 0.47613809
0.0016044732 0.05169538 0.47532663
0.047936104 0.051712882 0.4752453
0.050365794 0.054154173 0.47584501
-0.00294994 0.057350218 0.47543114
0.052454188 0.057252571 0.4755199
-0.0059474707 0.063026384 0.4758876
-0.0047865175 0.060954466 0.47473368
0.054314729 0.060846902 0.47483978
0.055527814 0.063102312 0.47588432
-0.0071936641 0.067430511 0.47547284
0.05674202 0.067381836 0.47552627
-0.0079790298 0.072386615 0.47552824
0.057511955 0.072352976 0.47549203
-0.0079820435 0.077340394 0.47554088
0.057505794 0.077378497 0.47544467
-0.0071781967 0.082466044 0.47549537
0.056737982 0.082393609 0.47547257
-0.0059717055 0.086669497 0.47579929
-0.0047626551 0.08890333 0.47473735
0.054340098 0.088782273 0.47462878
0.055525813 0.086645074 0.47580618
-0.002978269 0.092428684 0.47548583
0.052551411 0.092403397 0.47552487
-0.00085295364 0.095622003 0.47589087
0.0016006958 0.098075643 0.47524002
0.047960617 0.098089918 0.4753072
0.050465401 0.095626265 0.4761211
0.0040376093 0.10055368 0.47599894
0.0072848387 0.10267584 0.47547656
0.010733295 0.10444924 0.47482657
0.038836211 0.1044355 0.47484338
0.04230671 0.10262179 0.47537458
0.045554616 0.10053094 0.47605518
0.012890351 0.10561857 0.47586766
0.017262734 0.10686534 0.47547337
0.022376826 0.10765693 0.4755092
0.027262976 0.10763605 0.47543785
0.032313377 0.10686599 0.47550893
0.036478102 0.10568465 0.47583938
0.0095824227 0.044802353 0.48190761
0.012216298 0.043743178 0.48054543
0.017289175 0.042155411 0.48049629
0.022287 0.041400991 0.48052123
0.027250325 0.041400954 0.48052776
0.032293562 0.042165753 0.48048091
0.037351239 0.04376315 0.48042035
0.039977416 0.044813666 0.48169255
0.0035278704 0.048863187 0.48045063
0.0071342234 0.046322145 0.48049212
0.0098539935 0.044961866 0.47856122
0.039671801 0.045027129 0.47806469
0.042451829 0.046343774 0.48053369
0.046048135 0.048866633 0.48063517
-0.0012481604 0.053602807 0.48071483
0.0010341145 0.051134013 0.48032361
0.04862275 0.05123274 0.48040524
0.050831325 0.05366046 0.4805873
-0.0052921697 0.059634794 0.48185557
-0.0037809648 0.057227802 0.48046848
0.05333177 0.057228308 0.48046663
0.054883558 0.05973345 0.48172686
-0.0064050108 0.062402893 0.48047426
-0.0051915608 0.060001731 0.47866794
0.054712769 0.060042702 0.47833389
0.055941876 0.062401056 0.48040989
-0.0079518761 0.067328081 0.48048431
0.057514593 0.067391157 0.48047742
-0.0087276157 0.072445244 0.48047295
0.058269344 0.072315216 0.48051038
-0.0087318253 0.077423088 0.48056018
0.058281831 0.077412941 0.48057801
-0.0079805721 0.082359806 0.48050818
0.057519481 0.08242429 0.48057154
-0.0064258073 0.087351263 0.48049814
-0.0051908568 0.089783639 0.47858325
0.054715391 0.089846119 0.47864085
0.055911239 0.087492257 0.48047116
-0.0053217411 0.090062894 0.48140341
-0.0037902631 0.092557579 0.48042396
0.053310208 0.092613086 0.48047024
0.054871157 0.090098329 0.48165974
-0.0012473259 0.096198156 0.48066586
0.0010130517 0.098662823 0.48039615
0.048504248 0.09868978 0.48036933
0.050849326 0.096131518 0.48066035
0.0034673437 0.10091029 0.48059395
0.0070662163 0.10343263 0.48040006
0.039600901 0.10487564 0.4784351
0.042453803 0.10344565 0.48035792
0.046006035 0.10097261 0.48063713
0.0095673651 0.10499629 0.48174107
0.012325509 0.10609435 0.48041573
0.017226763 0.10763332 0.48042527
0.022264609 0.10841008 0.48058459
0.027236819 0.10840214 0.48047441
0.032226961 0.10766384 0.48055869
0.037234247 0.10610323 0.48064643
0.039929871 0.10502079 0.48162946
0.0096761296 0.044802975 0.48503202
0.012322078 0.043704435 0.48549658
0.017220896 0.042176314 0.48553726
0.022295808 0.041401953 0.48552766
0.027191803 0.041407544 0.48561835
0.032222793 0.042144116 0.48545271
0.037279036 0.043725576 0.48545352
0.03999944 0.044835217 0.48446086
0.0035400316 0.048849057 0.4855164
0.0071923397 0.046287484 0.48551732
0.010048656 0.044947006 0.48798126
0.039544865 0.044939928 0.48779258
0.042411529 0.046327848 0.48557737
0.046080567 0.04889784 0.48542908
-0.0012631174 0.053653352 0.485576
0.001002064 0.051134095 0.48540592
0.048510589 0.051120199 0.48559746
0.050817192 0.053641967 0.48542574
-0.0053005498 0.059706032 0.48469836
-0.0037535392 0.05717627 0.48551244
0.053353198 0.057269514 0.48554263
0.054883078 0.059705667 0.48400193
-0.0064334311 0.062456653 0.48538938
-0.005130915 0.059991922 0.4877207
0.054766029 0.060232129 0.48792371
0.055955678 0.06240404 0.48545605
-0.007973237 0.067423955 0.48551697
0.057517454 0.067399435 0.48547366
-0.0087266434 0.072403453 0.48550254
0.058281228 0.072494812 0.4855493
-0.0087234583 0.077516928 0.48543745
0.058271505 0.077414148 0.48553705
-0.0079800393 0.082357414 0.48551887
0.057531491 0.082390927 0.48540643
-0.0064500012 0.087292217 0.48550463
-0.0051587168 0.089772791 0.4876821
0.054631177 0.089856386 0.48789775
0.055947207 0.087419085 0.48545972
-0.0053224731 0.09004724 0.4847118
-0.0038138814 0.092524245 0.48560601
0.053334873 0.09256798 0.48557541
0.054862112 0.090136215 0.48401579
-0.0013042353 0.096122719 0.48538494
0.0010391138 0.098696336 0.48556146
0.048547976 0.098639742 0.48564899
0.05076053 0.096238896 0.48536316
0.0034948848 0.10093328 0.48541892
0.0071698874 0.103511 0.48547825
0.039663203 0.10481863 0.48773897
0.04243847 0.10346467 0.48557624
0.046026483 0.10095565 0.48540547
0.0096140821 0.10501856 0.48430112
0.012204517 0.10606051 0.48543185
0.017170137 0.1076223 0.48553035
0.022276159 0.10839938 0.48558742
0.027410068 0.10839359 0.48552161
0.032285221 0.10764174 0.48555169
0.037253097 0.10608472 0.48556849
0.040017873 0.1049591 0.48443761
0.012994288 0.044152379 0.49016762
0.017270613 0.042943992 0.49053723
0.022254504 0.042157229 0.4905
0.027326463 0.042171836 0.49054375
0.032318354 0.042946819 0.49051523
0.036527041 0.044143636 0.49017626
0.0040530227 0.049228586 0.48995671
0.0073002242 0.047147982 0.490621
0.010832667 0.045355469 0.49134019
0.038769528 0.045375776 0.49131578
0.042314835 0.047155496 0.49049029
0.045635633 0.049322687 0.48990345
-0.0008761324 0.054133959 0.48988128
0.0016305204 0.051661052 0.49065262
0.047933966 0.051690608 0.49070027
0.050353266 0.054001637 0.48977271
-0.0029181484 0.05730838 0.49058339
0.052505907 0.057358041 0.49053836
-0.0059475917 0.06307254 0.49018979
-0.0047352314 0.060901776 0.49137032
0.054325849 0.060948957 0.49130169
0.055487789 0.063043982 0.49019179
-0.0072043668 0.067431025 0.49050596
0.05673445 0.0674337 0.49056634
-0.0079644416 0.072433017 0.49053797
0.057509989 0.072377689 0.49053481
-0.0079716649 0.077425763 0.49049547
0.05749806 0.07738512 0.49059391
-0.0071837772 0.082462132 0.49050644
0.056739151 0.082494095 0.49044138
-0.0059264395 0.086804986 0.49016744
-0.0047587827 0.088936009 0.49125639
0.054297179 0.088964991 0.49123007
0.055503752 0.08671391 0.49020955
-0.002994325 0.092393912 0.49053714
0.052471772 0.092507936 0.49053323
-0.00084838457 0.095619828 0.49014577
0.0015527196 0.098031729 0.4907667
0.047913395 0.098122299 0.49074945
0.050350703 0.095745914 0.48996022
0.0040440597 0.10053965 0.49005771
0.0072961226 0.10270383 0.49046481
0.010764703 0.10445898 0.49119452
0.03885771 0.10442773 0.49115941
0.042374603 0.10259582 0.49057165
0.04558247 0.10050911 0.48994228
0.012987019 0.10564651 0.49018586
0.017233538 0.10684147 0.49061108
0.022346547 0.10764503 0.49053717
0.027260747 0.10764949 0.49050552
0.032228582 0.10687983 0.49053216
0.036609791 0.10562713 0.49018741
0.014184385 0.044665188 0.4935936
0.017619729 0.044185665 0.49486935
0.022273075 0.043725438 0.49551082
0.027185393 0.04371962 0.49550405
0.031910148 0.044188872 0.49489543
0.035391234 0.044688083 0.49362025
0.0077174529 0.048551515 0.49522999
0.011981173 0.046425119 0.49564457
0.016344015 0.045375016 0.49693406
0.029769862 0.045022313 0.49787477
0.033020187 0.045364656 0.49702156
0.037425578 0.046373747 0.49567953
0.041820765 0.048536126 0.49520335
0.044888355 0.049762286 0.49311864
0.002558969 0.052772477 0.49526826
0.0058304686 0.050623596 0.49674946
0.043846242 0.050642148 0.4966034
0.046932135 0.052797332 0.49540806
-0.0016046353 0.057843037 0.49515671
0.00061011128 0.055876184 0.49684733
0.049091786 0.055882733 0.49657643
0.051157206 0.057830252 0.49513501
-0.0054309983 0.064427897 0.49379969
-0.0037471168 0.062210519 0.4956499
0.053319249 0.062204383 0.4955855
0.055003785 0.064437315 0.4937374
-0.0059656389 0.067799918 0.4948405
-0.0047326069 0.066559821 0.49702847
0.054315247 0.066690937 0.49703106
0.05550433 0.067792021 0.49487549
-0.006402133 0.072374329 0.49549848
-0.0050951652 0.069962882 0.49791813
0.055950917 0.072377332 0.4955042
-0.0063971151 0.077463895 0.49550685
-0.0051160716 0.079698391 0.49792475
0.054741532 0.079618528 0.4977949
0.055947639 0.077336818 0.49552882
-0.0059658103 0.082199655 0.49473074
-0.0047904514 0.083148874 0.49696428
0.05433096 0.083209909 0.49693778
0.055458054 0.082104422 0.49493396
-0.0054354183 0.085607827 0.49356037
-0.0037439633 0.087549694 0.49570566
0.053329378 0.087496258 0.49567187
0.054972976 0.085482284 0.4937211
-0.0016264394 0.091947056 0.49514681
0.00057694316 0.094024688 0.4966453
0.049058095 0.093937188 0.49661329
0.051217731 0.09191481 0.49509493
-0.00027270801 0.095015556 0.49335754
0.0025772974 0.097035974 0.49531865
0.0056517292 0.09910854 0.49662882
0.043875717 0.099079534 0.49672055
0.046884649 0.097138785 0.49527335
0.0045713205 0.099923179 0.49324858
0.007552607 0.10118017 0.49515688
0.012061249 0.10341235 0.49565268
0.016375862 0.10444653 0.49692786
0.029673176 0.10480854 0.49786091
0.03308586 0.10445456 0.49695596
0.037503961 0.10340229 0.49566722
0.041830584 0.10128349 0.49517128
0.014203885 0.10511863 0.4936839
0.017532321 0.10564034 0.49476743
0.022282904 0.10607236 0.49553591
0.027301224 0.1060991 0.4954547
0.032051787 0.1056323 0.49475837
0.0354807 0.10506205 0.49370855
0.023594545 0.044784892 0.49814624
0.026892336 0.044851422 0.49820757
0.0090718921 0.049515832 0.49873728
0.012616014 0.048513547 0.50004828
0.017317846 0.047151454 0.50055194
0.022170445 0.046348769 0.50067246
0.027286543 0.046341568 0.50067472
0.032310698 0.047165282 0.50054264
0.036816753 0.048424941 0.49999654
0.04050792 0.049478285 0.49863857
0.0037831552 0.053951476 0.49906456
0.0071611013 0.052264333 0.50063848
0.011222034 0.050677039 0.50215024
0.038365595 0.050613306 0.50204057
0.042418383 0.052238017 0.50056803
0.045732953 0.05405432 0.49924284
-0.00064801238 0.059240222 0.49871987
0.0021031369 0.05735391 0.50066
0.0053181201 0.05551672 0.50260729
0.044271864 0.055432789 0.50248224
0.047465101 0.05730572 0.50058913
0.050260205 0.059334867 0.49870762
-0.0016145092 0.062735386 0.50004876
0.00046829879 0.061392825 0.50208342
0.049065832 0.061398491 0.50209892
0.051143378 0.062755115 0.50008345
-0.0029678829 0.067397505 0.50055194
0.052522272 0.067372806 0.50053191
-0.0053282455 0.073341787 0.49815843
-0.0038258638 0.072362959 0.50060737
0.053373985 0.072308756 0.50059891
0.054892309 0.073198937 0.4981223
-0.0053488519 0.076154068 0.49815205
-0.0037881266 0.077364087 0.50068039
0.05327566 0.077414624 0.50077105
0.054872699 0.07603696 0.49821046
-0.0030122977 0.082369886 0.50049216
0.052520275 0.082419246 0.50054431
-0.0016474351 0.087016158 0.50003707
0.0005532112 0.088607512 0.50205928
0.049082238 0.088423833 0.50206882
0.0511568 0.087117359 0.50001639
-0.00072058849 0.090428948 0.49873671
0.0020374488 0.092444152 0.50058758
0.0053108875 0.09448126 0.50240678
0.044273041 0.094231874 0.50262189
0.047471222 0.092471823 0.50060827
0.050230507 0.090507969 0.49872068
0.0038098712 0.095765457 0.49921939
0.0072183479 0.097583391 0.50065178
0.011108582 0.099160366 0.50203043
0.038408048 0.099199966 0.50200301
0.042388551 0.097522818 0.50067133
0.045607351 0.09590856 0.49920589
0.0089816656 0.10026269 0.49868983
0.012533328 0.10130288 0.4999716
0.01725604 0.10267774 0.50049758
0.022221349 0.10352717 0.5005722
0.027364206 0.10348248 0.50063467
0.032260269 0.10262904 0.50058711
0.03689133 0.10133673 0.50001132
0.040471226 0.1002961 0.49872905
0.022748474 0.1049624 0.49817815
0.025755484 0.10505854 0.49811596
0.014567298 0.049789548 0.50310695
0.018020822 0.04924104 0.50380254
0.022409236 0.048842296 0.50425303
0.027200429 0.048869036 0.50427461
0.031684633 0.049315035 0.5038442
0.034864862 0.049671575 0.50301886
0.0085269399 0.05405207 0.50394928
0.012459259 0.052721828 0.5051468
0.016997971 0.051655658 0.50610042
0.022115797 0.051123321 0.50673681
0.027317984 0.051158868 0.50678843
0.032487486 0.051704355 0.50617146
0.037003919 0.052720785 0.50519311
0.040948618 0.053954437 0.50390834
0.0039060041 0.058695696 0.50396919
0.00709939 0.057279773 0.50560898
0.011229963 0.055814508 0.50727534
0.038383409 0.055889271 0.50730377
0.042481914 0.057367489 0.50564915
0.045700029 0.058662169 0.50387919
-0.00024145842 0.064855903 0.50330979
0.0026645139 0.062663764 0.50525606
0.0058067236 0.061183378 0.50727534
0.043839455 0.061279085 0.50725996
0.046941966 0.062620841 0.50517166
-0.00083604455 0.068039648 0.50383717
0.0015720315 0.067264609 0.50619686
0.047948893 0.067247093 0.50621426
0.050446782 0.068072148 0.5037688
-0.0013015568 0.072520263 0.50423259
0.0010096729 0.072401367 0.50676942
0.048529461 0.072352536 0.50677401
0.050839841 0.072519436 0.50424004
-0.0012658853 0.077337503 0.50426728
0.00099781714 0.077520005 0.50674945
0.048565872 0.077509969 0.50673503
0.050755307 0.077318437 0.50433648
-0.00082847103 0.081982255 0.50377101
0.0015659817 0.082614809 0.50616491
0.047971144 0.082539015 0.50620294
0.050406601 0.081839956 0.50378448
-0.00026343949 0.085160717 0.50317729
0.002681097 0.087124236 0.50528598
0.0058120377 0.088655382 0.50726354
0.043878868 0.088539504 0.50721711
0.046904951 0.087178446 0.50521803
0.049801931 0.085359059 0.50308734
0.003815975 0.091153428 0.50383973
0.0071885157 0.092609912 0.50561535
0.011152105 0.093947887 0.50727338
0.038343184 0.093996271 0.50726521
0.042382628 0.092443928 0.50572288
0.045650534 0.091203772 0.50388563
0.0085688122 0.09588901 0.5038501
0.012466772 0.097060867 0.50517064
0.017123027 0.098147899 0.50614595
0.022239765 0.098686978 0.50674844
0.027393259 0.098724037 0.50670356
0.032551773 0.098047331 0.50620914
0.037044216 0.097098701 0.50515342
0.040923029 0.095887356 0.50389832
0.014192308 0.099944785 0.50300533
0.017947387 0.10052867 0.50383312
0.022515884 0.10099959 0.50422275
0.027163243 0.1009111 0.50431728
0.031521652 0.10053499 0.5038529
0.034901973 0.1000694 0.50308335
0.014687113 0.054700129 0.50808597
0.017869158 0.054036506 0.50857443
0.022412239 0.053610425 0.50902754
0.027174195 0.053623635 0.5090335
0.031759948 0.054114711 0.50862092
0.035102718 0.054750592 0.50802726
0.00904423 0.05916594 0.50836945
0.012530542 0.057881933 0.50936848
0.017315464 0.057313263 0.51073503
0.022145363 0.057245333 0.51156241
0.027384605 0.057256233 0.51157194
0.03231838 0.057291113 0.51069319
0.036932349 0.05788102 0.50940949
0.040488597 0.059201218 0.50839996
0.0077580363 0.062705718 0.50939488
0.012126796 0.062266462 0.51154923
0.016524022 0.061023377 0.51260161
0.020093387 0.059919935 0.51288116
0.029253855 0.059953675 0.51292896
0.033036362 0.06096936 0.51257432
0.037478823 0.062203705 0.51149374
0.041781601 0.062693045 0.50939381
0.044793762 0.064604454 0.50814718
0.0040441174 0.067911625 0.50866544
0.0071945414 0.067310646 0.51070207
0.010683581 0.06668622 0.51251471
0.038808376 0.066814691 0.51257938
0.042323809 0.067405336 0.51074606
0.045504719 0.067959398 0.50866801
0.0035895929 0.072476648 0.50910854
0.0071682353 0.072299331 0.51160026
0.039663423 0.069983721 0.5128898
0.042394776 0.072310545 0.51158673
0.046032876 0.072599001 0.5090611
0.003446823 0.077164017 0.5090093
0.0071546659 0.077397823 0.51159835
0.00990084 0.079640575 0.51292688
0.0422711 0.077379055 0.51167691
0.046015613 0.077272445 0.50906783
0.0039800555 0.081820756 0.50862962
0.0071831401 0.082393855 0.51072574
0.010743287 0.083186507 0.51252383
0.038720783 0.083253652 0.51254153
0.042301312 0.082344905 0.51077455
0.045501098 0.081951872 0.50864673
0.0046118833 0.085047871 0.50809664
0.0077084657 0.087090865 0.50937152
0.012084769 0.0874715 0.51156282
0.016581748 0.088973805 0.51252699
0.020081118 0.089710921 0.512968
0.028958399 0.089883044 0.51295763
0.033010386 0.088901721 0.51255298
0.037301298 0.087580428 0.51158571
0.041849777 0.087064549 0.5093711
0.0090430435 0.090600222 0.50839537
0.012641123 0.091959134 0.50939971
0.017212447 0.092525579 0.51068711
0.022147795 0.092557281 0.51156735
0.02723177 0.092575669 0.51156819
0.032328226 0.092478082 0.51071781
0.037003241 0.091912761 0.50938636
0.040580686 0.090599343 0.50835067
0.017751414 0.095694125 0.50860405
0.022308115 0.096128389 0.50907165
0.027123209 0.096227042 0.50900364
0.031750109 0.095656417 0.50864613
0.034915101 0.094974197 0.50817162
0.023773693 0.059737869 0.51312923
0.026001131 0.059644185 0.51307505
0.014036817 0.064400673 0.51322305
0.017607098 0.063096344 0.51374274
0.022215225 0.06239111 0.51417488
0.027147096 0.062402248 0.51419246
0.031946849 0.063113131 0.51374942
0.035260893 0.064117387 0.51321083
0.012959694 0.067740075 0.51373792
0.017301533 0.067400821 0.51498568
0.022240657 0.06739796 0.51574337
0.027260642 0.067418225 0.51575327
0.032260563 0.067461357 0.51499736
0.036579017 0.067732863 0.51374286
0.0095542204 0.073403977 0.51308364
0.012177433 0.072413862 0.51414376
0.017206497 0.072404772 0.51573294
0.022167202 0.072431758 0.51650023
0.02727217 0.072365753 0.51650095
0.032263152 0.072412461 0.5157522
0.037243851 0.072347581 0.51418972
0.039944258 0.073195562 0.51308739
0.0095944712 0.075748995 0.51313132
0.012216737 0.077413313 0.51416111
0.017236354 0.077367917 0.51574558
0.022287099 0.07739868 0.51650488
0.027330484 0.077464156 0.51649833
0.032360777 0.077449888 0.51572847
0.037318923 0.077441119 0.51416147
0.039910659 0.076364346 0.5131222
0.012993205 0.082053594 0.51375669
0.017192125 0.082395352 0.51496106
0.02233422 0.082517661 0.51572895
0.027340107 0.082386188 0.51574695
0.032375023 0.082456626 0.51493895
0.036593799 0.082045808 0.51374519
0.014117843 0.085562661 0.51319617
0.017551685 0.086708434 0.5137279
0.022346862 0.087434001 0.51417935
0.027260453 0.087377071 0.51419395
0.031950943 0.086754575 0.51372302
0.035488531 0.085434645 0.51322174
0.023271045 0.090069294 0.51309919
0.026204608 0.090078667 0.51310164
