# .PCD v0.7 - Point Cloud Data file format
VERSION 0.7
FIELDS x y z
SIZE 4 4 4
TYPE F F F
COUNT 1 1 1
WIDTH 1294
HEIGHT 1
VIEWPOINT 0 0 0 1 0 0 0
POINTS 1294
DATA ascii
0.1329886 -0.064995609 0.51600695
0.13473301 -0.063281566 0.51500028
0.13843523 -0.060034201 0.51412261
0.14209674 -0.056762826 0.51325005
0.14573684 -0.05339608 0.51251054
0.14939176 -0.05009561 0.51167554
0.15302154 -0.0468277 0.51088041
0.15691461 -0.043504756 0.50990945
0.16051316 -0.040094625 0.50920671
0.16420825 -0.036947459 0.50830662
0.16773225 -0.033803757 0.50747895
0.17019247 -0.031678569 0.50711989
0.13084583 -0.061689727 0.51937807
0.13254139 -0.059802942 0.51867592
0.13624638 -0.05661767 0.517766
0.13989735 -0.053462937 0.51687902
0.14358041 -0.050100662 0.51609355
0.14735115 -0.046839431 0.51517934
0.15108155 -0.043755859 0.51418811
0.1547372 -0.040313646 0.51347226
0.15840021 -0.036948413 0.51270396
0.16212259 -0.03385175 0.51172686
0.1657452 -0.030574374 0.5109362
0.16838545 -0.028771989 0.51044917
0.12908909 -0.058856465 0.52261221
0.13061772 -0.056823313 0.52196413
0.13417178 -0.053562194 0.52121621
0.13791449 -0.050346412 0.52029586
0.14174509 -0.04706056 0.51935065
0.14536914 -0.043832541 0.51852888
0.14895329 -0.040659253 0.51770455
0.15274434 -0.03727223 0.51685113
0.15645342 -0.034068383 0.51594937
0.1600557 -0.030788638 0.51517582
0.16391867 -0.027557127 0.51417267
0.16626769 -0.025443338 0.51400101
0.12705046 -0.05567551 0.52595627
0.12863956 -0.053878773 0.52527285
0.13216272 -0.050460435 0.52464426
0.13581853 -0.047295272 0.5237599
0.13985676 -0.044063967 0.52262205
0.14339146 -0.040601179 0.52201158
0.14701428 -0.037522245 0.52110016
0.15083317 -0.034183443 0.52019608
0.15448828 -0.030987933 0.51933068
0.15798862 -0.02766718 0.51866031
0.1619221 -0.024392329 0.51762938
0.16448061 -0.02237745 0.51730889
0.12500422 -0.052393202 0.52965504
0.12669665 -0.05072017 0.52868456
0.13041383 -0.047202408 0.52796739
0.13409752 -0.043996304 0.5270865
0.13770497 -0.040914513 0.52618861
0.14134964 -0.037580676 0.52541536
0.14501262 -0.034485232 0.52448314
0.14882885 -0.031202182 0.52354723
0.15230286 -0.027936235 0.52286375
0.15618974 -0.024570122 0.52192402
0.1600645 -0.021139741 0.52103269
0.16228351 -0.019134946 0.52077717
0.12324431 -0.049627185 0.53261828
0.12479448 -0.047474675 0.53211784
0.1284273 -0.044278309 0.53127015
0.13201728 -0.040973637 0.53052109
0.13574921 -0.03755977 0.52972943
0.13932912 -0.034510426 0.52883303
0.1431338 -0.031396627 0.52780312
0.14683847 -0.027894624 0.5270859
0.15059449 -0.024661236 0.52616608
0.15432149 -0.021525323 0.52520931
0.15770069 -0.018342651 0.52454805
0.16013874 -0.016028471 0.52433485
0.12117201 -0.046364021 0.53613108
0.12274742 -0.044563986 0.53545892
0.12627442 -0.041212611 0.53478664
0.12998444 -0.037989974 0.53389561
0.13369662 -0.034529291 0.53314757
0.13759807 -0.031436615 0.53203046
0.14105499 -0.028037056 0.53144133
0.14498134 -0.024682932 0.53046405
0.14873299 -0.021527097 0.52950042
0.15238936 -0.018244177 0.52868718
0.15599771 -0.01515957 0.52779037
0.15834878 -0.012850486 0.52763516
0.11906551 -0.042966973 0.54000801
0.12078913 -0.041419487 0.53887391
0.12445073 -0.037798554 0.53826207
0.12808818 -0.034682393 0.53736204
0.13182895 -0.031479515 0.53643537
0.13546287 -0.028347336 0.53554779
0.1392373 -0.024932273 0.53472424
0.14296517 -0.021653786 0.53385341
0.1466209 -0.018445536 0.53299528
0.15047908 -0.015188023 0.53201163
0.15417188 -0.011904977 0.53117049
0.15669544 -0.0099852234 0.53087157
0.11710299 -0.039856486 0.54341197
0.11873341 -0.038206141 0.54240555
0.12248737 -0.034970112 0.54148889
0.12630357 -0.031719916 0.54053301
0.12991917 -0.028383806 0.53978348
0.13366577 -0.025114186 0.53889287
0.13731338 -0.021939129 0.53802079
0.14114431 -0.018491261 0.53717381
0.14471208 -0.015290774 0.5363785
0.14834327 -0.012174852 0.53548318
0.15205173 -0.0088926405 0.53462952
0.15450823 -0.0068226382 0.53428602
0.11506093 -0.036705881 0.54662502
0.11679797 -0.035201892 0.54571778
0.12050087 -0.03181868 0.54492974
0.124135 -0.028649606 0.5440644
0.12789713 -0.025287084 0.54321837
0.1316193 -0.022251271 0.54220444
0.13532266 -0.018943824 0.54137003
0.13903712 -0.015539333 0.54058611
0.14263515 -0.012313291 0.53978312
0.1463435 -0.0090683699 0.53890687
0.15019281 -0.0056652874 0.53801852
0.15260392 -0.0035909638 0.53785014
0.11333359 -0.033848032 0.55008054
0.11489026 -0.03206414 0.54908979
0.11847793 -0.028647356 0.54841071
0.1221185 -0.02552354 0.54751295
0.12584925 -0.022273097 0.54662287
0.12982586 -0.018928885 0.54560089
0.13336664 -0.015875652 0.54473692
0.13693734 -0.012302808 0.54416567
0.14070581 -0.009180814 0.54316854
0.14432549 -0.0058373734 0.54242033
0.14808613 -0.002693437 0.54144257
0.15053548 -0.00042359531 0.54136205
0.111416 -0.030766051 0.55356991
0.11274629 -0.029109456 0.55253202
0.11651041 -0.025577091 0.55178767
0.12007205 -0.02248295 0.55093247
0.12382679 -0.019118764 0.55009311
0.12777458 -0.015893951 0.54902077
0.13138844 -0.012495719 0.54831028
0.1350233 -0.0091421679 0.54755646
0.13876107 -0.00612811 0.54651737
0.14240724 -0.0028381646 0.54571629
0.14614952 0.00040334463 0.5448119
0.14879939 0.0023122653 0.54438436
0.10924812 -0.027437817 0.55691785
0.11090218 -0.025992423 0.55584264
0.11463515 -0.022553682 0.55506527
0.11844443 -0.019289903 0.55412298
0.12208565 -0.015932053 0.55336696
0.12581261 -0.012749702 0.55243838
0.1294302 -0.0096690357 0.55153203
0.13305688 -0.0062279776 0.55083776
0.13688663 -0.0027328059 0.5500204
0.1405507 0.00021187961 0.54899567
0.1443045 0.0036781728 0.54821908
0.14666533 0.0054809749 0.5478273
0.10744575 -0.024565663 0.56010324
0.10912449 -0.022524357 0.55931556
0.11284756 -0.019321233 0.5584026
0.11624004 -0.016160689 0.55771768
0.11992206 -0.012980595 0.5568223
0.12369968 -0.0096578524 0.55594015
0.12748668 -0.0062870234 0.55508006
0.1312615 -0.0031220764 0.55410415
0.13486558 0.00028136373 0.55340433
0.13865237 0.0034271479 0.55240762
0.14213967 0.0067602843 0.55175477
0.14478144 0.0085093156 0.55114651
0.10550048 -0.021466926 0.56353694
0.10685834 -0.019825503 0.56269616
0.11064803 -0.016404845 0.56186426
0.11431074 -0.013074756 0.56107485
0.11809191 -0.009724088 0.56020695
0.12167673 -0.0066827312 0.55930191
0.12545414 -0.0033440515 0.5584296
0.12908338 -3.7558377e-05 0.55765152
0.13284752 0.0031279176 0.5566842
0.13644356 0.0064838529 0.55596167
0.14025944 0.0098544955 0.55507922
0.14269733 0.011906736 0.55480313
0.10335305 -0.01815208 0.56692219
0.10523541 -0.016454145 0.5659914
0.10872041 -0.013135143 0.56533176
0.11250399 -0.0098506361 0.56442183
0.11604357 -0.0065023527 0.56373805
0.11980373 -0.0036500022 0.56258345
0.12349547 -0.00045075268 0.56169218
0.12706469 0.0030057281 0.56105137
0.13097127 0.0064671859 0.5601545
0.13452685 0.0095471814 0.55929542
0.13814163 0.01302994 0.55863553
0.140797 0.014824197 0.55793202
0.10143825 -0.015142202 0.57014781
0.10325065 -0.013258241 0.56945801
0.10682482 -0.010250196 0.56854087
0.11041594 -0.006787993 0.56788671
0.11418753 -0.003580384 0.56693923
0.11811332 -0.0002438277 0.5659517
0.12175076 0.0029950142 0.56512624
0.12535724 0.0063401759 0.56438917
0.12898706 0.0095077604 0.56352627
0.13284573 0.013044968 0.56271219
0.13620205 0.015922479 0.56188303
0.13888992 0.017884806 0.56134444
0.099789694 -0.012438461 0.57335484
0.10126896 -0.010169797 0.5728569
0.10491193 -0.0069212392 0.57203305
0.10872716 -0.0035439283 0.57115519
0.1122475 -0.00027187169 0.57043988
0.11588536 0.0029312596 0.56959236
0.11982456 0.0062398091 0.56857753
0.12331002 0.009437412 0.56784374
0.12686713 0.012525104 0.56698811
0.13072035 0.015597865 0.56589597
0.13443986 0.019150682 0.5651983
0.13690351 0.020982824 0.56477028
0.097524971 -0.0088750049 0.57718337
0.099194132 -0.0071390271 0.57629228
0.10282028 -0.0038022324 0.575535
0.10662827 -0.00076811016 0.57445413
0.11022975 0.0026792884 0.57378304
0.11404335 0.0058661401 0.57279068
0.11762378 0.0092012286 0.5720675
0.12127987 0.012379572 0.57119095
0.12506863 0.015635662 0.57025975
0.128832 0.018930867 0.56937182
0.1324123 0.022138536 0.56857127
0.13519387 0.024019986 0.56797338
0.095704861 -0.005935654 0.58054912
0.097246788 -0.0041678473 0.57959348
0.10078245 -0.00087149441 0.57888114
0.10454059 0.0022879988 0.57791477
0.10840514 0.0057255328 0.57703561
0.11188208 0.0089456365 0.57632208
0.11562303 0.01242353 0.57556236
0.11946109 0.015580073 0.57453281
0.12303676 0.018657431 0.57365668
0.12677035 0.022084422 0.57287169
0.13032074 0.025261253 0.57207537
0.1330049 0.027155027 0.57148677
0.093727827 -0.0028051287 0.58396685
0.09520328 -0.00088313967 0.58315915
0.099041387 0.0023410842 0.58217067
0.10271989 0.0058016181 0.58144838
0.10636158 0.0086716413 0.58039558
0.11021491 0.012302473 0.57964247
0.1137455 0.015525654 0.57888961
0.11759567 0.018625371 0.57781619
0.12112082 0.021902516 0.57710022
0.12486607 0.0252368 0.57624996
0.12841268 0.02839002 0.57544225
0.13114619 0.030259386 0.57494688
0.091760859 0.00031003356 0.58736944
0.093437657 0.0022110566 0.58639556
0.096850321 0.0053544417 0.58568478
0.10072621 0.0086504593 0.5847109
0.10446054 0.011924848 0.58383262
0.10808104 0.0153348 0.58312416
0.11175337 0.018460914 0.58220339
0.11539495 0.021710344 0.5813812
0.11922091 0.025135309 0.58052403
0.12272149 0.028400257 0.57981956
0.12655278 0.031506822 0.57876486
0.12907636 0.03352467 0.57839215
0.0896184 0.0036636442 0.59092456
0.09131255 0.0052753836 0.58989
0.094936311 0.0085316449 0.58908558
0.09849225 0.011688702 0.58827305
0.10238245 0.015122674 0.58737206
0.1059565 0.018446624 0.58664697
0.1096524 0.021590263 0.58571875
0.11346404 0.024777681 0.58472824
0.11704838 0.028144203 0.58402115
0.12084608 0.031378865 0.5830701
0.12468041 0.034595892 0.58208013
0.12707253 0.036597528 0.58178008
0.088008583 0.0062467232 0.59383762
0.089335248 0.0084196776 0.59331942
0.093066067 0.011556849 0.5923605
0.096570306 0.01494287 0.59172678
0.1005443 0.018145911 0.59062105
0.10415205 0.021589801 0.58994299
0.10791034 0.02468314 0.58893627
0.11145284 0.027920835 0.58818305
0.1151974 0.031208225 0.58730483
0.1188392 0.034392059 0.58644259
0.1227106 0.0377758 0.58552551
0.12528747 0.039657123 0.58499378
0.085520849 0.010123 0.59789753
0.087651044 0.011530101 0.5965032
0.091226533 0.014738031 0.59570652
0.094693989 0.018001221 0.59502643
0.098581418 0.02127751 0.59403169
0.10223342 0.024526805 0.59320146
0.10577552 0.027782731 0.59245956
0.10956302 0.030959114 0.59148091
0.11309766 0.034338742 0.59081995
0.11698431 0.037764817 0.58991688
0.12044297 0.040735379 0.58906567
0.12306806 0.042906575 0.5887723
0.083790064 0.012878358 0.60094607
0.085612714 0.014615215 0.59994358
0.089061677 0.017802618 0.5992316
0.092943206 0.021044433 0.59822047
0.096706599 0.024430446 0.59738773
0.1003931 0.027797438 0.59660244
0.10394679 0.031048752 0.59584892
0.10768655 0.034169316 0.59487295
0.11125974 0.037518434 0.59416389
0.11504045 0.040671274 0.59317613
0.11883152 0.044076897 0.59233403
0.12136485 0.045790263 0.59174931
0.081766292 0.01600524 0.60414755
0.08359085 0.017768502 0.60341275
0.087152898 0.02099397 0.60263705
0.090949088 0.024251878 0.60170126
0.094566748 0.027598381 0.60095638
0.09837766 0.030741647 0.59993964
0.10194719 0.034147941 0.59926808
0.10579436 0.037377156 0.59827572
0.1093969 0.040494733 0.59740335
0.1129503 0.043851413 0.59671402
0.11681275 0.046984591 0.59565157
0.11916893 0.049330242 0.59570217
0.079909302 0.019037835 0.60771036
0.081373535 0.020816304 0.60696793
0.085333645 0.024062246 0.60589892
0.088885508 0.027372189 0.60518241
0.09257859 0.030700713 0.60436869
0.096305266 0.033783272 0.60337973
0.10002922 0.037086278 0.60252678
0.10367296 0.040368594 0.60172296
0.10743426 0.043840967 0.60094428
0.1110785 0.047060736 0.60010201
0.11461694 0.050204583 0.59929484
0.11737566 0.052032955 0.59857279
0.078083545 0.021919727 0.6108318
0.07960631 0.024032876 0.61027992
0.083442323 0.027396865 0.60937798
0.08696945 0.030505426 0.60855812
0.090595812 0.033632353 0.60767317
0.094304383 0.036976822 0.60685724
0.098022982 0.040011592 0.60584545
0.10175224 0.043411963 0.60504758
0.10538468 0.04677657 0.60430241
0.10913879 0.050108336 0.6034438
0.11275781 0.053181417 0.60253179
0.1153994 0.055052541 0.60196882
0.076101534 0.024963573 0.61389637
0.077851929 0.027206883 0.61355627
0.081297204 0.030116551 0.61267835
0.084926948 0.033336818 0.61184752
0.088561848 0.036600314 0.61103898
0.092346728 0.039980486 0.61018616
0.096112996 0.043260016 0.60928649
0.099700347 0.046526812 0.60851645
0.10334447 0.049733423 0.60766625
0.10712102 0.053102754 0.60681331
0.11092807 0.056428172 0.60591018
0.11332542 0.0585979 0.60584575
0.0742843 0.027944028 0.61743182
0.075595088 0.030265145 0.61716294
0.079421319 0.033212662 0.61600065
0.083094418 0.036754191 0.61533171
0.086851686 0.039932542 0.61437744
0.090611652 0.043223061 0.61348927
0.094119191 0.046503715 0.61278903
0.097834975 0.049527518 0.61177272
0.10156147 0.05287566 0.61094522
0.10525955 0.056133159 0.61008453
0.10883491 0.059426047 0.60937691
0.11142152 0.061335303 0.60876471
0.074523814 0.031121828 0.61911398
0.0788818 0.034833863 0.61823475
0.082300588 0.037940599 0.61736679
0.086044773 0.041280635 0.61647332
0.089860417 0.044463851 0.61576474
0.093225896 0.047586046 0.61485183
0.097030044 0.051009528 0.61391664
0.10060829 0.054054119 0.61319768
0.10467203 0.057562135 0.61233515
0.10776224 0.060470529 0.61145884
0.11006033 0.06286829 0.61059225
0.13463143 -0.066275865 0.5182209
0.13730639 -0.066094786 0.5159573
0.14110458 -0.062956862 0.51528001
0.14471605 -0.059628848 0.51432091
0.14847545 -0.056376275 0.51351631
0.15199824 -0.052949894 0.51241589
0.1558038 -0.049699221 0.51163965
0.15976371 -0.046479486 0.51098096
0.1630863 -0.043384135 0.51006782
0.16698307 -0.040130198 0.50934136
0.17067325 -0.036732219 0.50836366
0.17221731 -0.032985836 0.5093739
0.13261637 -0.063158661 0.52142304
0.17019263 -0.029705103 0.51305425
0.13061331 -0.059973206 0.52493829
0.16828007 -0.026727058 0.51616794
0.12865934 -0.056878228 0.5283199
0.16642073 -0.023709517 0.51966298
0.12661557 -0.053687122 0.53168052
0.16435829 -0.020532832 0.52288759
0.12491179 -0.050850078 0.53515846
0.16237414 -0.017330162 0.52655041
0.12275071 -0.047461703 0.53876597
0.16033924 -0.014182471 0.52978343
0.12088783 -0.044551171 0.54183626
0.15861976 -0.011366613 0.53311235
0.11874942 -0.041274805 0.54511338
0.15661418 -0.0081601962 0.53669697
0.11679494 -0.038135067 0.54866397
0.15475744 -0.0051943958 0.54000539
0.11502457 -0.035173088 0.55233157
0.1527375 -0.0020109788 0.54343981
0.11308842 -0.032164961 0.55545807
0.15063484 0.00129731 0.54699379
0.11106698 -0.028964445 0.55895132
0.14874995 0.0042518452 0.5501371
0.10915032 -0.025908198 0.56234634
0.14673936 0.0073751882 0.55338216
0.10709697 -0.022714071 0.56567699
0.14473154 0.010521896 0.55672854
0.10505322 -0.019529037 0.56901443
0.14283252 0.013547823 0.56008387
0.10317321 -0.016488239 0.57250899
0.14083432 0.016737044 0.56363451
0.10119127 -0.013351828 0.57592803
0.13890758 0.019811921 0.56705713
0.099362791 -0.010380208 0.57938093
0.13684757 0.023040287 0.57049
0.097350039 -0.0072560832 0.58261961
0.1348999 0.026150189 0.57395595
0.095284291 -0.0040322468 0.58601028
0.13309316 0.02910392 0.57743454
0.093505859 -0.0010874271 0.58957738
0.1310257 0.032278791 0.58063048
0.091401972 0.0021486357 0.59284973
0.12895809 0.035494402 0.58398169
0.089578666 0.0051044673 0.5962646
0.12713079 0.038492307 0.58754027
0.087649532 0.0081277341 0.59947944
0.12514567 0.041620597 0.59091449
0.085567996 0.011420198 0.6030643
0.1230589 0.044844605 0.5942148
0.083494246 0.014615633 0.60631168
0.12128469 0.047798537 0.597835
0.081471652 0.017773278 0.60963601
0.11927757 0.050903536 0.60102487
0.079710282 0.020665318 0.61307502
0.11732218 0.054001369 0.6044113
0.077703856 0.023779191 0.61630177
0.11541492 0.057097159 0.60799813
0.075800456 0.026902765 0.62001169
0.078301772 0.033199012 0.61939585
0.093448356 0.043824963 0.61842263
0.097067043 0.04734882 0.61728847
0.10228956 0.053904302 0.61430627
0.10440124 0.056524925 0.61312795
0.1102675 0.058723532 0.61450541
0.11317939 0.060477234 0.61125159
0.076484926 0.030210808 0.62108099
0.080492578 0.033327207 0.62054449
0.084277838 0.036789492 0.61956286
0.087735847 0.040036619 0.61858904
0.091180786 0.042967342 0.61789733
0.094863579 0.046298109 0.61697686
0.098769434 0.049501635 0.61630183
0.10244355 0.052996971 0.61522567
0.10624855 0.056097947 0.61458617
0.10993861 0.059742175 0.61338305
0.11212242 0.061509661 0.61302727
0.13725616 -0.06834662 0.52166134
0.14004228 -0.068071485 0.51934731
0.14383201 -0.065049961 0.51877171
0.14752397 -0.06177396 0.51790667
0.15112433 -0.058433905 0.5169301
0.15501659 -0.055187985 0.51620835
0.1587901 -0.051791869 0.51528054
0.16226862 -0.048685685 0.51444763
0.16612093 -0.04534867 0.51361936
0.16981742 -0.042335026 0.51299709
0.17340204 -0.038912334 0.51193583
0.17493162 -0.035154268 0.5129081
0.13539883 -0.065324731 0.52518177
0.17287412 -0.031911928 0.51622003
0.13326213 -0.062089436 0.52830911
0.17105395 -0.028935291 0.51972806
0.13140813 -0.058994189 0.53212446
0.16900179 -0.02572706 0.52311802
0.12942202 -0.055883516 0.53542697
0.16698243 -0.022564352 0.52647555
0.12763187 -0.052957293 0.53887218
0.16526395 -0.019730005 0.52987951
0.12560959 -0.049809825 0.5421589
0.16315538 -0.016482629 0.53317493
0.12358661 -0.046620533 0.54560256
0.16128546 -0.013445407 0.53669941
0.12154229 -0.043477751 0.54877591
0.15945815 -0.010471009 0.54016811
0.11968815 -0.040530697 0.55202383
0.15738638 -0.0072591007 0.54348701
0.11795449 -0.037606515 0.55570579
0.15554641 -0.0042812303 0.54691428
0.11578925 -0.034274429 0.55907983
0.15344588 -0.0010208264 0.55029428
0.11379949 -0.031124644 0.56251621
0.15147297 0.0021286979 0.55380267
0.11188356 -0.028127313 0.56568891
0.14951071 0.0051849857 0.5570004
0.10986523 -0.024902306 0.56928933
0.14761847 0.0082564279 0.56055915
0.1078909 -0.021807678 0.57258153
0.14558388 0.011439443 0.56392854
0.10582557 -0.018595487 0.5759294
0.14361285 0.014550537 0.56729794
0.10399227 -0.015642792 0.57928908
0.14158376 0.017694116 0.57054031
0.10218834 -0.012671962 0.58284527
0.13972394 0.020756237 0.57420385
0.10007015 -0.0093967915 0.5862053
0.13766703 0.023930125 0.57744163
0.098148949 -0.0064026937 0.58934289
0.13555707 0.027215846 0.58087772
0.096252039 -0.0032793134 0.59308016
0.13378347 0.030120715 0.58431292
0.0941661 -7.5340271e-05 0.59630746
0.13183719 0.033208854 0.58770162
0.092344582 0.0029146895 0.59986091
0.1299963 0.036197275 0.59116513
0.090311773 0.0060878918 0.60320055
0.12784147 0.039507367 0.59450012
0.08840777 0.0091122612 0.60652828
0.12583897 0.042645268 0.59783584
0.086417526 0.012276188 0.6100167
0.12391431 0.045671396 0.60108089
0.084332794 0.015512347 0.61337233
0.12202492 0.048758276 0.60471117
0.082308099 0.018710494 0.61684245
0.1201026 0.051810659 0.6080668
0.080533043 0.021616891 0.62027711
0.11804239 0.055051632 0.61154699
0.078391761 0.024895355 0.62354982
0.096744671 0.04315234 0.62094295
0.10259184 0.048117705 0.61977708
0.10537763 0.050398387 0.61929941
0.10772599 0.054795168 0.61663222
0.11134496 0.058048211 0.61574608
0.11606342 0.058144175 0.61481106
0.079629183 0.028194435 0.62474334
0.083366632 0.031439304 0.62393308
0.086821079 0.034642644 0.62299728
0.090425372 0.037595555 0.62237734
0.094176859 0.040998213 0.62143081
0.097926103 0.044506453 0.6203863
0.10132942 0.047507726 0.61960596
0.1050867 0.050886028 0.61868501
0.10898368 0.054027431 0.61806166
0.11274067 0.057127215 0.61739546
0.11456838 0.059401818 0.61636978
0.14014696 -0.070656933 0.52533716
0.14298958 -0.070277967 0.52306986
0.14646536 -0.06728977 0.52234334
0.15026683 -0.063885868 0.52142453
0.15391892 -0.060694512 0.52061391
0.157598 -0.057535715 0.5198487
0.1614342 -0.054323696 0.51912564
0.16503716 -0.051056325 0.51821709
0.16871673 -0.047709737 0.51728028
0.17229445 -0.044439118 0.5163542
0.17610908 -0.041071258 0.51547599
0.17762199 -0.03727613 0.51642692
0.13816014 -0.067526773 0.5287112
0.17553969 -0.034003973 0.5197559
0.13602515 -0.064262442 0.53195697
0.17365757 -0.030930731 0.52336538
0.13426174 -0.061332054 0.53553391
0.1717017 -0.02787371 0.52659357
0.13230932 -0.058235627 0.53892773
0.16972296 -0.024768226 0.52990812
0.13030666 -0.055051852 0.54243827
0.16777822 -0.021671649 0.53333586
0.12825406 -0.051860612 0.54576123
0.16580257 -0.018521234 0.53683567
0.12647578 -0.048941251 0.54923153
0.16382192 -0.015417375 0.54013574
0.12435232 -0.045685824 0.55249321
0.16180445 -0.012260638 0.54347879
0.12244427 -0.042678501 0.55573827
0.1598682 -0.0091999248 0.54680592
0.12057607 -0.039605193 0.55940831
0.15804371 -0.0062309876 0.55026591
0.11847518 -0.036376774 0.56266439
0.15602365 -0.0030275062 0.55377662
0.11657594 -0.033353735 0.56600773
0.15417603 -4.5262277e-05 0.55718732
0.11460203 -0.030208696 0.56949455
0.152164 0.0031361431 0.5606482
0.11265543 -0.027168833 0.57269716
0.15039754 0.0060357898 0.56409431
0.11050899 -0.023822948 0.57620549
0.14834322 0.0092052445 0.56732649
0.10865646 -0.020773325 0.5798527
0.14634873 0.01236511 0.57078087
0.10681652 -0.017845877 0.58308703
0.14433548 0.01555042 0.57425141
0.10470714 -0.014569208 0.58649099
0.14241682 0.018599965 0.5776121
0.10277328 -0.011556119 0.58964634
0.1404244 0.021750331 0.58103919
0.10090177 -0.0084675923 0.59336025
0.13852689 0.024750836 0.5843038
0.098895565 -0.0053793266 0.59649009
0.13652968 0.027896173 0.58769089
0.097027078 -0.0023736879 0.59989995
0.13470237 0.030911058 0.59131438
0.094950229 0.00087489933 0.60333729
0.13257533 0.034186758 0.59463817
0.093036652 0.0039549544 0.60683662
0.13061816 0.037224613 0.59778732
0.091012716 0.0071394295 0.61025774
0.12872535 0.040305525 0.60137993
0.08908847 0.010187559 0.61358881
0.12682348 0.043353803 0.60480845
0.087013453 0.013393693 0.61687165
0.12478034 0.046543755 0.60816735
0.085102215 0.016459741 0.62032753
0.12286425 0.049603514 0.61157823
0.0831986 0.019544207 0.62388694
0.12088238 0.052743144 0.6150099
0.081285596 0.022615604 0.62735569
0.098212697 0.040759094 0.62398165
0.1001366 0.042060591 0.62390214
0.11250752 0.052086793 0.62187397
0.11728784 0.055535428 0.62147987
0.11889172 0.055842526 0.61827779
0.082166664 0.025866412 0.62834024
0.085549146 0.028926797 0.62749374
0.089455433 0.032344095 0.62662333
0.093204342 0.035491921 0.62590843
0.096877307 0.038646594 0.62514353
0.10045582 0.042336226 0.62383437
0.10432144 0.045443036 0.6232245
0.10791799 0.048630618 0.62238532
0.11147283 0.051754199 0.62158054
0.11518358 0.055113696 0.62064993
0.11739691 0.05709403 0.62011635
0.14291336 -0.072797269 0.52912468
0.14555685 -0.072631001 0.52670687
0.14933504 -0.069283158 0.52582598
0.15308544 -0.066027984 0.52501374
0.15686676 -0.062775001 0.52422142
0.16038677 -0.059619918 0.52336776
0.16423631 -0.056333207 0.52258396
0.16785707 -0.053089026 0.52170694
0.171554 -0.049811903 0.52084374
0.1753467 -0.046561506 0.52006036
0.17890204 -0.04319559 0.51903409
0.18056352 -0.039836522 0.51986682
0.14083961 -0.069604501 0.53236192
0.17848474 -0.036379762 0.52341622
0.13888595 -0.066573344 0.53550065
0.1765669 -0.03328146 0.52696693
0.13695525 -0.063460484 0.53905141
0.17446405 -0.0300612 0.53018332
0.13503204 -0.060394391 0.54245573
0.17253023 -0.026954506 0.53369701
0.13308178 -0.057303447 0.545838
0.17052796 -0.023834005 0.53696716
0.13111559 -0.054156154 0.54936671
0.16847907 -0.020591486 0.54050225
0.12916195 -0.051071201 0.55271149
0.16652621 -0.017530754 0.54375768
0.12713468 -0.047883473 0.55613065
0.16478764 -0.014648005 0.54725987
0.12526429 -0.044879977 0.55952406
0.16272995 -0.011469431 0.55051225
0.1233611 -0.041866653 0.5628131
0.16065431 -0.0082046688 0.55401677
0.1211821 -0.038587656 0.56592458
0.15877362 -0.0051666424 0.55749768
0.11917531 -0.035375316 0.56952649
0.15689623 -0.0021678135 0.56084299
0.11740411 -0.03245632 0.57302606
0.15497258 0.00090184808 0.56425893
0.11536097 -0.029249184 0.57645071
0.15291579 0.0040969625 0.56757855
0.11334527 -0.026102036 0.57976472
0.15100412 0.0071347132 0.57092434
0.11124186 -0.022868313 0.58303022
0.14903703 0.01024425 0.57430482
0.10942215 -0.019855402 0.58667904
0.14712831 0.013282806 0.57766652
0.10744482 -0.01674021 0.59003687
0.14516558 0.016441666 0.5812546
0.10527289 -0.013429724 0.59329939
0.1431786 0.019541591 0.58451223
0.10354395 -0.010549299 0.59683436
0.14122079 0.022687674 0.58807278
0.10166615 -0.0075546131 0.60016203
0.13919906 0.025846764 0.59140629
0.099638261 -0.0043653175 0.60358441
0.13735124 0.028775901 0.59461296
0.097637631 -0.0012037009 0.60701901
0.1354776 0.031855866 0.59828484
0.095762037 0.0017921329 0.61036062
0.13349567 0.034972936 0.60163003
0.093725324 0.0049316064 0.61355424
0.13138169 0.03825099 0.60501933
0.091797993 0.0080414265 0.61710799
0.12968884 0.04106956 0.60847384
0.08988709 0.011110902 0.62057847
0.12759113 0.044269748 0.61163574
0.087859727 0.014259912 0.62384903
0.12551013 0.047480874 0.61491174
0.085966229 0.017310657 0.62732327
0.12376569 0.050360225 0.61837548
0.083990321 0.020428754 0.63069832
0.094489828 0.030850969 0.63089883
0.096925527 0.03489165 0.62860805
0.099792205 0.036255077 0.62901664
0.11072865 0.045839421 0.62656403
0.11386918 0.050117649 0.62446302
0.11845537 0.053654753 0.6238758
0.12159135 0.0537147 0.62199283
0.085063569 0.023783438 0.63192064
0.088566586 0.026891366 0.63110024
0.092068933 0.0301397 0.63015097
0.095879152 0.033239894 0.62951517
0.099446975 0.036575757 0.62852365
0.10319214 0.040045813 0.6275118
0.10700237 0.043175943 0.62684864
0.11075429 0.046435095 0.62603366
0.1144488 0.049802385 0.62508655
0.11795945 0.052810542 0.62436187
0.12023869 0.054914407 0.62375337
0.14556959 -0.074909195 0.53254408
0.14832589 -0.074812688 0.53030372
0.15214993 -0.07140097 0.52939081
0.1557771 -0.06828206 0.5286321
0.15948509 -0.065087885 0.52785122
0.16302185 -0.061868325 0.52694821
0.16676193 -0.058357034 0.52589566
0.17065281 -0.055219844 0.52527261
0.17422698 -0.052063175 0.52444875
0.17822112 -0.048761427 0.52373475
0.18176015 -0.045640599 0.52292341
0.18336679 -0.042218596 0.52314627
0.14358278 -0.071818873 0.53576565
0.18129636 -0.038615383 0.527035
0.14157543 -0.068687528 0.53905523
0.17930362 -0.035422478 0.53062338
0.13968131 -0.065607831 0.54263753
0.17728424 -0.032312192 0.5337804
0.13771704 -0.062502928 0.54601252
0.1753283 -0.029151458 0.53740501
0.13580887 -0.059403516 0.54960936
0.17339657 -0.026076239 0.54080737
0.13387068 -0.056356736 0.55287492
0.17136647 -0.022929952 0.5440557
0.13186045 -0.053264834 0.55600119
0.16933419 -0.019790765 0.54726738
0.12986179 -0.050038055 0.55969357
0.1676318 -0.016920321 0.55087918
0.12792651 -0.046953809 0.56311506
0.16539344 -0.013564058 0.55402917
0.12603222 -0.043924555 0.56650352
0.16344181 -0.010453537 0.55748039
0.12388402 -0.040680248 0.56961566
0.16159113 -0.0074672475 0.56089336
0.12195009 -0.037579052 0.57310778
0.15958387 -0.0042815059 0.56439149
0.12001844 -0.034509994 0.57648683
0.15767148 -0.0012320429 0.56777894
0.11802115 -0.031412914 0.57968897
0.15577495 0.0018043816 0.57118523
0.11609522 -0.028287798 0.58330727
0.15374827 0.0049824789 0.57457012
0.11410394 -0.025191505 0.58653241
0.15188816 0.0080273598 0.57816637
0.11210352 -0.021990698 0.59011775
0.14980949 0.011238128 0.58145112
0.11007066 -0.018837735 0.59337974
0.14783408 0.014340617 0.58476865
0.10821095 -0.015795663 0.59696698
0.14586842 0.017470069 0.58823156
0.10632683 -0.012794957 0.6002903
0.14391747 0.020579025 0.59167969
0.10440965 -0.0097305775 0.60371411
0.14193238 0.023705155 0.59504575
0.10246532 -0.0067215934 0.60680848
0.13999024 0.026762597 0.59833497
0.10043771 -0.0034468099 0.61055917
0.1381148 0.029806659 0.60186172
0.098483592 -0.00035277009 0.61393654
0.13600294 0.033072636 0.605214
0.096532606 0.0027592406 0.61739624
0.13420145 0.035978846 0.60853356
0.094574414 0.0058558136 0.62076569
0.13223621 0.039136097 0.61210465
0.092505157 0.0090627894 0.62407666
0.13030274 0.042194255 0.61543411
0.090605095 0.01209648 0.6274572
0.12813203 0.045482509 0.61861688
0.08869379 0.015138336 0.63082027
0.12631375 0.048415281 0.62196535
0.08673577 0.018231623 0.63417786
0.090889037 0.022361271 0.63658834
0.094474591 0.028179981 0.63333464
0.097478263 0.032503419 0.63111329
0.11794869 0.046834297 0.62982541
0.12016598 0.04959961 0.62857568
0.12436417 0.051548906 0.62551379
0.087639555 0.021445163 0.63554919
0.091465086 0.024784431 0.63470346
0.09518066 0.02791594 0.63398433
0.09885639 0.031173587 0.63312668
0.10224384 0.034466892 0.63206989
0.10593724 0.037713259 0.6312328
0.10974088 0.040978253 0.63044244
0.11345699 0.04430192 0.62954772
0.11717118 0.047780715 0.62851
0.12096065 0.050925694 0.62782127
0.122813 0.052828602 0.62714988
0.14825977 -0.07711152 0.53576446
0.15118775 -0.076919772 0.5338859
0.15492581 -0.073695205 0.53309458
0.15844887 -0.070283554 0.53200781
0.16226767 -0.067085437 0.53128737
0.16600426 -0.063855901 0.53049064
0.16949397 -0.060613029 0.52953911
0.17332113 -0.057365213 0.52877796
0.17697193 -0.053992353 0.5278005
0.18054904 -0.051034894 0.5271607
0.18432626 -0.047717512 0.52630705
0.18604431 -0.044319633 0.52670598
0.14640675 -0.074047379 0.53946513
0.18395767 -0.040647712 0.53078079
0.14437774 -0.070920922 0.5426423
0.18188733 -0.037450507 0.53404969
0.14242293 -0.067767739 0.54624295
0.18002489 -0.034448404 0.53747231
0.14038089 -0.064600989 0.54951793
0.17818831 -0.031484786 0.54085946
0.13846518 -0.061542116 0.55292702
0.17606696 -0.028232813 0.54411715
0.13652919 -0.058433399 0.55643898
0.1740693 -0.025030702 0.54771948
0.13443744 -0.055192929 0.55978078
0.17196089 -0.021802276 0.55094308
0.13250066 -0.05215048 0.56303585
0.1703763 -0.019091599 0.55445349
0.13068068 -0.04920176 0.5664379
0.16840272 -0.016009435 0.55770117
0.12865588 -0.046042781 0.56975776
0.16636914 -0.012806579 0.56115085
0.12663068 -0.04281307 0.5733465
0.16419648 -0.0094565749 0.56456143
0.12479313 -0.039869368 0.5766533
0.16248967 -0.0065809339 0.56817389
0.12272989 -0.036659654 0.58000088
0.16041532 -0.0034101009 0.57132459
0.12077047 -0.033536494 0.58346671
0.15843751 -0.00026033074 0.57481253
0.11872257 -0.030346856 0.58680379
0.15657729 0.0027288124 0.57819515
0.11673743 -0.027242772 0.59008533
0.15458685 0.0058396384 0.58147949
0.11493599 -0.024211287 0.59388435
0.15263113 0.0089883506 0.58505911
0.11295713 -0.02117195 0.59694535
0.15066518 0.012059376 0.58829719
0.11111023 -0.018150054 0.60051084
0.1486606 0.015225112 0.59173042
0.10914838 -0.014987387 0.60411733
0.14669091 0.018382743 0.59528363
0.10715096 -0.011928283 0.60717356
0.14473636 0.021381743 0.59829563
0.10511428 -0.0086880475 0.61075288
0.14286105 0.024456576 0.60194069
0.10311496 -0.0055171177 0.61422873
0.14087841 0.027558573 0.60522503
0.10122577 -0.0024890676 0.61763465
0.13878956 0.030778669 0.60850143
0.099221587 0.00062667578 0.6208784
0.13684765 0.033897005 0.61202455
0.09729661 0.0036919266 0.62427181
0.13496695 0.036954708 0.6155808
0.095399939 0.0067326501 0.62769383
0.13295969 0.040118232 0.61899388
0.093324229 0.0099284425 0.63093412
0.13099761 0.043176316 0.6221993
0.091333851 0.013103008 0.63446259
0.12899634 0.046341531 0.6256448
0.089482836 0.016123578 0.63800526
0.090322979 0.018578976 0.639723
0.09340822 0.022255227 0.6381411
0.12055822 0.044208892 0.63373613
0.12206952 0.049274884 0.62997282
0.12716997 0.049312405 0.62910396
0.090302713 0.019432947 0.63892972
0.094093613 0.022673935 0.63815391
0.097532913 0.025698602 0.63737291
0.10130434 0.028958358 0.63656867
0.10511536 0.03224913 0.635759
0.10876122 0.035487004 0.63490224
0.11252614 0.038829409 0.6340186
0.11600439 0.042058006 0.63307351
0.11989702 0.045396321 0.63226742
0.12374076 0.048576646 0.63157773
0.12578416 0.050476693 0.63101929
0.15100765 -0.079229176 0.53955865
0.15423344 -0.078768849 0.54002845
0.1578711 -0.075565219 0.53921682
0.16157956 -0.072305195 0.53817719
0.16510382 -0.069048345 0.53732693
0.16897407 -0.065709561 0.53629822
0.17265114 -0.062462918 0.53538054
0.17622963 -0.059344701 0.53449255
0.17979732 -0.056134928 0.53324592
0.18361747 -0.052823059 0.53235614
0.18723617 -0.049510662 0.53149056
0.18909989 -0.046929847 0.53090638
0.14910407 -0.076134883 0.54315573
0.15237796 -0.075489193 0.54429764
0.15596606 -0.072372936 0.54343557
0.15968274 -0.069126353 0.54255396
0.16335453 -0.065786004 0.54176378
0.1670838 -0.062608644 0.54083043
0.17069286 -0.059267409 0.54008901
0.17453857 -0.0559186 0.53917038
0.17806016 -0.052645408 0.53845477
0.18179967 -0.049448557 0.53752542
0.18561466 -0.046075411 0.53664517
0.18702978 -0.043334585 0.53484124
0.14709936 -0.073039696 0.54631853
0.15046676 -0.07238961 0.54764915
0.15402254 -0.069135323 0.5468958
0.1576028 -0.066030309 0.54603291
0.16142865 -0.062718101 0.54510731
0.16505374 -0.059618041 0.54420704
0.16878828 -0.056113403 0.54346848
0.17250924 -0.052912146 0.54255605
0.17609933 -0.049419858 0.54192096
0.17988349 -0.046371255 0.54086721
0.18363105 -0.043010071 0.54003155
0.18508118 -0.040187791 0.53834158
0.14515951 -0.069984615 0.54960859
0.14837517 -0.069201767 0.55119282
0.15186088 -0.066350952 0.55024815
0.15562974 -0.062872835 0.54946715
0.15941778 -0.059561357 0.54857016
0.16322835 -0.05625771 0.54765111
0.16681175 -0.053019628 0.54686666
0.17071283 -0.049856152 0.54579294
0.17418863 -0.046536911 0.54514045
0.17793383 -0.043263912 0.54425299
0.18158567 -0.040006861 0.54342753
0.1831858 -0.037211336 0.54186249
0.14310548 -0.066720188 0.55320531
0.14621527 -0.066357397 0.55458027
0.14998907 -0.063244075 0.55357379
0.15373418 -0.059731457 0.55283201
0.15745755 -0.056456659 0.55196244
0.16116272 -0.053182315 0.55110651
0.16489831 -0.049909085 0.55022657
0.16866635 -0.046842746 0.549196
0.17238782 -0.043512583 0.54836148
0.17597786 -0.040052798 0.54770666
0.17954797 -0.036858656 0.54690576
0.18131664 -0.03423249 0.5452162
0.14119464 -0.06368877 0.55653048
0.14433771 -0.063346319 0.55785221
0.148048 -0.060077444 0.55698901
0.1516933 -0.056772664 0.55619758
0.155303 -0.053473234 0.55543029
0.15914948 -0.050077975 0.55453932
0.16297166 -0.046905324 0.55353171
0.16673848 -0.043418974 0.55275732
0.17041543 -0.04022076 0.55187678
0.17394479 -0.036816679 0.55123478
0.17768531 -0.033795521 0.55019784
0.17934628 -0.031037387 0.54871941
0.13912083 -0.060472526 0.55985719
0.14236102 -0.060109496 0.56133741
0.14621602 -0.056941833 0.5603016
0.14980057 -0.053632904 0.55955935
0.15348139 -0.050276726 0.55877185
0.15736865 -0.046817433 0.55788851
0.16100943 -0.04373835 0.55696338
0.16475476 -0.04041459 0.55610669
0.16834502 -0.037157807 0.55532837
0.17205116 -0.033731725 0.55456394
0.17555045 -0.030762732 0.5536806
0.17725497 -0.027837846 0.55210036
0.13731837 -0.057541206 0.5632686
0.140395 -0.05698292 0.56474745
0.14428152 -0.05380819 0.56369174
0.14787473 -0.050475121 0.56295747
0.15152735 -0.047278725 0.56209457
0.15536393 -0.043905422 0.56119788
0.15908113 -0.040583536 0.56036162
0.1627868 -0.037320942 0.55949819
0.1665165 -0.034122758 0.55857718
0.17009862 -0.030749369 0.55787593
0.17381138 -0.027627185 0.55692178
0.17532122 -0.024762742 0.55533147
0.1351299 -0.054214276 0.56652242
0.13843335 -0.054020669 0.56805426
0.14224911 -0.050711446 0.56713462
0.14583616 -0.047373667 0.56640798
0.1496983 -0.043917306 0.5655421
0.15327132 -0.040697716 0.56475443
0.15702751 -0.037641495 0.56372678
0.16082834 -0.033942081 0.56305575
0.16450444 -0.030987836 0.56202763
0.16814941 -0.027646601 0.56125861
0.17181712 -0.024415329 0.56040531
0.17333052 -0.021580487 0.558792
0.13321666 -0.0511631 0.56991285
0.13660818 -0.050812643 0.57140559
0.14025119 -0.047476549 0.57063496
0.1441167 -0.044361714 0.56955898
0.14761788 -0.040863354 0.56899589
0.15131134 -0.037654743 0.56810904
0.15527448 -0.034308314 0.5670988
0.15891685 -0.031011447 0.5663048
0.1624091 -0.02786082 0.56553721
0.1660696 -0.024702117 0.56464535
0.16989695 -0.021323431 0.56375903
0.17152323 -0.018700376 0.56225163
0.13143565 -0.048239172 0.57338876
0.13460331 -0.047691993 0.57484186
0.13839729 -0.044363357 0.57395077
0.14210483 -0.041215308 0.57301629
0.14573033 -0.037786104 0.57231569
0.14940062 -0.034638003 0.57140982
0.15312243 -0.031129964 0.57068318
0.15691413 -0.027862724 0.56975651
0.16055775 -0.024743389 0.56885368
0.16417761 -0.021656893 0.56794912
0.16796817 -0.018307224 0.5670734
0.1693324 -0.015313551 0.56552786
0.12950803 -0.045155063 0.57684284
0.1327863 -0.044507146 0.57817286
0.13634112 -0.041170072 0.57747054
0.14009048 -0.038002215 0.57651597
0.14375637 -0.034591567 0.57577312
0.14746433 -0.031355668 0.57489169
0.15109271 -0.028168887 0.57404155
0.15474644 -0.02502761 0.57314426
0.15843701 -0.021694191 0.57233548
0.16212413 -0.01845745 0.57147056
0.16580552 -0.015074871 0.57069874
0.16758879 -0.012490235 0.56878924
0.12754565 -0.042022005 0.58033377
0.13080482 -0.041358937 0.58160794
0.13454971 -0.038174435 0.5806669
0.1381171 -0.034964725 0.57987756
0.14180388 -0.031715948 0.5790202
0.14556915 -0.028251342 0.57823378
0.14930923 -0.024975389 0.57735205
0.15283577 -0.021991566 0.57645679
0.1565983 -0.018478654 0.57570177
0.16016814 -0.015478842 0.57478297
0.16399279 -0.012177095 0.573852
0.16540916 -0.0091243163 0.57233572
0.12548374 -0.038815781 0.5836736
0.12880976 -0.038049925 0.58515114
0.13231713 -0.035252497 0.58415729
0.13598807 -0.031857304 0.58340114
0.13981453 -0.028671175 0.58239847
0.14363478 -0.025235735 0.58155209
0.14722826 -0.021953139 0.58078694
0.15102737 -0.018665887 0.57986677
0.15445419 -0.015613765 0.57908958
0.15836586 -0.012174465 0.57817531
0.16201742 -0.0087741017 0.57743716
0.16360515 -0.0061010793 0.57588035
0.12345995 -0.035653617 0.58701009
0.12661576 -0.035312787 0.58849955
0.13043953 -0.0319544 0.58760369
0.13406299 -0.028674897 0.58681363
0.13784689 -0.025515873 0.58582717
0.14153984 -0.022022143 0.585114
0.14526239 -0.018776424 0.58422732
0.14895542 -0.015699938 0.58326054
0.15259652 -0.012385547 0.58247817
0.15633982 -0.0089602992 0.58168465
0.16008759 -0.0057561398 0.58075339
0.16155887 -0.0029578358 0.57904029
0.12149656 -0.032536253 0.59043652
0.12492743 -0.032068469 0.59176791
0.12859014 -0.028764781 0.59096241
0.13235483 -0.025500193 0.59005487
0.13596447 -0.022227548 0.58927131
0.13967834 -0.019024752 0.58836526
0.14338236 -0.015766807 0.58750027
0.14688443 -0.012407497 0.58685195
0.15064158 -0.0091640428 0.58593738
0.15444076 -0.0059855208 0.58495104
0.15808378 -0.0025642663 0.58423215
0.15976816 -0.00010605156 0.58269197
0.11974125 -0.029646941 0.59389132
0.12304916 -0.028982937 0.59508556
0.12659888 -0.025829863 0.59427536
0.13034922 -0.022363372 0.59350151
0.13405049 -0.019041575 0.59267747
0.13777333 -0.015857518 0.59175313
0.14137304 -0.012664668 0.59092867
0.14510527 -0.0094718859 0.59000242
0.14854433 -0.0060533509 0.58943856
0.15248193 -0.0027747452 0.58840668
0.15614852 0.00045265257 0.58755189
0.1577685 0.0030004233 0.58598274
0.11778522 -0.026592337 0.59710956
0.12087366 -0.02587907 0.59864271
0.12451303 -0.022560209 0.59786439
0.12831478 -0.019359306 0.59688967
0.13214655 -0.016041704 0.59596282
0.13572256 -0.012789384 0.59519273
0.13946876 -0.009531118 0.59429556
0.14306937 -0.0062770024 0.59350765
0.14682536 -0.0029735938 0.59263039
0.15038018 0.00022351742 0.59184301
0.15424994 0.003488481 0.590855
0.15575311 0.0062151104 0.58928788
0.11570701 -0.023367886 0.60044867
0.11895326 -0.022737715 0.6020267
0.12267857 -0.019382261 0.60120457
0.12642807 -0.016030081 0.60036194
0.13004364 -0.012858018 0.5995127
0.13376375 -0.0096853077 0.59858352
0.13764107 -0.0064372048 0.59757948
0.14115712 -0.0032124445 0.59683871
0.14486758 0.00012364984 0.59601623
0.14840057 0.0034340546 0.5953145
0.15219092 0.0066028386 0.594329
0.15370901 0.0093866587 0.59270149
0.11372457 -0.020219006 0.60391325
0.11686766 -0.019428331 0.60563964
0.12077361 -0.016363673 0.60450208
0.12440503 -0.013057113 0.60372239
0.12809321 -0.0098199472 0.60285693
0.13177258 -0.0065913349 0.60199308
0.13542998 -0.0032888129 0.60119098
0.13924819 -1.2308359e-05 0.60024959
0.14289337 0.0031572282 0.59937602
0.14660498 0.0065128729 0.59856462
0.15024707 0.0096334815 0.5976637
0.1516941 0.012634329 0.59626859
0.11187821 -0.017207861 0.60743999
0.11500825 -0.016456738 0.60887361
0.11859091 -0.013315126 0.60803115
0.12243975 -0.0099682584 0.60710895
0.12604117 -0.0067808479 0.60627991
0.12979503 -0.00348524 0.60539949
0.13354473 -0.00022663176 0.60449988
0.13726516 0.0029833987 0.60359311
0.14079121 0.0060823187 0.60276818
0.14461136 0.0096778274 0.60201913
0.14820498 0.012786083 0.60114801
0.14978661 0.015650481 0.59950393
0.10985307 -0.01407519 0.61065769
0.11305761 -0.013408795 0.61222404
0.11664812 -0.010243513 0.61138994
0.12025082 -0.0070741549 0.61054891
0.1240551 -0.0037026107 0.60967594
0.12801357 -0.00024569035 0.60873646
0.1316255 0.0028566495 0.60784763
0.13538621 0.006180793 0.60697931
0.13898011 0.0094984546 0.60623521
0.1426405 0.012784958 0.60542107
0.1463794 0.015942611 0.60446835
0.14772809 0.018919438 0.60289121
0.10801977 -0.011026911 0.61438298
0.11112104 -0.010153115 0.61568987
0.11478339 -0.0070438161 0.6147666
0.11849362 -0.0037878975 0.6138956
0.12207745 -0.00060088187 0.61307979
0.12583061 0.002677694 0.61218965
0.12947838 0.005972065 0.61138999
0.13334617 0.0093827546 0.61049199
0.13681358 0.012577273 0.60977024
0.14061558 0.015779033 0.60879582
0.14441821 0.019031554 0.6078518
0.14588492 0.021790713 0.60629749
0.10592322 -0.0078443512 0.61748248
0.10901578 -0.0072261542 0.61908555
0.11264508 -0.0040269047 0.61824226
0.11638299 -0.00087754428 0.61728531
0.120051 0.0023144409 0.61640787
0.12386864 0.0058463961 0.61562216
0.12765597 0.0091510713 0.61472154
0.13141418 0.01246804 0.61385083
0.13507056 0.015697449 0.6130051
0.13867255 0.01892288 0.61219871
0.142231 0.021894105 0.61127126
0.14398313 0.02490811 0.60984015
0.103945 -0.0047084987 0.62091547
0.10703371 -0.0041452944 0.62248015
0.11084496 -0.00091496855 0.62151599
0.11444829 0.0023881942 0.62075585
0.11821201 0.0055447668 0.6197834
0.12190533 0.0090275481 0.61906326
0.12565958 0.012217812 0.61811852
0.1293806 0.015511222 0.61726207
0.13313597 0.01875107 0.6163466
0.1368923 0.022169076 0.61553872
0.14044675 0.025193371 0.61464661
0.14181475 0.028271727 0.61293197
0.10199608 -0.0016236901 0.62428004
0.10539276 -0.00086127967 0.62573618
0.10897778 0.0022262186 0.62485898
0.11271171 0.0055337399 0.62400115
0.1164151 0.0086886659 0.62307405
0.1199113 0.011934891 0.62236154
0.12373926 0.015270628 0.62144864
0.12753364 0.018503591 0.62049907
0.13099197 0.021757044 0.61982006
0.13467686 0.025036067 0.61898255
0.13840309 0.02839753 0.61816347
0.14007515 0.031084724 0.61645365
0.10000564 0.0015103742 0.6276533
0.10331656 0.0022335276 0.62921154
0.10694279 0.0052613243 0.62826645
0.11062853 0.0085278228 0.62742066
0.11428746 0.011967644 0.62670082
0.11811081 0.015100978 0.62566847
0.12173668 0.018253699 0.62479955
0.12539716 0.021805204 0.6241464
0.12915289 0.024821065 0.62309462
0.13278225 0.028136127 0.62232167
0.13641804 0.031351678 0.62148333
0.13797338 0.034289069 0.61975932
0.098097324 0.0046585351 0.63143599
0.10137356 0.0053080097 0.63257223
0.10510641 0.0083794072 0.63157171
0.10876719 0.011670955 0.63076037
0.11227755 0.014957927 0.63006175
0.11606039 0.018235929 0.62914842
0.11971449 0.021419354 0.62827647
0.12345377 0.024710767 0.62740475
0.12717643 0.027967535 0.62652475
0.13093567 0.031233884 0.62562245
0.13446549 0.034441039 0.62486041
0.13611211 0.037349217 0.62338877
0.095955431 0.007902652 0.63457465
0.099456862 0.0083386675 0.63588607
0.10305914 0.011508033 0.63504541
0.10668586 0.014773414 0.63424432
0.11037056 0.018145487 0.6334635
0.11404253 0.021342143 0.63258588
0.11784407 0.024653099 0.63167822
0.1215842 0.027931184 0.63079774
0.12523134 0.031205855 0.62998658
0.12896851 0.034588695 0.62917203
0.13250434 0.037585922 0.62827778
0.13412571 0.040460438 0.62654012
0.094082765 0.010900445 0.63793641
0.09740977 0.011429273 0.63933653
0.10106553 0.014600269 0.63845575
0.1046089 0.018009193 0.63780588
0.10852775 0.021238871 0.63675874
0.11201822 0.024433777 0.63601947
0.11596734 0.027829252 0.63504982
0.1195761 0.031145155 0.6342932
0.12314434 0.034146525 0.63337654
0.12675521 0.037649862 0.63273227
0.13046212 0.040735394 0.63176024
0.13230926 0.043468125 0.63004088
0.092230767 0.013938449 0.64154148
0.095280334 0.01461035 0.64270473
0.098952428 0.017789371 0.64178675
0.10265508 0.020964563 0.64110249
0.10643683 0.024154298 0.64013636
0.11041346 0.027705073 0.63923997
0.1138194 0.030779585 0.63849247
0.11767358 0.034008563 0.6374945
0.12131174 0.037303366 0.63670254
0.12477529 0.040669449 0.6359989
0.1285765 0.043933101 0.63504851
0.13010085 0.04679314 0.63332343
0.093191743 0.017204151 0.64263898
0.096639685 0.020464852 0.64164698
0.10040074 0.023595378 0.64095503
0.10443297 0.026921377 0.64024091
0.10798214 0.030207589 0.63928396
0.11167181 0.033451632 0.63844693
0.11538269 0.036829323 0.63749981
0.11902191 0.040099412 0.63660973
0.12268263 0.043309592 0.63578689
0.1263745 0.046498545 0.63500142
0.12894298 0.048216186 0.63491344
