# .PCD v0.7 - Point Cloud Data file format
VERSION 0.7
FIELDS x y z
SIZE 4 4 4
TYPE F F F
COUNT 1 1 1
WIDTH 1190
HEIGHT 1
VIEWPOINT 0 0 0 1 0 0 0
POINTS 1190
DATA ascii
0.12292505 0.063307926 0.55525905
0.12665713 0.052156735 0.5865401
0.12019382 0.070474908 0.54844427
0.12006482 0.070580281 0.54965097
0.12228706 0.065148272 0.5555926
0.12604181 0.053661194 0.5881598
0.12576117 0.053472586 0.59578741
0.12601079 0.053169359 0.5969485
0.11915565 0.073304385 0.55438983
0.1191887 0.072499275 0.55755913
0.12018588 0.070731692 0.56249058
0.12298335 0.06197118 0.58701932
0.12342396 0.059985451 0.59301424
0.12427709 0.057758868 0.59497029
0.12559523 0.054219622 0.59698021
0.11857866 0.074660167 0.55513585
0.11887938 0.073170595 0.55865848
0.11937419 0.072387271 0.56274146
0.12242895 0.063360341 0.58782458
0.12268201 0.061542593 0.59196115
0.12327267 0.060473911 0.59508944
0.12575796 0.044177409 0.549182
0.12652697 0.043101568 0.55208349
0.12915677 0.034640037 0.5760867
0.12918749 0.033778474 0.57863432
0.12620708 0.047935713 0.54909688
0.12716177 0.045741647 0.55326372
0.12580158 0.045443494 0.55659074
0.12756066 0.039024573 0.57408684
0.12955685 0.03736243 0.57626551
0.12990022 0.03634043 0.58096713
0.12224808 0.054170948 0.54849255
0.12458351 0.052627079 0.5496062
0.12532935 0.051029652 0.55559623
0.12439895 0.048594706 0.55755746
0.12641858 0.041272752 0.57510251
0.12802731 0.042384364 0.57820821
0.12863417 0.040265117 0.58393669
0.12625898 0.040947631 0.58634245
0.12184551 0.056972809 0.54897571
0.12393966 0.057155043 0.55223686
0.12269518 0.054337379 0.55749029
0.12542331 0.046100214 0.57973397
0.12786753 0.044917341 0.58499241
0.12624837 0.043582112 0.58783549
0.12044881 0.062688626 0.5498932
0.1230987 0.061644062 0.55361807
0.12133603 0.058879305 0.56000847
0.12381576 0.051255167 0.5811699
0.1270562 0.049578145 0.58680427
0.12513795 0.047843929 0.59050608
0.11814617 0.069121294 0.54793453
0.11865567 0.068057857 0.55093181
0.12068972 0.067050748 0.55598682
0.12023833 0.062968962 0.56152862
0.12279277 0.055358693 0.58274066
0.12528913 0.054464098 0.58968449
0.12371466 0.052237194 0.59383923
0.12398404 0.0517518 0.59686023
0.11826143 0.071075566 0.54886383
0.11691503 0.071360454 0.55261147
0.11745868 0.069451325 0.5576725
0.11777867 0.06799823 0.56284034
0.12040418 0.060014941 0.58536631
0.12137008 0.058002271 0.58995485
0.12210727 0.055791803 0.59494954
0.1239015 0.053792939 0.59735394
0.11636252 0.074799582 0.5548051
0.11692227 0.072797619 0.55933976
0.11686513 0.072201952 0.56328249
0.11969732 0.063409954 0.58790058
0.12057462 0.061407119 0.59129626
0.12113566 0.060338773 0.59572613
0.1230434 0.043016426 0.54892242
0.12354701 0.04166764 0.55186689
0.12627032 0.033294998 0.57596165
0.12705596 0.032670721 0.57859045
0.12177518 0.045868061 0.54825926
0.1227758 0.041528206 0.55443215
0.12301514 0.043606408 0.55662429
0.12502219 0.037676454 0.57371819
0.12489086 0.034576081 0.57416975
0.12553854 0.033844743 0.58087802
0.12073459 0.053820122 0.54863548
0.11988902 0.050868426 0.54866338
0.11965959 0.049485847 0.55776191
0.1212047 0.047458455 0.55781651
0.12333923 0.040643528 0.57516271
0.12255044 0.042396814 0.57667947
0.12396314 0.038097449 0.58436364
0.12531412 0.040695328 0.58625418
0.11796021 0.056159519 0.54931045
0.11715021 0.055041123 0.5505088
0.11923344 0.053108647 0.55822867
0.12167871 0.045568585 0.57906747
0.12203568 0.041888759 0.58643723
0.12264211 0.042803589 0.58769989
0.1167947 0.060967393 0.55000365
0.11554633 0.058849201 0.55375344
0.11738767 0.057427406 0.55851138
0.1202219 0.048757195 0.58173591
0.11938396 0.047040999 0.58655834
0.12157611 0.046233963 0.59008992
0.11584868 0.065258011 0.55111974
0.11519459 0.06390702 0.55542523
0.11590674 0.062483668 0.55993456
0.11882845 0.053567961 0.58430362
0.11914299 0.051940091 0.5885731
0.1208612 0.050261617 0.59226906
0.11458029 0.069006167 0.55383182
0.11463822 0.06723284 0.5556128
0.11519375 0.066215768 0.56117016
0.1181421 0.05740431 0.58594662
0.11876405 0.05515774 0.5903849
0.11914925 0.054917905 0.59282446
0.12039921 0.042040486 0.5496664
0.12070711 0.041290529 0.55126458
0.11718048 0.044867482 0.54856896
0.1177211 0.041656438 0.55329257
0.11855763 0.04334227 0.55633855
0.12093617 0.037194781 0.57450551
0.12056812 0.033932351 0.5758459
0.12083633 0.033166423 0.58086658
0.11523712 0.049000707 0.54981327
0.11487112 0.047881886 0.5561648
0.11651707 0.045273729 0.55768931
0.1186299 0.039194498 0.5750711
0.11714625 0.03991811 0.57794154
0.11935913 0.036702491 0.58340198
0.11516809 0.052739315 0.55228186
0.11529376 0.050541595 0.55576682
0.11811733 0.042102762 0.58012098
0.11890396 0.041339323 0.58392859
0.1128093 0.04338951 0.55027765
0.11308072 0.041242078 0.55290002
0.11581384 0.032882832 0.57682765
0.116924 0.033012658 0.58002609
0.11143027 0.046067845 0.55106211
0.11157703 0.045228522 0.55538052
0.1136571 0.044207256 0.55699885
0.11597861 0.037634619 0.57533175
0.11434345 0.0373886 0.57753563
0.11508837 0.03520615 0.5814414
0.10854645 0.047228113 0.55391103
0.1120033 0.038107943 0.57996774
0.11166376 0.037557617 0.58141816
0.10817908 0.042093728 0.55117941
0.10820995 0.040358126 0.55284172
0.11114568 0.031696174 0.57724506
0.10619547 0.04435946 0.55083805
0.10677152 0.042314459 0.55553514
0.10927811 0.034684993 0.57667381
0.10992162 0.033171549 0.58143044
0.10460366 0.047604963 0.55236012
0.105022 0.04663834 0.55549341
0.1073364 0.038224064 0.57953501
0.10832248 0.036800958 0.58285928
0.10381791 0.039182317 0.55306643
0.10712675 0.030863073 0.57707536
0.10151174 0.04270535 0.55028749
0.10234513 0.039920088 0.5546779
0.10127221 0.040764615 0.55761069
0.10320403 0.034396902 0.57514149
0.10506464 0.031728726 0.57704037
0.10510691 0.031366549 0.58185589
0.099729151 0.047342703 0.55181831
0.1008433 0.046171859 0.55714899
0.10015146 0.043218993 0.55869228
0.10216405 0.037345823 0.57629561
0.10358146 0.03863018 0.57922542
0.10367928 0.035568204 0.58416086
0.097174816 0.048901398 0.55378819
0.097672708 0.047877535 0.55679953
0.10044932 0.039466437 0.58087528
0.10119097 0.03824224 0.58407503
0.096946061 0.041027911 0.54967612
0.098161161 0.037740219 0.55386662
0.097526632 0.038558125 0.55788505
0.09959957 0.03280684 0.57437402
0.10083179 0.029693041 0.57692158
0.10061273 0.029367007 0.58217883
0.094946675 0.046060398 0.55015099
0.096332647 0.041968778 0.55986202
0.098248146 0.036619496 0.57525176
0.099140882 0.033379324 0.58555585
0.093131177 0.049310241 0.55349696
0.093654677 0.048601363 0.557935
0.093427636 0.045874961 0.56086451
0.096117884 0.039992481 0.57763302
0.096579626 0.040321536 0.58182949
0.096938573 0.037837874 0.58561933
0.090333953 0.05062028 0.5563935
0.090491928 0.050075188 0.55740249
0.093168631 0.041750133 0.57946634
0.09367092 0.041120961 0.58297235
0.093989976 0.040004253 0.58551008
0.092337593 0.039396681 0.55015838
0.093166187 0.036857553 0.5541451
0.093049265 0.037341297 0.55795842
0.095171459 0.031396955 0.57459468
0.095875815 0.028849997 0.5772323
0.096035004 0.028236119 0.58184028
0.090448119 0.044239085 0.54950476
0.091354065 0.040049873 0.56017238
0.093170807 0.034841567 0.57479286
0.094335154 0.031000156 0.5856297
0.088537917 0.048369221 0.55171978
0.090593882 0.049129631 0.55880624
0.089686774 0.044190452 0.56159127
0.091546826 0.038911067 0.57666194
0.092889227 0.035913929 0.58719826
0.086980969 0.051521976 0.55534619
0.087129153 0.050692961 0.55968928
0.087594099 0.047924854 0.5619216
0.089804143 0.041903645 0.57930964
0.089798249 0.042603612 0.5827232
0.090541124 0.040124003 0.58697397
0.084124118 0.053912453 0.55749655
0.084472552 0.053414188 0.55976397
0.087631166 0.044435933 0.58493
0.087674364 0.043141603 0.58741933
0.088772796 0.039073523 0.55137312
0.08916793 0.037485883 0.55457318
0.089550905 0.037315063 0.55768114
0.091892637 0.029322954 0.57810694
0.092610464 0.028392795 0.58126634
0.086189121 0.041941982 0.55154586
0.085777365 0.039367594 0.55583388
0.087527812 0.039293386 0.55929893
0.089779355 0.033208288 0.57583404
0.088655636 0.031117717 0.57922441
0.09025003 0.030383458 0.58355778
0.08387664 0.045837395 0.55205417
0.083250597 0.041685544 0.55727321
0.085415132 0.042887554 0.56116909
0.087183245 0.037037022 0.57713395
0.085908912 0.033654731 0.58055013
0.087869152 0.033665985 0.58607429
0.082244918 0.050812203 0.55397278
0.083814554 0.049441177 0.56174451
0.082657441 0.047171362 0.56214911
0.084792688 0.041246995 0.57979232
0.086579584 0.042409085 0.58103293
0.086354546 0.038301609 0.58829117
0.080411941 0.054121178 0.55702484
0.080894046 0.053606324 0.56145459
0.080786116 0.050259531 0.56312633
0.083171368 0.043917909 0.58127987
0.083924085 0.045484155 0.58441746
0.084205471 0.042709719 0.58851618
0.078077026 0.054902084 0.56055301
0.08170937 0.045851912 0.58677179
0.081864215 0.045318402 0.58787048
0.079343028 0.044909723 0.55437434
0.080146268 0.04326658 0.55759561
0.07996989 0.042537365 0.56093061
0.081886575 0.036120132 0.57824439
0.082945183 0.034868397 0.58131015
0.082934961 0.034185324 0.58487558
0.077455543 0.048929386 0.55416775
0.079416558 0.045122162 0.55745643
0.078777671 0.045643497 0.56258929
0.080796115 0.039658524 0.57906079
0.082264908 0.03617242 0.58252054
0.081585005 0.036508754 0.58770746
0.076152973 0.052459478 0.55701035
0.076086268 0.052073963 0.56183797
0.077308618 0.04878179 0.56349945
0.079391755 0.042921994 0.58091629
0.078364976 0.043911323 0.58467585
0.079904817 0.04103332 0.58838314
0.076907851 0.054427095 0.56058705
0.079855815 0.045404542 0.58591664
0.080615237 0.044531379 0.58815658
0.080807596 0.023665098 0.5527482
0.08172778 0.022013865 0.55537236
0.08231958 0.019927429 0.55985475
0.083097629 0.018375652 0.56433707
0.083245702 0.017746545 0.5693754
0.082252748 0.016746007 0.57205617
0.078903951 0.026810734 0.55189121
0.082862295 0.018328961 0.5711078
0.082419768 0.018751301 0.57522464
0.081325777 0.019287301 0.57873034
0.077325538 0.029849455 0.55101228
0.080820784 0.02031659 0.57815081
0.080479808 0.020480569 0.57994288
0.074599884 0.038033247 0.55352348
0.076329947 0.036840592 0.55553734
0.076321349 0.035419904 0.56000799
0.078235045 0.030170865 0.57560986
0.078865625 0.028069399 0.57963699
0.077898979 0.027927984 0.58217365
0.074756965 0.041869797 0.55374759
0.077618338 0.039576314 0.55648154
0.075916983 0.038527511 0.56262523
0.077295654 0.034221899 0.57518142
0.080205947 0.030981343 0.5805127
0.078270443 0.031066209 0.58442247
0.072895639 0.046745468 0.55432385
0.074304111 0.043346923 0.56377733
0.075688764 0.038047984 0.5774194
0.076697439 0.034677539 0.58732456
0.072422832 0.049154751 0.55686104
0.072137803 0.04856617 0.56052047
0.072373025 0.046535119 0.56346673
0.074469216 0.040760305 0.58048773
0.074931316 0.040377781 0.58417481
0.075878017 0.038231093 0.58735156
0.077127904 0.022223242 0.55137354
0.078562118 0.0198546 0.5547722
0.07924892 0.017551642 0.55938506
0.079802051 0.016565243 0.5640021
0.079978086 0.015004705 0.56903446
0.079258069 0.014727228 0.5721339
0.075293258 0.028322855 0.55007589
0.076647446 0.025483791 0.5514316
0.076299332 0.023075338 0.55520725
0.076843083 0.020085964 0.5607481
0.077454448 0.018635768 0.56514001
0.078154258 0.018973002 0.57063198
0.079554342 0.016962837 0.57511938
0.078222036 0.017771631 0.57879567
0.074648283 0.031203508 0.55040991
0.074085519 0.030075932 0.55399007
0.073450744 0.02885472 0.55835629
0.072415166 0.027876183 0.56129861
0.075172432 0.023251681 0.57303035
0.077081777 0.021980321 0.57672769
0.077738494 0.020134332 0.58088946
0.071652986 0.035784703 0.55180192
0.074250251 0.033618014 0.55425143
0.074671365 0.032313667 0.56020272
0.072766691 0.031923939 0.56330997
0.073812194 0.028887849 0.57135034
0.076093212 0.02753919 0.57351339
0.076947182 0.0246301 0.57928616
0.075647332 0.024882261 0.58315367
0.069796301 0.039501239 0.55247009
0.071231924 0.037577413 0.56409037
0.072102025 0.035081755 0.56410295
0.072915517 0.031926852 0.57290381
0.072296053 0.033826519 0.5745306
0.073533796 0.028051414 0.58509374
0.068605982 0.044510256 0.55517858
0.067399807 0.04415457 0.55902475
0.069556676 0.04148452 0.56343222
0.071169548 0.036194358 0.57760084
0.07009948 0.035431203 0.5834437
0.072277687 0.033448633 0.58636284
0.069019645 0.045923516 0.56093889
0.069892317 0.045111809 0.56302214
0.071149088 0.038562432 0.58060968
0.071483634 0.038136963 0.58292335
0.072744638 0.036526605 0.58619511
0.072947294 0.020380838 0.5510807
0.074181408 0.016934626 0.55418801
0.074915938 0.014516082 0.55869001
0.075633883 0.013444038 0.56328243
0.075997137 0.012359994 0.56828648
0.075413831 0.01262364 0.57297629
0.070490114 0.025152555 0.54887402
0.071955875 0.02306547 0.54959029
0.071984425 0.022883656 0.55715096
0.072041899 0.020096974 0.56061977
0.073303193 0.018507255 0.56566489
0.072519533 0.018880256 0.56977886
0.074968569 0.014048617 0.57606274
0.073897623 0.015165005 0.57872134
0.068538196 0.029480845 0.54940259
0.072846241 0.026392564 0.5551967
0.071909375 0.025490683 0.55839837
0.070510231 0.025960585 0.5619545
0.071312219 0.023601454 0.56920606
0.073508851 0.020904025 0.57149929
0.072943144 0.017713469 0.58102268
0.067343108 0.034423895 0.5503487
0.069598153 0.029407218 0.56356478
0.070068426 0.027225181 0.57046336
0.071009241 0.021838935 0.58401459
0.066013239 0.039253004 0.55221128
0.066319816 0.035037719 0.56356877
0.066555537 0.034208924 0.56605077
0.067150034 0.032330051 0.57117438
0.067647338 0.0312513 0.5746991
0.069504917 0.026476081 0.58573478
0.06438189 0.042118996 0.55492496
0.064286642 0.041391157 0.55886948
0.065685786 0.039343975 0.56338573
0.066140264 0.037539296 0.56810701
0.066840827 0.035073157 0.57249194
0.066845693 0.034290712 0.57795995
0.066898912 0.033076126 0.58271331
0.068691798 0.030508768 0.58559263
0.070814319 0.011632892 0.55882281
0.069843322 0.0098856268 0.56223571
0.06825266 0.018255346 0.55102944
0.069438182 0.014714948 0.55408221
0.070471659 0.012655598 0.55800891
0.071559086 0.011247388 0.56292635
0.070908986 0.0093429126 0.56864226
0.07103923 0.010093046 0.57322139
0.06621974 0.023637908 0.54900533
0.066914439 0.021176541 0.54952699
0.068981454 0.02155301 0.5589745
0.06731493 0.019787995 0.5615952
0.068039082 0.01838759 0.56601506
0.070683464 0.011475828 0.57612616
0.069400452 0.012691156 0.57844573
0.064959943 0.027430646 0.54946244
0.066034213 0.023029355 0.56238973
0.066619843 0.020692861 0.56775224
0.06827119 0.015984837 0.58128858
0.062484831 0.032121517 0.55091935
0.063695744 0.027330182 0.56317914
0.065015256 0.024726413 0.57041901
0.062567547 0.025651556 0.57223994
0.066628739 0.020513805 0.58396208
0.061409414 0.036231861 0.5527845
0.059231147 0.036214449 0.55691731
0.062623896 0.032136958 0.56267339
0.062483743 0.031366114 0.56682259
0.062855758 0.030544069 0.57143128
0.063984208 0.028133506 0.57374942
0.062623098 0.026373442 0.58267021
0.065075487 0.024717234 0.58463615
0.061416417 0.039003838 0.55554879
0.061147362 0.03792531 0.55838436
0.061319448 0.036134735 0.5630455
0.061864667 0.034569882 0.5668323
0.062709853 0.032486472 0.57166803
0.062678598 0.031527527 0.57702631
0.063369438 0.029442694 0.58101362
0.065054245 0.029037949 0.58409876
0.063788272 0.0099675981 0.55505317
0.065616116 0.0095299054 0.55821419
0.065954067 0.0083206287 0.56165802
0.065174855 0.0066202888 0.56556606
0.063513778 0.015913149 0.55106246
0.065137692 0.013294797 0.5535937
0.065865934 0.010437282 0.55829251
0.065938152 0.008140903 0.5641008
0.06684754 0.0076977517 0.56800508
0.066461205 0.0082653556 0.57305998
0.061247118 0.022287883 0.54928911
0.062011793 0.019605143 0.54972404
0.065440178 0.0094415313 0.57610083
0.065025501 0.01137553 0.57820958
0.059951529 0.025533374 0.55017793
0.062083498 0.021438591 0.56366652
0.062445678 0.02045453 0.56688428
0.063473865 0.014554115 0.58056188
0.058139123 0.029500235 0.55187827
0.056030788 0.030778732 0.55386013
0.060212426 0.025657777 0.56430197
0.060876846 0.023653135 0.56919581
0.061403982 0.018870333 0.58235055
0.058034584 0.033411775 0.5536772
0.056525059 0.033344962 0.55665803
0.05668696 0.032970734 0.56197524
0.057263248 0.030765641 0.56705356
0.057502881 0.029754164 0.57159817
0.057405055 0.027201194 0.57643509
0.058912233 0.024743127 0.58052373
0.060908757 0.022856645 0.58315778
0.057191014 0.034316253 0.56211978
0.057453334 0.03264638 0.56633657
0.057160772 0.029826012 0.57243001
0.059022203 0.029232077 0.57657868
0.059971876 0.028035454 0.57940274
0.060065009 0.01052303 0.55017072
0.06114807 0.0088125151 0.55300534
0.062127486 0.0065501472 0.55723661
0.062678419 0.0051718419 0.56212312
0.062782548 0.003953469 0.5668323
0.06294889 0.0034898333 0.57014579
0.059512004 0.013803378 0.54948562
0.061425008 0.011236206 0.5518539
0.064200915 0.0072755255 0.56361395
0.064101361 0.0057024695 0.56866384
0.062364824 0.0053585265 0.57316947
0.05686307 0.019644981 0.54866183
0.058086306 0.01844383 0.54928607
0.062447488 0.009177424 0.57610995
0.060200438 0.0088117737 0.57782716
0.055388473 0.023556259 0.55023748
0.059125245 0.013175019 0.57991201
0.0544165 0.026485994 0.5517779
0.05314254 0.027842514 0.55395055
0.055943027 0.018695425 0.57991517
0.057987541 0.016519539 0.58090931
0.052551419 0.02972509 0.55741495
0.052389376 0.030070871 0.56149656
0.053109713 0.029722087 0.56619644
0.053985313 0.02786006 0.57170224
0.053914249 0.024878286 0.57602996
0.055526942 0.022180818 0.57889402
0.051048703 0.029452566 0.56765765
0.05192221 0.028178977 0.57163697
0.051952489 0.026718501 0.57453674
0.057553515 0.007505361 0.55345219
0.057277694 0.0052697938 0.55751663
0.057903364 0.00345123 0.56191909
0.058981083 0.0029044608 0.56639588
0.054992624 0.012911536 0.55041707
0.055043459 0.0093568955 0.55306768
0.054756507 0.0065057199 0.55629277
0.055686221 0.0035542194 0.56439787
0.056963578 0.0036208872 0.56817716
0.057284787 0.0047044633 0.57238197
0.058930427 0.0053782454 0.5760597
0.053721368 0.018104244 0.54880792
0.052695096 0.016077001 0.55083007
0.054842979 0.006920632 0.57456708
0.057000518 0.007716611 0.5776968
0.052378193 0.022271868 0.55057979
0.050049692 0.020363063 0.55221605
0.05259902 0.011577116 0.57709485
0.055585273 0.01099951 0.57896566
0.051133044 0.024620127 0.55168927
0.049174882 0.024902446 0.55453598
0.047869325 0.024507038 0.55910891
0.049620397 0.018717971 0.57516134
0.051434457 0.016041722 0.57845998
0.054883294 0.015040251 0.5804826
0.04881902 0.02790194 0.55722511
0.0485899 0.027705736 0.56142616
0.048680387 0.026156541 0.56598884
0.049233437 0.024331953 0.57091767
0.04999201 0.02277413 0.57523739
0.050999813 0.020165533 0.57863855
0.049483486 0.029212525 0.56665444
0.050156459 0.027424611 0.57156593
0.050710186 0.0259977 0.57479417
0.027914219 0.069568105 0.58477372
0.028633973 0.068336479 0.58833086
0.02707148 0.072568685 0.58621371
0.027707594 0.071242288 0.5895288
0.025983663 0.074675485 0.58812559
0.026332296 0.074167371 0.58988506
0.052626923 0.0033649262 0.55871177
0.053251311 0.0025624456 0.56106496
0.051284172 0.011927436 0.55202466
0.050576605 0.0086643137 0.55405527
0.051694393 0.0056035565 0.55672461
0.052207872 0.0027974593 0.5640595
0.052328266 0.0034111552 0.56776726
0.052643344 0.0045437161 0.57143396
0.049247555 0.014431758 0.55259323
0.047204539 0.012323087 0.55373383
0.049390171 0.0058729211 0.57166946
0.051488295 0.0069205351 0.57327491
0.048069946 0.018661551 0.55407256
0.045680575 0.017414598 0.55654329
0.047737144 0.011526188 0.57306969
0.050386354 0.01095815 0.57497329
0.047546946 0.021809958 0.55581743
0.045544468 0.021291591 0.55950737
0.043638416 0.02057907 0.56490999
0.044083901 0.019044623 0.5692957
0.047138706 0.016243808 0.57318664
0.049742676 0.015049646 0.57585585
0.046093784 0.023937076 0.56215757
0.045513742 0.022919107 0.56537604
0.045793764 0.021203559 0.56954294
0.047538195 0.020031601 0.57307804
0.034299769 0.04258728 0.55934465
0.034313846 0.041993439 0.56020284
0.037532203 0.031980403 0.58793849
0.037849225 0.031732738 0.58897722
0.033707231 0.044809487 0.56004733
0.033752143 0.044414867 0.56312156
0.03531928 0.038029395 0.58527255
0.036669783 0.03551878 0.58754897
0.037229247 0.034022622 0.59005111
0.03218364 0.047702882 0.56207085
0.032409757 0.048045199 0.5655275
0.032447327 0.047520041 0.56869334
0.034460921 0.041428104 0.58559179
0.035086639 0.039856903 0.58835369
0.035624318 0.037277259 0.5906657
0.030838294 0.051274076 0.56789845
0.031108813 0.051071834 0.57176977
0.030390777 0.051562753 0.57488179
0.031247616 0.047810722 0.58375686
0.032822039 0.046025082 0.58587861
0.033396494 0.04381318 0.58893275
0.029745845 0.053957883 0.57480758
0.030077927 0.054289047 0.57763231
0.030674752 0.052105591 0.58370656
0.031201931 0.049646817 0.58608049
0.027227791 0.058962896 0.57754844
0.028672405 0.057911485 0.58014625
0.029032189 0.055953976 0.58443689
0.028494645 0.055118736 0.58725071
0.026200788 0.060877658 0.57854348
0.027196661 0.062718332 0.58160514
0.027390491 0.061145209 0.5864113
0.027528245 0.057720415 0.58816272
0.02605469 0.067159109 0.58420712
0.026362242 0.065774053 0.58772808
0.026126459 0.071489066 0.58589178
0.026564149 0.070474572 0.58914375
0.02506184 0.074415013 0.58777654
0.025534499 0.073698789 0.589917
0.047653034 0.0017035967 0.55862767
0.048146617 0.00089764036 0.56080639
0.045674689 0.0073679108 0.55498242
0.0469409 0.0040821298 0.55719471
0.047460824 0.0017191777 0.56393772
0.047521561 0.0027425373 0.56747121
0.041639097 0.012687217 0.55330545
0.043891795 0.010796008 0.5542298
0.046135783 0.0048802085 0.5708667
0.04409666 0.0056782793 0.57296962
0.040736564 0.015977088 0.55419052
0.043023333 0.016257934 0.55652076
0.04488714 0.01036138 0.57278395
0.043152153 0.0086024478 0.57471144
0.039876468 0.018130746 0.55582738
0.04059545 0.018963998 0.55951959
0.041635934 0.020207819 0.56321472
0.042635091 0.017524704 0.57081997
0.04213006 0.014317004 0.57275242
0.042111725 0.011107628 0.57506001
0.038004354 0.02085847 0.56146306
0.039736025 0.020795856 0.56529665
0.040510155 0.019142054 0.56984365
0.039349303 0.016834497 0.57290637
0.031813223 0.040535793 0.55756503
0.032587215 0.040509786 0.56089497
0.035588436 0.031059533 0.5868125
0.035649933 0.028918393 0.58962035
0.030725924 0.044900954 0.55834657
0.031981736 0.041764498 0.56387424
0.030757762 0.042250026 0.56729549
0.032826357 0.03614188 0.58373529
0.034738898 0.033694293 0.58570462
0.034725241 0.032625251 0.59195882
0.028514512 0.048206184 0.56147379
0.029922247 0.049774971 0.56415421
0.030267762 0.045106895 0.57032645
0.03169411 0.040554587 0.58307016
0.033151366 0.03987379 0.59104484
0.032114472 0.037035577 0.59228158
0.026449563 0.049720757 0.56373763
0.02716409 0.051359877 0.56683999
0.029714614 0.048525717 0.57268363
0.028295342 0.049310416 0.57497543
0.029304173 0.046222996 0.58277011
0.031490691 0.044638377 0.58365417
0.030244946 0.042716209 0.59068829
0.030086823 0.039465699 0.59200603
0.025800373 0.052650869 0.56993479
0.026274694 0.054167278 0.57360876
0.027001107 0.052083246 0.57902861
0.027551496 0.050863139 0.58187306
0.027948154 0.04920996 0.58787298
0.028487362 0.045896262 0.58951688
0.024516121 0.057920977 0.57659841
0.025040342 0.055021852 0.58183748
0.024847418 0.055275511 0.58227748
0.025992393 0.053699695 0.58824706
0.022426367 0.061908562 0.57833064
0.023514682 0.061158109 0.58258945
0.023587707 0.060148172 0.58552992
0.023935184 0.057771869 0.5896368
0.020398585 0.065849677 0.58017153
0.022349229 0.065672539 0.58393788
0.022069622 0.064118199 0.58724004
0.02189222 0.06226768 0.59117699
0.01904512 0.068212107 0.58200365
0.019262953 0.06958726 0.58552748
0.02010265 0.068270244 0.58978873
0.020422164 0.065159746 0.59209228
0.017625635 0.073514506 0.58751082
0.018624051 0.07245978 0.59110576
0.016101222 0.076902904 0.58898306
0.017147744 0.075901702 0.59265476
0.043023407 -0.00030012056 0.55832446
0.043474551 -0.0011457 0.56103367
0.039019637 0.006661254 0.55157322
0.04112158 0.0049443915 0.55472732
0.042640761 0.0026914044 0.55676013
0.043562021 2.1156855e-05 0.56386423
0.042616971 0.00040453952 0.56754673
0.041571464 -0.00019945204 0.57131559
0.038842656 0.010149672 0.55191755
0.041724034 0.0084621226 0.55370528
0.043733284 0.00246803 0.57000321
0.041421905 0.0024653259 0.57307559
0.037624899 0.015136769 0.55340999
0.038857624 0.017081518 0.55598819
0.041043565 0.010161688 0.57451206
0.040094789 0.0069878846 0.57549697
0.035272919 0.018142929 0.55558389
0.036479186 0.019388005 0.55810809
0.038441531 0.013402984 0.57488781
0.037726257 0.010631822 0.57615376
0.03417816 0.020982027 0.56068283
0.034929454 0.021079153 0.56561303
0.035660408 0.019283211 0.57063663
0.036059383 0.015935671 0.57452309
0.031830538 0.021705166 0.56644338
0.032744173 0.02019934 0.57061309
0.026246216 0.035819631 0.55272269
0.027694315 0.034769412 0.55488956
0.030339716 0.024075501 0.58589906
0.031593613 0.022745969 0.58853275
0.030813511 0.02192172 0.59106207
0.025696706 0.038884491 0.55350566
0.028313611 0.038004562 0.55572647
0.027657526 0.037259728 0.56122196
0.030588612 0.028037887 0.58560568
0.03230945 0.025653562 0.59008729
0.030410415 0.024643905 0.59272158
0.025600787 0.041823462 0.55520022
0.025643816 0.043216586 0.55859983
0.025978681 0.040871028 0.56374228
0.02731416 0.041505761 0.56681877
0.029300002 0.035236597 0.58410454
0.028622514 0.032558069 0.5865202
0.029727589 0.031128898 0.5919773
0.030002896 0.027810842 0.59346384
0.025105292 0.04706528 0.56111217
0.02395995 0.04439842 0.56473887
0.025696054 0.044076856 0.56947172
0.027262345 0.03917446 0.58406085
0.026737534 0.035900131 0.58839816
0.02888279 0.035688564 0.59255147
0.024745714 0.048983209 0.56349522
0.023702331 0.04938709 0.56692141
0.023590831 0.048050858 0.57131892
0.024986537 0.048930649 0.57504475
0.02622027 0.045216013 0.58321071
0.025342997 0.042839717 0.58559889
0.026466295 0.041078117 0.58999723
0.028538253 0.038742024 0.59212059
0.023108376 0.052075498 0.57416683
0.022474326 0.05155424 0.57757801
0.023340886 0.049407158 0.58341283
0.024290444 0.048171934 0.58640319
0.02624356 0.045164663 0.5890618
0.019969307 0.055929799 0.5764786
0.021227127 0.053454034 0.58111578
0.021384951 0.053070024 0.58241194
0.021161642 0.051620308 0.58823329
0.01820026 0.060280617 0.5782966
0.018669931 0.058970258 0.58337444
0.018945782 0.05820908 0.58483088
0.019553017 0.055920698 0.59005523
0.017024882 0.063323893 0.58009517
0.016786251 0.064184196 0.58253038
0.016798208 0.062209021 0.5861547
0.018023195 0.06027459 0.59119004
0.01557292 0.066555776 0.58493221
0.015869958 0.064990856 0.58976525
0.015054053 0.062735535 0.59166509
0.038388025 -0.0018554442 0.55760974
0.038877852 -0.0033286028 0.56124341
0.03584642 0.0051917816 0.55162489
0.0367411 0.0026066639 0.55339545
0.03847054 0.00030838791 0.55570382
0.039382353 -0.0029209577 0.56419688
0.038388096 -0.0025567291 0.56783211
0.038141698 -0.0016109692 0.57104307
0.03460712 0.0082058869 0.5513404
0.039605312 -0.00015926734 0.57080966
0.03731114 0.00036619138 0.57322538
0.03271297 0.013391228 0.55158007
0.035551187 0.0039262958 0.5765242
0.028760452 0.017337229 0.55157268
0.030907009 0.018268447 0.55400503
0.033825804 0.0092853988 0.57844013
0.031902499 0.0076616467 0.58026838
0.028504193 0.020536134 0.55702919
0.030318312 0.02166583 0.5603444
0.03239603 0.015862161 0.57599366
0.031196237 0.01294131 0.57797796
0.023908604 0.029849563 0.55088007
0.025182609 0.029014746 0.55304432
0.026289821 0.022404239 0.55913794
0.027247135 0.023747092 0.56226379
0.028255293 0.022603342 0.56768531
0.028941965 0.021127997 0.57186139
0.028992372 0.018662099 0.57644433
0.02808059 0.016887272 0.58096242
0.028810527 0.016920744 0.5865826
0.028030053 0.016264383 0.58910632
0.024260279 0.033941496 0.55107731
0.026334705 0.031943046 0.55439597
0.024380775 0.030883064 0.55880153
0.02490411 0.024984065 0.56518775
0.02597253 0.021251496 0.5758912
0.027468763 0.021903107 0.5838778
0.030155243 0.019541921 0.58777213
0.029002171 0.01935735 0.59150034
0.023204934 0.037488319 0.5525437
0.021215217 0.03787259 0.556229
0.024001863 0.034465335 0.56197906
0.026554722 0.02629206 0.58387077
0.025353227 0.025080938 0.59111959
0.028141042 0.022853546 0.59305596
0.023473486 0.040530395 0.55503178
0.022088747 0.039932694 0.55903769
0.022398451 0.038512114 0.5624814
0.025136031 0.029716931 0.58677197
0.026073085 0.028979987 0.59025097
0.028157705 0.026789118 0.59325582
0.015574381 0.054836694 0.57695675
0.015767287 0.052300625 0.57952547
0.01617674 0.051001117 0.58387804
0.016920812 0.05091624 0.58806515
0.014462756 0.056415185 0.57823205
0.013591344 0.058133535 0.58117205
0.013704332 0.056954458 0.58578593
0.015073542 0.054353543 0.58901817
0.013871782 0.06276723 0.58065188
0.011894189 0.061159812 0.58296627
0.012960337 0.059490364 0.58758515
0.014220251 0.059063509 0.59091312
0.010367056 0.06580741 0.58504117
0.011227302 0.064671867 0.58988917
0.012564182 0.063212067 0.59227341
0.0079373717 0.06949947 0.58704907
0.0089359786 0.068455406 0.59148973
0.0057835635 0.073174231 0.58866614
0.0065292697 0.071951427 0.59296793
0.034307115 -0.0039246609 0.55740672
0.034859188 -0.0055206162 0.56134772
0.031838566 0.0040431833 0.55190843
0.032083999 0.0011129749 0.55337709
0.033085149 -0.0018151924 0.55605799
0.033780698 -0.0048429882 0.56383204
0.033688486 -0.0040851384 0.56773663
0.032850821 -0.0030985423 0.57074648
0.027683662 0.0090506943 0.54810035
0.029799929 0.0065637399 0.55099308
0.031068537 -0.0036855859 0.57054275
0.032532845 -0.001518725 0.57342041
0.031097051 -0.00163254 0.57765406
0.026820326 0.012536485 0.54816407
0.029712476 0.011576928 0.55038404
0.032838143 0.0021323634 0.57718122
0.030623326 0.00092719053 0.5798732
0.025811851 0.016884975 0.55034924
0.029582987 0.0055587282 0.58120894
0.020736244 0.023850616 0.54853171
0.022239525 0.021095254 0.55244964
0.024019599 0.020221656 0.55593371
0.026777733 0.011563558 0.57979733
0.025966398 0.0097179608 0.58324152
0.02541285 0.0094156722 0.58776438
0.020931397 0.027616519 0.54881924
0.023326948 0.025502952 0.55301106
0.022159239 0.023734944 0.55787438
0.024197562 0.023969918 0.56077349
0.023728523 0.022207731 0.56960177
0.023434792 0.021567898 0.57054651
0.026075013 0.01748986 0.57854271
0.025035501 0.015499714 0.58090621
0.026988804 0.01352592 0.58569837
0.025849039 0.012630232 0.59000897
0.019854259 0.031637408 0.55061346
0.020541728 0.028294932 0.5591504
0.021472264 0.025310636 0.56366116
0.021994844 0.023263521 0.56802005
0.022700951 0.021560809 0.57317048
0.023552997 0.020318402 0.57812148
0.0234551 0.019784655 0.58278918
0.024940174 0.016871214 0.59143806
0.018593792 0.034051884 0.55310464
0.018285848 0.034399934 0.55664772
0.01898317 0.03310544 0.56080937
0.021693744 0.024130331 0.58510476
0.022414887 0.022652483 0.58938152
0.023380306 0.019955738 0.59154427
0.019680213 0.037143711 0.55938512
0.019462422 0.036381342 0.56114542
0.015839811 0.034341671 0.57392722
0.016156802 0.033649199 0.57626408
0.022357907 0.026901547 0.58684444
0.023159884 0.026512489 0.58876175
0.015214058 0.038801804 0.57405001
0.015667908 0.037214294 0.57850343
0.014261935 0.040638566 0.57554978
0.014616442 0.039096709 0.57905167
0.012117644 0.054380432 0.577663
0.010931379 0.0526211 0.57960904
0.011891458 0.050955638 0.58484733
0.012895489 0.050870936 0.58738583
0.011277558 0.055072837 0.57817376
0.0090562459 0.055260848 0.5815798
0.0094340751 0.053788479 0.58586186
0.012028698 0.052580092 0.58823502
0.0066088466 0.056766011 0.58376324
0.0075285519 0.055797905 0.58698201
0.0053359251 0.069621623 0.58705217
0.0058346651 0.069407761 0.59262043
0.0035580276 0.072404124 0.58860403
0.0047347983 0.071445793 0.59293228
0.030989215 -0.005397303 0.55834007
0.031215757 -0.0062887687 0.56061876
0.027968889 5.7403697e-05 0.55416852
0.028143866 -0.0028974919 0.5576852
0.028639637 -0.0050531705 0.56270516
0.029452842 -0.0046659922 0.5675022
0.025847703 0.0082160495 0.5485307
0.02513741 0.0053497599 0.55055135
0.02537884 0.0019810705 0.55348754
0.027384192 -0.0037521173 0.56992227
0.027962826 -0.0030555632 0.57399309
0.029544169 -0.0022870195 0.57701194
0.022973975 0.011226577 0.54872614
0.022200566 0.0085735014 0.55012578
0.025533291 -0.0010791004 0.57699794
0.026751554 0.00014582532 0.57954609
0.017972901 0.016797882 0.54742861
0.020603955 0.015094844 0.54796469
0.024878873 0.0025310193 0.58307421
0.022683332 0.0034603521 0.58514273
0.017875947 0.021631297 0.54748577
0.020374438 0.019699037 0.55024648
0.021104967 0.020573914 0.55669898
0.023811439 0.012321796 0.57977891
0.024613593 0.0073913438 0.58414185
0.022895973 0.0067502791 0.58787203
0.01669042 0.026051614 0.54741722
0.019379726 0.02232595 0.55801648
0.017651411 0.019679148 0.5705694
0.021909913 0.014360659 0.58035916
0.022111367 0.010147063 0.59118885
0.01497139 0.029936031 0.54987037
0.016770687 0.026697334 0.5604459
0.016590988 0.024285996 0.56372148
0.017613739 0.02215736 0.5685243
0.018096307 0.020699993 0.5729937
0.018135782 0.019358603 0.57804632
0.019441973 0.018771281 0.58166969
0.02013259 0.014843661 0.59230113
0.014305072 0.032310467 0.55274457
0.014063418 0.031948112 0.55594552
0.015089368 0.030246614 0.55943763
0.01300916 0.028363265 0.57175809
0.013558889 0.027267413 0.57473153
0.01828583 0.020978633 0.58527923
0.018057263 0.019894043 0.58908635
0.018941268 0.01814314 0.59164757
0.012154918 0.033862974 0.56983119
0.013630424 0.031316608 0.57187432
0.014150004 0.02996094 0.57686478
0.012225846 0.030058675 0.58000642
0.011426961 0.03737805 0.57046711
0.013241806 0.037855532 0.5721969
0.013871794 0.034509957 0.5800482
0.011773696 0.032903619 0.58208352
0.0085748648 0.042223159 0.5712415
0.010400038 0.041547477 0.5755958
0.011034546 0.039542608 0.58073878
0.010416839 0.03718799 0.58477563
0.0067295767 0.043176312 0.5734514
0.0078853341 0.042830735 0.57776225
0.008212761 0.041172318 0.5813477
0.0087205172 0.039468873 0.58442599
0.0052364189 0.054403223 0.58220571
0.0056135822 0.053015143 0.58592856
0.0027415231 0.057211414 0.58364683
0.0033991532 0.056224164 0.58719492
0.00064708479 0.059329748 0.58536184
0.0011078157 0.058488268 0.58860767
0.023916341 -0.0029921974 0.55962968
0.024179291 -0.0044140546 0.56240219
0.020830464 0.0041729282 0.55193186
0.020941162 0.0017355215 0.55491436
0.021422796 -0.0014921904 0.55876011
0.021881791 -0.0039164177 0.56479049
0.022677833 -0.0034717312 0.56925368
0.02334002 -0.0034035724 0.57304716
0.018978845 0.01067482 0.54998279
0.018583644 0.0073957583 0.55160856
0.017773369 0.0037388769 0.55460441
0.019782204 -0.0022536719 0.57150668
0.021387937 -0.0013054223 0.57580185
0.022544827 0.00019994797 0.57899576
0.016434981 0.016415084 0.54726499
0.016540604 0.013248816 0.54888552
0.016007427 0.0097333184 0.55131608
0.019356871 0.00021697092 0.57846576
0.020555113 0.0012399768 0.58197504
0.020829938 0.0026370445 0.58544779
0.015009094 0.019301357 0.54776818
0.012986807 0.017772827 0.550304
0.017023232 0.0053848377 0.5846653
0.019822897 0.004914226 0.58712584
0.01217709 0.023778977 0.54882461
0.011277275 0.020088743 0.55193824
0.010814825 0.021193042 0.55839819
0.012838812 0.018976929 0.56310457
0.012770114 0.019234128 0.56537473
0.01376932 0.016274724 0.57465839
0.014111774 0.014547923 0.57605994
0.013441377 0.012828149 0.58161551
0.015237139 0.0081258062 0.58563948
0.016998051 0.0089991856 0.58975154
0.010865588 0.027507462 0.55093241
0.0092671411 0.026657941 0.55481929
0.010980753 0.024633175 0.55932921
0.013978534 0.022454539 0.56327885
0.013097147 0.021816691 0.56798917
0.013583609 0.020000143 0.57412916
0.015439731 0.017162472 0.57746631
0.013708608 0.016206078 0.58281833
0.01330184 0.01473539 0.58774191
0.015608501 0.012893816 0.59081447
0.011941025 0.030585188 0.55306548
0.01103425 0.029377269 0.55574954
0.011600678 0.028405633 0.5587545
0.0082949381 0.027423956 0.56804949
0.010801505 0.025657281 0.57032156
0.011383231 0.023804983 0.57499635
0.0095864655 0.023845011 0.57817382
0.014909865 0.018799921 0.58518773
0.01498177 0.017498918 0.58841085
0.0082217986 0.031339515 0.5684163
0.01043043 0.029358355 0.56993765
0.0112221 0.026854577 0.57745522
0.009454391 0.027117912 0.58031559
0.0065858215 0.036293436 0.56843412
0.0083872247 0.031059448 0.58327043
0.005860324 0.041181002 0.56855184
0.0052365176 0.040790904 0.56938463
0.0071001165 0.035422605 0.58535141
0.0035965787 0.042953745 0.57319617
0.0033729086 0.043581769 0.57768327
0.0039356472 0.041529913 0.58235377
0.005513927 0.038778082 0.58464295
-0.00048046373 0.056759451 0.58433574
-0.00021740608 0.056089602 0.58718055
-0.0018272828 0.058437783 0.5850389
-0.0013194419 0.057642877 0.588413
0.018050615 0.0018381025 0.55765438
0.019001236 -0.001562245 0.56069213
0.019401807 -0.0029402915 0.56372952
0.019457377 -0.0022279702 0.56755805
0.015552905 0.0069466103 0.55334193
0.01559703 0.0045402003 0.55665016
0.01517261 0.0019308854 0.56167662
0.015431854 0.00033252221 0.56606477
0.017400319 -0.00059799151 0.57104605
0.017878579 -0.0006542952 0.57485831
0.012633914 0.01271932 0.55088186
0.012736086 0.010188178 0.55365324
0.012057844 0.0079817846 0.55836117
0.011968951 0.0056862952 0.56310141
0.012341781 0.0040261536 0.56762445
0.013872261 0.0028985478 0.5726499
0.015527731 0.001731778 0.57721657
0.016230859 0.0018341189 0.58120686
0.011448422 0.015311256 0.5519141
0.010134247 0.013802041 0.55561733
0.0092305457 0.011818862 0.55900776
0.01008248 0.0078966673 0.56639141
0.010606761 0.0066342959 0.56699967
0.011137201 0.0059517538 0.574754
0.01297921 0.0054079629 0.57894188
0.015105488 0.0043892385 0.58248335
0.0092927478 0.023659792 0.55087602
0.0099798283 0.021124681 0.55319208
0.0095494213 0.018856537 0.55721992
0.0090244869 0.017243797 0.56245327
0.0068459138 0.016228758 0.56506193
0.0078007299 0.013351148 0.57360095
0.010477731 0.012083005 0.57634562
0.012235522 0.010426625 0.5808602
0.013759142 0.0095393118 0.5848096
0.013814855 0.010136108 0.58864242
0.0089519145 0.024873853 0.5513342
0.0086118868 0.024533702 0.55351496
0.008468207 0.019091081 0.56529927
0.0070159258 0.0200196 0.56689644
0.0075975657 0.016957469 0.57445246
0.0095530218 0.0154899 0.57540762
0.012900368 0.012127944 0.58765316
0.0052946983 0.024935553 0.56748354
0.0067725666 0.023420596 0.5677045
0.0083420314 0.021041745 0.57667446
0.0064602951 0.020972852 0.57789898
0.0033482462 0.030703299 0.56693035
0.0054675117 0.025300305 0.58201891
0.001568228 0.033525288 0.56779581
0.0037654275 0.027982417 0.58357018
0.00017953105 0.03830253 0.57045722
0.0019686129 0.033402108 0.5846194
-0.0012595318 0.042071648 0.57317215
-0.0018032026 0.043073405 0.5772264
-0.00095657073 0.040556032 0.58358282
3.0595809e-05 0.037494093 0.58544642
-0.0023452286 0.042651203 0.57931602
-0.0018167179 0.041881032 0.58168691
0.010208596 0.0072905403 0.56370187
0.010805014 0.0055824509 0.56865919
0.0086435732 0.011125434 0.56139672
0.0089391591 0.0098202126 0.56445926
0.0095810536 0.0079063131 0.56985241
0.0099561475 0.0071729897 0.57320243
0.0075873081 0.013620263 0.56265682
0.007288957 0.013820358 0.56693989
0.0077829268 0.012367845 0.57081187
0.0089156125 0.0096345134 0.57385153
0.0049641747 0.018220419 0.56867027
0.0052343961 0.016983842 0.57274735
0.001464976 0.023844315 0.56747288
0.0016054343 0.020934237 0.56914884
0.0025873631 0.018823359 0.57481492
0.0027105715 0.020109247 0.57812524
-0.0032681357 0.030246705 0.56557798
-0.00096813776 0.029046701 0.56678367
0.0011412874 0.023412958 0.58206969
0.00021671504 0.023804516 0.58450335
-0.0027111918 0.030950617 0.5658043
-0.0022153817 0.03213682 0.56793308
-0.0001889579 0.026563475 0.58373475
0.0001318343 0.024391664 0.58480716
-0.0043619126 0.03638481 0.57109284
-0.0025228336 0.031628754 0.5842737
-0.005728282 0.03999785 0.57334638
-0.0062852837 0.040682659 0.57764292
-0.0056890976 0.038745198 0.58267647
-0.004420029 0.035545878 0.5850482
-0.0042451341 0.041925639 0.5788551
-0.0040675681 0.041066904 0.5811516
-0.0023531634 0.021497767 0.57101279
-0.0018201936 0.02017363 0.57483119
-0.0049631316 0.026474524 0.56872237
-0.0057108644 0.02357542 0.57134992
-0.004892407 0.021614814 0.57666445
-0.0034763943 0.022283977 0.5801326
-0.0070783626 0.030096779 0.56935811
-0.0072406549 0.023232695 0.57905531
-0.0054566283 0.025419764 0.58265668
-0.0085405074 0.034068819 0.57173967
-0.010928705 0.034498535 0.5740726
-0.0098865386 0.031770997 0.5826571
-0.0071715955 0.02991613 0.58362603
-0.0087147895 0.037446402 0.57376397
-0.010092599 0.037013829 0.57685906
-0.0095475819 0.035405703 0.58155358
-0.0075361468 0.033444867 0.58400112
-0.0082250629 0.02421586 0.57359219
-0.0076686721 0.023185132 0.57571149
-0.0094623938 0.028461106 0.57080156
-0.011998309 0.027316574 0.5745945
-0.011801898 0.026121546 0.57780522
-0.0090100523 0.025520524 0.58115041
-0.010749726 0.031006046 0.57187074
-0.013527868 0.030427162 0.57600397
-0.013320463 0.029521644 0.57949156
-0.00990461 0.027998192 0.58209461
-0.012030134 0.033995017 0.57753873
-0.011832042 0.03285946 0.57999277
-0.012304196 0.0099141598 0.57392925
-0.01224724 0.009108481 0.57525885
-0.013103506 0.011636329 0.57420164
-0.015508818 0.026541594 0.57605374
-0.015667425 0.026018053 0.57712191
-0.016994471 0.028579708 0.5763216
-0.016700001 0.027876701 0.57882178
-0.017376142 0.031178871 0.57820821
-0.017284648 0.030780617 0.57903302
-0.012394054 0.00515988 0.57281864
-0.012343938 0.0046258438 0.57393891
-0.014193887 0.0085038282 0.57301486
-0.01324215 0.0075538009 0.57537109
-0.01770393 0.014138129 0.57168269
-0.016059807 0.012675191 0.57433879
-0.014949778 0.010423873 0.57632738
-0.020075308 0.016845495 0.57225746
-0.018994657 0.0153798 0.57489097
-0.021417717 0.022919875 0.57428914
-0.021245362 0.022815056 0.57657349
-0.022029566 0.026775979 0.57569641
-0.021490352 0.025862159 0.57816195
-0.020789852 0.01359704 0.57168686
-0.020100961 0.01206826 0.57382292
-0.023177126 0.01671147 0.57203376
-0.022507081 0.01546272 0.57500768
-0.02539772 0.020898208 0.57361424
-0.023839915 0.020290744 0.57593441
-0.025335057 0.024115074 0.57551646
-0.024428612 0.023471385 0.5768854
