# .PCD v0.7 - Point Cloud Data file format
VERSION 0.7
FIELDS x y z
SIZE 4 4 4
TYPE F F F
COUNT 1 1 1
WIDTH 460
HEIGHT 1
VIEWPOINT 0 0 0 1 0 0 0
POINTS 460
DATA ascii
-0.23448637 0.19407359 0.47799999
-0.30189523 0.052200984 0.69700003
-0.29889515 0.053349558 0.69616669
0.32785866 -0.2061667 0.82999998
0.32399276 -0.20175016 0.83199996
0.32766837 -0.20241855 0.83049995
0.33019984 -0.20045877 0.83200002
0.31855461 -0.19627589 0.83399999
0.32267487 -0.19747201 0.83380002
0.3277095 -0.19772455 0.83355564
0.33099356 -0.19938572 0.83399999
0.31391284 -0.19115166 0.83200002
0.31798461 -0.19250897 0.8319999
0.32278782 -0.19290954 0.83288884
0.32709756 -0.19270283 0.8319999
0.33099356 -0.19238861 0.83399999
0.31391284 -0.18960048 0.83200002
0.31778824 -0.18756609 0.83236349
0.32244414 -0.1880493 0.8319999
0.32709754 -0.1880493 0.8319999
0.33137414 -0.18672042 0.833
0.31855899 -0.18243212 0.83311111
0.32244417 -0.18262017 0.83199984
0.32709756 -0.18262017 0.83199984
0.33223745 -0.18321463 0.83399999
0.31829873 -0.1782518 0.83333331
0.32228857 -0.17712033 0.83240002
0.32699132 -0.17759463 0.83285719
0.32244179 -0.17450714 0.83399999
0.32710639 -0.17450714 0.83399999
0.34416011 -0.17098629 0.83200002
0.34819806 -0.17222841 0.833
0.35247913 -0.17203777 0.83333343
0.35742638 -0.17139731 0.83399993
0.33876792 -0.16673256 0.83399993
0.34203741 -0.16759609 0.83249998
0.34750134 -0.1676133 0.83219993
0.35247919 -0.16737489 0.83333325
0.35690808 -0.16776916 0.83400005
0.33876792 -0.16362274 0.83399999
0.34248114 -0.16253211 0.83319992
0.34720868 -0.16275646 0.83311111
0.35664892 -0.16362274 0.83399999
0.34343252 -0.158958 0.83399993
0.32243574 -0.20142251 0.83600003
0.31775993 -0.19518794 0.83600003
0.32165644 -0.19986388 0.83600003
0.31383312 -0.1909678 0.838
0.31368259 -0.18775263 0.83760005
0.31587899 -0.18726158 0.83679998
0.31331232 -0.18289554 0.838
0.31599322 -0.18254678 0.83699995
0.33351195 -0.18110698 0.83719999
0.33570573 -0.18081239 0.838
0.34839964 -0.18139826 0.83799994
0.35257888 -0.18065615 0.838
0.3572658 -0.18065615 0.838
0.31383312 -0.17690647 0.838
0.31648359 -0.17722706 0.83674997
0.33127621 -0.17780606 0.83733338
0.34351736 -0.17534409 0.838
0.34721014 -0.1770485 0.83799994
0.35260996 -0.1775469 0.83733326
0.35766739 -0.17704898 0.83774996
0.36070296 -0.17534409 0.838
0.31383312 -0.17221935 0.838
0.31726602 -0.17290026 0.8372308
0.32200786 -0.17174102 0.83636373
0.32745972 -0.17198978 0.83688885
0.34258664 -0.17227487 0.83699995
0.34679991 -0.17386031 0.83650005
0.35282841 -0.17492561 0.83600003
0.3570106 -0.17402476 0.83666664
0.3625257 -0.17221938 0.838
0.31383312 -0.16909462 0.838
0.3169578 -0.16909462 0.838
0.3229467 -0.16857384 0.838
0.32711291 -0.16831344 0.838
0.33883038 -0.16675106 0.838
0.36132792 -0.16784473 0.838
0.33913034 -0.16237795 0.83720005
0.35253042 -0.16267751 0.83714283
0.35743669 -0.16251935 0.83766669
0.33336222 -0.15581447 0.838
0.33774397 -0.15737858 0.83769232
0.34193826 -0.15694827 0.83711112
0.34792733 -0.15907256 0.83733338
0.3341434 -0.15347093 0.838
0.33726808 -0.15347093 0.838
0.33807299 -0.1859422 0.83999997
0.34085205 -0.18660629 0.84299999
0.34730259 -0.1854898 0.84149998
0.31223306 -0.18124393 0.83999997
0.33887792 -0.18245851 0.84200001
0.34268397 -0.18216881 0.84210002
0.34614924 -0.18278454 0.84060001
0.35295051 -0.18359306 0.83999997
0.36312988 -0.18046087 0.83999997
0.31223306 -0.17732866 0.83999997
0.33389685 -0.17680663 0.83999997
0.33789364 -0.17764533 0.84149998
0.34243771 -0.1778165 0.84163642
0.36332566 -0.17752443 0.84000003
0.29945537 -0.17215279 0.84149998
0.30220556 -0.17179886 0.84081823
0.30763233 -0.1710532 0.84187496
0.31223306 -0.17263038 0.83999997
0.3337796 -0.17481861 0.84299999
0.33770874 -0.17481859 0.84299999
0.34172612 -0.17230834 0.84224999
0.36469594 -0.17419648 0.83999997
0.30282262 -0.16678958 0.84214288
0.30751795 -0.16701882 0.84066665
0.31189066 -0.16759467 0.84224999
0.32162938 -0.16793208 0.83999997
0.33024269 -0.16949818 0.83999997
0.33754012 -0.16640702 0.84180003
0.29998916 -0.16145924 0.84299999
0.3031812 -0.16250055 0.8427
0.30687991 -0.16319479 0.84249997
0.31099072 -0.16381678 0.84299999
0.33377075 -0.1610771 0.84100002
0.33712527 -0.16264589 0.84042865
0.3535822 -0.16038749 0.84149998
0.35750434 -0.16117054 0.84149998
0.36156383 -0.16401684 0.83999997
0.29998916 -0.15831585 0.84299999
0.30293599 -0.15772647 0.84299999
0.30627576 -0.15831585 0.84299999
0.32985049 -0.15595831 0.84299999
0.33252737 -0.15732291 0.84050006
0.34433722 -0.1554033 0.83999997
0.34642529 -0.15644737 0.83999997
0.35028195 -0.15910169 0.84299999
0.32770729 -0.15295781 0.84300005
0.3325927 -0.1522281 0.84054548
0.33807299 -0.15148805 0.83999997
0.34224913 -0.15279312 0.83999997
0.32805872 -0.14757575 0.84128571
0.33248541 -0.14776307 0.84027272
0.33680594 -0.14809468 0.84074998
0.34085205 -0.14967154 0.84299999
0.32397848 -0.14365757 0.83999997
0.32711062 -0.14365755 0.83999997
0.33141726 -0.14404908 0.83999997
0.34442997 -0.18727037 0.84600008
0.34638685 -0.18783674 0.84500003
0.34323609 -0.18468589 0.84500003
0.34166071 -0.17523336 0.84500003
0.29983351 -0.17170024 0.847
0.30070087 -0.17050712 0.84500003
0.30857778 -0.17365794 0.84500003
0.31094086 -0.17365794 0.84500003
0.33378384 -0.17365794 0.84500003
0.33764356 -0.17270929 0.84722233
0.34071547 -0.17239761 0.84500009
0.29439938 -0.16578084 0.84500003
0.29843011 -0.16672641 0.84659994
0.30109471 -0.16775012 0.84500003
0.31953549 -0.16973135 0.84899998
0.32115141 -0.16933152 0.847
0.33741474 -0.16806747 0.847
0.29302096 -0.16243309 0.84500015
0.29755014 -0.16263002 0.84500015
0.30070087 -0.16420543 0.84500003
0.30857778 -0.16184229 0.84500003
0.31279996 -0.16261926 0.84728569
0.32825074 -0.16156159 0.84766668
0.33299267 -0.16285306 0.84780008
0.33535922 -0.16420543 0.84500003
0.35741451 -0.16105458 0.84500003
0.36348429 -0.16119468 0.84740007
0.36543772 -0.16023408 0.84899998
0.28946161 -0.15785977 0.84899998
0.29229137 -0.15749557 0.84620011
0.29724753 -0.15739745 0.8453638
0.30070087 -0.15632832 0.84500003
0.3080335 -0.15697618 0.84566671
0.31259206 -0.15740679 0.84772724
0.32232013 -0.15609282 0.84799999
0.32755116 -0.15785065 0.84640008
0.3316164 -0.15878582 0.84550005
0.34878579 -0.15511918 0.847
0.35260889 -0.15781152 0.84733343
0.35749343 -0.15934002 0.84785718
0.36148065 -0.1586512 0.84899998
0.29268456 -0.15233971 0.84785712
0.29758954 -0.15235974 0.84671438
0.302634 -0.15256827 0.84600013
0.30666789 -0.15261357 0.84625006
0.31219688 -0.1523197 0.84899998
0.31953549 -0.15073682 0.84899998
0.32259616 -0.15261699 0.84700006
0.32589892 -0.15079959 0.84580004
0.34720668 -0.15354003 0.847
0.29737577 -0.14915395 0.84899998
0.30237159 -0.14837518 0.84842861
0.30669209 -0.14827466 0.84850001
0.31241274 -0.14915395 0.84899998
0.31953549 -0.1483625 0.84899998
0.32232887 -0.1475068 0.84750009
0.32576564 -0.14757475 0.84600002
0.32349259 -0.14440531 0.84899998
0.3250992 -0.14406513 0.847
0.33726197 -0.17116717 0.85299999
0.33615044 -0.16721956 0.85233331
0.31552857 -0.16061157 0.85100001
0.29014349 -0.15585174 0.85100001
0.31804934 -0.15726829 0.85179996
0.32201138 -0.15797916 0.85219991
0.35281283 -0.15585174 0.85100001
0.35743341 -0.15663365 0.85180008
0.36217433 -0.15771492 0.85249996
0.29105163 -0.15250325 0.85179996
0.3177824 -0.15278158 0.85157144
0.32028824 -0.15347183 0.85100001
0.35761771 -0.15462767 0.85299999
0.29339284 -0.14795774 0.85122216
0.29772204 -0.146834 0.85128576
0.30283603 -0.1463321 0.85100001
0.30759573 -0.14686096 0.85100001
0.3123554 -0.1479187 0.85100001
0.31790841 -0.14950532 0.85100001
0.29728305 -0.1447455 0.85100001
0.32363865 -0.16946883 0.85566664
0.3282795 -0.1682537 0.8552857
0.3326402 -0.16798705 0.85624999
0.33573419 -0.16793799 0.85600001
0.31860566 -0.16136649 0.85500002
0.32119712 -0.16133843 0.85766667
0.36888123 -0.16014616 0.85699999
0.36430097 -0.15711565 0.85500002
0.36894134 -0.15891838 0.85900003
0.28927568 -0.15212092 0.85500002
0.2915073 -0.15020804 0.85500002
0.34491494 -0.15055941 0.85699999
0.34830585 -0.15206748 0.85650003
0.352824 -0.152639 0.85645461
0.35678586 -0.15215604 0.85519999
0.36250144 -0.15262422 0.85514271
0.2915073 -0.14861397 0.85500002
0.35337329 -0.14778805 0.85814285
0.35754323 -0.14727207 0.85740006
0.3623018 -0.14728655 0.85655552
0.36629942 -0.14704941 0.85750002
0.35349092 -0.14326514 0.8584286
0.35746011 -0.14244357 0.85719997
0.36258376 -0.14260781 0.8572222
0.36662742 -0.14262651 0.85733324
0.35232601 -0.1378984 0.85900009
0.35731265 -0.13793783 0.85800004
0.36267862 -0.13784768 0.85744447
0.3662183 -0.13884225 0.85700005
0.35292655 -0.13489555 0.85900003
0.35693026 -0.13409477 0.85900003
0.36253545 -0.13489555 0.85900003
0.32253394 -0.17139095 0.86266667
0.322896 -0.16801669 0.86342853
0.32729277 -0.16741963 0.86320001
0.33166009 -0.16590184 0.86199999
0.32362473 -0.16349116 0.86199999
0.32732099 -0.16365187 0.86199999
0.33083674 -0.16327719 0.86300004
0.34773222 -0.15017834 0.86400002
0.35094494 -0.1514378 0.86199999
0.34397373 -0.14588274 0.86400002
0.34773228 -0.14695665 0.86399996
0.35139334 -0.14758532 0.86244446
0.34386632 -0.14244628 0.86400002
0.34773225 -0.14212412 0.86399996
0.3512893 -0.14179513 0.86199999
0.34451064 -0.13729158 0.86400002
0.34719431 -0.1370797 0.86266667
0.35054317 -0.13657199 0.86199999
0.34451064 -0.13326448 0.86400002
0.34719437 -0.13225466 0.86266667
0.35255203 -0.13215244 0.86199999
0.3581768 -0.13134888 0.86199999
0.36299804 -0.13215244 0.86199999
0.36621216 -0.13215242 0.86199999
0.34819248 -0.12785664 0.86399996
0.35268775 -0.1273797 0.8623333
0.3581768 -0.12733108 0.86199999
0.3629024 -0.12756842 0.86225003
0.36583161 -0.12667337 0.86300004
0.34853765 -0.12279399 0.86400002
0.3525646 -0.12279399 0.86399996
0.35739702 -0.12279399 0.86399996
0.36222947 -0.12279399 0.86399996
0.35900784 -0.1195723 0.86400002
0.36142403 -0.1195723 0.86400002
0.32270467 -0.17312999 0.866
0.34261718 -0.14675863 0.866
0.3453081 -0.1489114 0.866
0.34248266 -0.14204946 0.866
0.34301797 -0.13766171 0.86633331
0.34336376 -0.13321199 0.86679995
0.3453081 -0.1311511 0.866
0.34368587 -0.12766509 0.86699998
0.34595388 -0.12759903 0.866
0.34322241 -0.12277827 0.86714286
0.34611535 -0.12307823 0.866
0.34341872 -0.11751762 0.86666673
0.34692264 -0.11742722 0.86600012
0.35213983 -0.11765438 0.8663078
0.35754117 -0.11862066 0.86714286
0.36145338 -0.11823451 0.866
0.34422269 -0.11194708 0.86733335
0.34703308 -0.11219072 0.8674286
0.35096034 -0.11365266 0.86799997
0.34448731 -0.10798861 0.86799997
0.34691468 -0.10798861 0.86799997
0.34365907 -0.13094586 0.87
0.34310195 -0.127084 0.8713333
0.34282336 -0.12230521 0.87199998
0.33957192 -0.11742792 0.87199998
0.34224606 -0.11715772 0.87171417
0.35825697 -0.1171586 0.87
0.34282339 -0.11255065 0.87199986
0.35014701 -0.11229251 0.87
0.34282336 -0.10767337 0.87199986
0.34690309 -0.10580439 0.87000006
0.34262013 -0.10299931 0.87199986
0.34770054 -0.1027961 0.87199986
0.35095194 -0.10198322 0.87199998
0.34810695 -0.099138141 0.87199998
0.3517648 -0.097918816 0.87199992
0.33902034 -0.14704975 0.87900001
0.34243107 -0.14675677 0.87724996
0.33820096 -0.14295273 0.87900001
0.34252849 -0.14270879 0.8775
0.34305185 -0.13820739 0.87800008
0.34396973 -0.13281699 0.87700003
0.34268478 -0.12814532 0.87699997
0.33988401 -0.12137142 0.87699997
0.34152639 -0.12314168 0.87649995
0.33988401 -0.11810125 0.87700003
0.34065911 -0.11509297 0.87900001
0.33949643 -0.11225126 0.87599999
0.3407402 -0.11293787 0.875
0.33910885 -0.10804381 0.875
0.3407402 -0.10804381 0.875
0.33870107 -0.10274192 0.875
0.3407402 -0.10314975 0.875
0.34563413 -0.1015184 0.875
0.33856511 -0.099343263 0.875
0.34266239 -0.097701952 0.87536359
0.34707892 -0.097216383 0.87544441
0.35052806 -0.096624345 0.875
0.34914795 -0.094118826 0.87700003
0.35241807 -0.093572557 0.87700003
0.33650672 -0.14163546 0.88099998
0.33800697 -0.13766171 0.88185704
0.34225547 -0.13588656 0.88099998
0.33875135 -0.13332772 0.884
0.34166279 -0.13215381 0.88212496
0.34114295 -0.1274403 0.88279998
0.33979172 -0.12028245 0.88099998
0.34094876 -0.12316424 0.884
0.33979172 -0.11781865 0.88099998
0.34471917 -0.092359297 0.88099998
0.34771815 -0.092062935 0.88166666
0.35293165 -0.090716757 0.88099998
0.34787077 -0.08871828 0.884
0.35253793 -0.087742373 0.88263631
0.35248542 -0.083609074 0.884
0.33631703 -0.13598517 0.88699996
0.33703196 -0.13250816 0.88725001
0.34006834 -0.13087627 0.88599998
0.33809805 -0.12776391 0.88733333
0.34006834 -0.12757255 0.88599998
0.33862862 -0.12399747 0.88800001
0.34006834 -0.12261695 0.88599998
0.34087482 -0.11774992 0.8866666
0.34249154 -0.11296022 0.88800001
0.34249157 -0.10964904 0.88800001
0.34915334 -0.086276025 0.88599998
0.34934989 -0.083431162 0.88649994
0.35265446 -0.081366338 0.8865
0.34828591 -0.079020627 0.88800001
0.35285386 -0.079206638 0.88700002
0.35683957 -0.078744695 0.88800001
0.34663042 -0.073226064 0.88800001
0.33534291 -0.13659839 0.89099997
0.33312804 -0.13216856 0.89099997
0.33534291 -0.13327603 0.89099997
0.32877022 -0.12658256 0.89300001
0.33257744 -0.12738973 0.8920908
0.33616233 -0.12785792 0.8912856
0.32860374 -0.12192082 0.89300007
0.33276591 -0.12192081 0.89300007
0.33745712 -0.12214307 0.89219987
0.34032631 -0.12164775 0.89099997
0.33359835 -0.11859099 0.89300001
0.33776054 -0.11859099 0.89299995
0.34129709 -0.11743267 0.89179993
0.34275511 -0.11276379 0.89300001
0.34364858 -0.10835829 0.89099997
0.34441999 -0.075303286 0.89300001
0.34655559 -0.076380514 0.89099997
0.35195428 -0.076321185 0.89099991
0.35720539 -0.07602144 0.89166665
0.34249797 -0.073583394 0.89233333
0.34530973 -0.073473446 0.89099997
0.35195431 -0.073473446 0.89099997
0.35747311 -0.073583394 0.89233333
0.32641965 -0.12177671 0.89499998
0.32827729 -0.11767767 0.8962
0.33177236 -0.11702776 0.89537495
0.33684838 -0.11635363 0.89499998
0.34074175 -0.11607552 0.89499998
0.33328974 -0.1135626 0.89799994
0.3379775 -0.11339518 0.89799994
0.34214711 -0.11237004 0.89649993
0.34383714 -0.10920958 0.898
0.33369645 -0.11113077 0.89999998
0.33705226 -0.11113077 0.89999992
0.34124708 -0.11113077 0.89999998
0.337827 -0.10842533 0.90142858
0.34235096 -0.10771339 0.90125
0.34666562 -0.10705376 0.90100002
0.34620953 -0.10465097 0.90200001
0.3389248 -0.10668632 0.90499997
0.34211272 -0.10284974 0.90539998
0.34704995 -0.10215963 0.90811116
0.35115591 -0.1009438 0.90899998
0.34889629 -0.098684147 0.90899998
0.35228565 -0.09783677 0.90899998
0.35567507 -0.096989408 0.90899998
0.34422782 -0.097734176 0.91279995
0.34745878 -0.097156458 0.91285717
0.35132301 -0.096034251 0.912
0.35514864 -0.095609173 0.912
0.34399936 -0.091558672 0.91399997
0.34740737 -0.092410706 0.91399997
0.3517279 -0.092470661 0.91250002
0.35514864 -0.093908839 0.912
0.32874778 -0.091202855 0.91900003
0.33217445 -0.091202855 0.91899997
0.33560115 -0.091202855 0.91900003
0.34248525 -0.09236946 0.91842854
0.34512845 -0.094423681 0.917
0.35730347 -0.091773987 0.91899997
0.34683809 -0.089294709 0.917
0.35196689 -0.089294709 0.917
0.48995748 -0.10369173 0.93900001
0.4917081 -0.10369173 0.93900001
0.49080649 -0.10776386 0.94400001
0.49141613 -0.11222693 0.95200002
0.47883219 -0.12108138 0.96600002
0.48063317 -0.1228824 0.96600002
0.47326431 -0.12707792 0.97399998
0.47553414 -0.12662393 0.97399998
0.4724997 -0.13001183 0.97899991
0.46713179 -0.13264509 0.98500001
0.44862759 -0.14384308 0.99900001
0.4519226 -0.14155418 0.99599999
0.44913727 -0.13969724 0.99599999
0.45285106 -0.13969724 0.99599999
0.43651864 -0.15111335 1.023
