# .PCD v0.7 - Point Cloud Data file format
VERSION 0.7
FIELDS x y z
SIZE 4 4 4
TYPE F F F
COUNT 1 1 1
WIDTH 1190
HEIGHT 1
VIEWPOINT 0 0 0 1 0 0 0
POINTS 1190
DATA ascii
0.31252399 -0.194662 0.83294511
0.33908546 -0.19706358 0.85308224
0.30820978 -0.19383876 0.82367277
0.30940989 -0.19384447 0.82388127
0.31339744 -0.1946726 0.83117253
0.34110224 -0.19708854 0.85198796
0.34839231 -0.19735698 0.85424131
0.34938741 -0.19758639 0.8549192
0.31475493 -0.19422385 0.82247019
0.31758147 -0.19424483 0.8241145
0.32170045 -0.19500653 0.82741481
0.34254518 -0.19676262 0.84318328
0.3477172 -0.1970118 0.84682542
0.3489027 -0.19725937 0.84966171
0.34974256 -0.19753148 0.85384792
0.31589389 -0.19416955 0.82127547
0.31884703 -0.19425246 0.82372302
0.32247761 -0.19478768 0.82573825
0.34374535 -0.19674493 0.84198123
0.34721246 -0.1967259 0.84488946
0.34984505 -0.19718629 0.84692293
0.30156386 -0.19076031 0.8495459
0.30394903 -0.19136921 0.85157257
0.32439196 -0.19302145 0.86687052
0.32661077 -0.19297385 0.86838979
0.30233195 -0.19237715 0.84620976
0.30562228 -0.19290309 0.84967166
0.3089492 -0.19178219 0.85049826
0.32381403 -0.19275729 0.86183393
0.32516605 -0.19428194 0.86454344
0.32935393 -0.19464611 0.86690915
0.30392396 -0.19058034 0.83919877
0.30423218 -0.19238025 0.84159529
0.30944535 -0.19304124 0.84496784
0.31087306 -0.19153816 0.84748644
0.32552099 -0.19247501 0.8597371
0.32850233 -0.19459093 0.86005932
0.33335999 -0.19493379 0.86379576
0.33621097 -0.19309542 0.86317343
0.30513829 -0.19113179 0.83665568
0.30796164 -0.19342172 0.8380115
0.31249312 -0.1917561 0.84172332
0.33129328 -0.19343585 0.85634553
0.33563432 -0.19577633 0.85961688
0.33828616 -0.19404224 0.86118174
0.30764329 -0.19170785 0.83128387
0.31051916 -0.19416736 0.83405304
0.31623414 -0.19211766 0.83789033
0.33419043 -0.19367416 0.85157377
0.33864087 -0.19663829 0.85563165
0.34206393 -0.19456121 0.85771948
0.30772144 -0.19143312 0.82418203
0.31024322 -0.19180831 0.82615036
0.3144992 -0.19380163 0.82908595
0.31886798 -0.19250417 0.83426344
0.33686393 -0.1941396 0.84796983
0.34287828 -0.19675249 0.8514697
0.34655786 -0.19487816 0.85423511
0.34928292 -0.19521287 0.85561234
0.30907053 -0.19223791 0.82268929
0.31294033 -0.19134882 0.82310528
0.31722173 -0.19164705 0.82644212
0.32175329 -0.19188787 0.82932788
0.34090212 -0.19357365 0.8437683
0.34463829 -0.1942009 0.84718686
0.34875107 -0.19458061 0.85083616
0.3502689 -0.19582464 0.85386014
0.31597018 -0.1920951 0.8204205
0.3197231 -0.19233796 0.82369787
0.32335493 -0.1924008 0.82534379
0.34427172 -0.1941866 0.84117633
0.3468844 -0.19464046 0.84422261
0.35076597 -0.19517428 0.84661597
0.30146974 -0.18780568 0.84975898
0.30387196 -0.18808016 0.85197186
0.32440904 -0.18985622 0.86724114
0.32664165 -0.19060367 0.86878198
0.30174047 -0.18746614 0.84659809
0.30641443 -0.18750691 0.85260576
0.308981 -0.18856674 0.85139281
0.32354122 -0.18990079 0.86223781
0.32323352 -0.1888226 0.86516631
0.32936162 -0.18972312 0.86792147
0.30421919 -0.18905 0.83912766
0.3036584 -0.18731165 0.84159589
0.31205329 -0.18736199 0.84537357
0.3113583 -0.18817869 0.84768671
0.32592198 -0.18937039 0.85944974
0.32792947 -0.18930289 0.85804892
0.33399138 -0.18986344 0.86456549
0.3362174 -0.19211558 0.86310923
0.30588675 -0.18722856 0.83638412
0.30688879 -0.1861999 0.83751583
0.3134571 -0.18815181 0.84206754
0.33113113 -0.18967748 0.8555727
0.33721513 -0.18941408 0.86113125
0.33854848 -0.19037706 0.86082488
0.3079173 -0.18771583 0.83184606
0.31118375 -0.1861527 0.83449048
0.31508526 -0.18780854 0.83766645
0.33469957 -0.18952665 0.85299325
0.33902359 -0.18856294 0.85569096
0.34184691 -0.19065085 0.85805696
0.31018969 -0.18827827 0.82796407
0.31407943 -0.18756449 0.83023351
0.31792545 -0.18813396 0.83301759
0.33855945 -0.18994546 0.84891844
0.3421903 -0.19005543 0.85170811
0.34503359 -0.1914304 0.85478294
0.31390667 -0.18848735 0.8249386
0.3151646 -0.18811485 0.82708305
0.32013741 -0.18874758 0.82974738
0.34118202 -0.19064921 0.84567577
0.34477276 -0.19086526 0.84916753
0.34698358 -0.19134244 0.85018837
0.30236888 -0.18505467 0.85010713
0.30366278 -0.1852306 0.85133451
0.30253375 -0.18283117 0.84628808
0.30617374 -0.18268484 0.85072029
0.30936366 -0.18425 0.85027921
0.32483616 -0.18594903 0.86173356
0.32537654 -0.18466471 0.86499453
0.32994437 -0.18506444 0.86719477
0.3050513 -0.18241137 0.84230131
0.31090721 -0.18220305 0.84502029
0.3114585 -0.18304411 0.84831035
0.32624021 -0.18445283 0.85940379
0.32940131 -0.1835058 0.85913038
0.33347416 -0.18499488 0.8642537
0.3083393 -0.18373129 0.83955854
0.31111097 -0.18341994 0.84259361
0.33186358 -0.18528977 0.85802561
0.33518866 -0.18608552 0.86002809
0.30451107 -0.17836389 0.84687531
0.306447 -0.17813915 0.84966165
0.32682601 -0.17991571 0.86487412
0.32973567 -0.18125468 0.86597878
0.30614087 -0.17797707 0.84425151
0.3100391 -0.178184 0.84628522
0.31099921 -0.17994875 0.84827328
0.32653525 -0.18147115 0.86014754
0.32884583 -0.18001977 0.8605296
0.3319234 -0.18033096 0.86384696
0.30961496 -0.17584522 0.84317195
0.33172539 -0.17822829 0.85989106
0.33303165 -0.17784487 0.86070865
0.3058036 -0.17364725 0.84699315
0.3069618 -0.17325199 0.84906173
0.32768849 -0.17516038 0.86474395
0.30635387 -0.17247011 0.84425521
0.31024879 -0.17272726 0.84762263
0.32817763 -0.17430565 0.86131215
0.33224896 -0.17480078 0.86422914
0.30886227 -0.17212069 0.84126031
0.31155252 -0.17245129 0.84315246
0.33209467 -0.17382367 0.85832781
0.33476368 -0.17455968 0.86085427
0.30759808 -0.16874591 0.84894598
0.32797155 -0.17108536 0.86430943
0.3061789 -0.16747555 0.84427428
0.3095575 -0.1677157 0.84830606
0.31274152 -0.16720006 0.84805709
0.32762411 -0.16835736 0.8594051
0.32848385 -0.16941115 0.86291748
0.33299115 -0.16971034 0.86462539
0.30906802 -0.16739076 0.83995318
0.31369609 -0.16848442 0.84285372
0.31455868 -0.16700885 0.84579629
0.3296189 -0.16840589 0.85673523
0.3325054 -0.17038253 0.85679477
0.336456 -0.16988203 0.86102396
0.3117463 -0.16562882 0.83835405
0.31429306 -0.16600677 0.84028679
0.33479387 -0.16781943 0.85560113
0.33743221 -0.16837835 0.8578403
0.30592105 -0.16258033 0.84433126
0.3089236 -0.16300511 0.84887546
0.31306794 -0.16297956 0.84908378
0.32708311 -0.16438574 0.85961264
0.32855517 -0.16475432 0.86353713
0.33353579 -0.16485259 0.86526233
0.30793282 -0.16233465 0.83928728
0.31598738 -0.16309401 0.84618026
0.32907596 -0.1643942 0.85598475
0.33798605 -0.16500553 0.86212528
0.31222185 -0.1619173 0.83674115
0.31620553 -0.16253102 0.83879709
0.31837356 -0.16167462 0.84205788
0.33252397 -0.16364378 0.85296261
0.33654132 -0.16451153 0.85398227
0.33949655 -0.16435304 0.85743219
0.31576416 -0.15991876 0.83556277
0.31656936 -0.15997256 0.83639276
0.33518434 -0.1615617 0.85102975
0.33830005 -0.16210824 0.85274261
0.34040025 -0.1622508 0.85457504
0.30672681 -0.15774456 0.84464353
0.30978072 -0.15802726 0.84833425
0.31356332 -0.15836802 0.84893829
0.32766399 -0.15977061 0.85969973
0.32944649 -0.15982847 0.86297995
0.33367476 -0.16014162 0.86489284
0.30759549 -0.15745421 0.83948529
0.31661808 -0.15780348 0.84660137
0.32902187 -0.15899551 0.85603058
0.33824983 -0.159713 0.86295015
0.31103477 -0.15714028 0.83578587
0.31766269 -0.15987641 0.83768517
0.3192597 -0.15766035 0.84273624
0.33206937 -0.15890566 0.8523705
0.3411884 -0.16003734 0.85848296
0.31552631 -0.15695798 0.83348197
0.31945035 -0.15717147 0.83551365
0.32082993 -0.15690111 0.83881301
0.33561611 -0.15842065 0.8498829
0.33905169 -0.15890414 0.85020751
0.34238645 -0.15914544 0.85389405
0.31863004 -0.15518981 0.83108604
0.32061878 -0.1555364 0.83228415
0.34196097 -0.15761372 0.84853578
0.34401587 -0.1574353 0.85043824
0.30838493 -0.15436897 0.84426427
0.31099039 -0.15448466 0.84673715
0.31385738 -0.1550338 0.84788352
0.33104244 -0.15628526 0.86165589
0.33371815 -0.15691237 0.8636077
0.3096714 -0.15285736 0.84094864
0.31320518 -0.15198076 0.84440237
0.31621617 -0.15388012 0.84595245
0.33016464 -0.15535209 0.85685104
0.33307415 -0.15388751 0.85940403
0.3367784 -0.15549648 0.86175972
0.31148678 -0.15195574 0.83686554
0.31555814 -0.15044585 0.84196579
0.31922704 -0.15317708 0.84258807
0.33276618 -0.15422291 0.85297215
0.33540782 -0.15220591 0.85667187
0.34037408 -0.15449096 0.858787
0.31480494 -0.15215132 0.83238852
0.32164359 -0.15380129 0.83629411
0.32166052 -0.1520156 0.83815575
0.33672652 -0.15351526 0.84918791
0.33790863 -0.1556704 0.84898645
0.34387517 -0.15471214 0.85473847
0.31883046 -0.15171346 0.82969999
0.32286045 -0.15234932 0.83156413
0.3236548 -0.15130956 0.83507061
0.33906579 -0.15295196 0.84670079
0.34232748 -0.15440691 0.84637111
0.34551913 -0.15410641 0.85015249
0.32277194 -0.15003188 0.82931709
0.34502611 -0.15261565 0.8460682
0.34592044 -0.15267719 0.84691215
0.31420985 -0.14755824 0.83707583
0.31675598 -0.14804332 0.83972228
0.31979343 -0.14790364 0.84128416
0.33445889 -0.14901395 0.85261172
0.33691117 -0.14985302 0.85492879
0.34015328 -0.14990294 0.85656124
0.31530365 -0.14704204 0.832798
0.31719613 -0.14793536 0.83777553
0.32233366 -0.14789781 0.83856982
0.33628362 -0.1491766 0.8492921
0.33849803 -0.14972082 0.85388345
0.3436484 -0.14958969 0.85485065
0.3190974 -0.1471594 0.82999933
0.32362819 -0.14734915 0.83170086
0.32421103 -0.1475825 0.83553475
0.33908489 -0.14903593 0.84642881
0.3430872 -0.14867443 0.84629464
0.34567592 -0.14949906 0.85041982
0.32287693 -0.14877865 0.8294273
0.34439856 -0.15065561 0.84570551
0.3462027 -0.15126863 0.84735656
0.30720675 -0.14203596 0.85648161
0.30916125 -0.14258248 0.85899973
0.31283829 -0.14282456 0.86234879
0.31661627 -0.14341319 0.86526161
0.32125399 -0.14374447 0.86730719
0.32373151 -0.14269599 0.86869872
0.30746704 -0.14117497 0.85281497
0.32311481 -0.14370301 0.86715525
0.32722512 -0.14374025 0.8678084
0.3308844 -0.14315087 0.86799812
0.30762756 -0.14058536 0.84933299
0.3306646 -0.14295721 0.86674732
0.33247295 -0.14282697 0.86700743
0.31247625 -0.14081776 0.84177351
0.31382895 -0.14222804 0.84393048
0.31775519 -0.14211456 0.84649509
0.33107138 -0.14346156 0.85626739
0.33430329 -0.14370006 0.85951227
0.33684957 -0.14293936 0.860084
0.31360632 -0.1422078 0.83836985
0.3151944 -0.14439139 0.842062
0.32108471 -0.14292797 0.84427619
0.33180758 -0.14383359 0.85216904
0.33563808 -0.14596337 0.85747796
0.33970901 -0.14446664 0.85795456
0.31565422 -0.14205037 0.83353764
0.32362899 -0.14303209 0.83972967
0.33514518 -0.14371093 0.84884113
0.34362328 -0.14435914 0.85502106
0.31874695 -0.14257006 0.8319158
0.32214653 -0.14239788 0.83340979
0.32442647 -0.14220127 0.83617103
0.33894062 -0.14366335 0.84687883
0.34229648 -0.14426474 0.84840566
0.34465334 -0.14472121 0.85154146
0.30613384 -0.13799334 0.85636002
0.30856958 -0.13885671 0.85990125
0.31230283 -0.13912961 0.86351258
0.3163847 -0.13969669 0.86588174
0.32078367 -0.13975669 0.86878633
0.32379463 -0.13922933 0.86971253
0.30668649 -0.13810581 0.84988415
0.30706695 -0.13858448 0.85325432
0.31014132 -0.13778104 0.85642916
0.31461641 -0.13777202 0.86089092
0.31835985 -0.13822858 0.86363751
0.32357904 -0.13942465 0.86508477
0.32714891 -0.14045492 0.86859649
0.33107677 -0.13974074 0.86851668
0.30781674 -0.13844182 0.84715736
0.31105322 -0.13782914 0.84904289
0.3150298 -0.13717975 0.85121632
0.31776959 -0.13611841 0.85264957
0.32740331 -0.13816023 0.86099494
0.33031693 -0.13984576 0.86375213
0.33373594 -0.14020093 0.86680877
0.31075543 -0.13718286 0.84250158
0.31214541 -0.13913533 0.84592158
0.31744599 -0.1395801 0.84892201
0.3206284 -0.13789859 0.8496145
0.32740003 -0.13854314 0.85497057
0.32876801 -0.14043564 0.85747015
0.33343428 -0.14076328 0.8620128
0.33740312 -0.13991705 0.86250597
0.31260604 -0.1366671 0.83875781
0.32300943 -0.13831371 0.84422147
0.32226855 -0.13834016 0.84675843
0.32977548 -0.13878685 0.85237235
0.33189666 -0.13893455 0.8509171
0.3403767 -0.13908303 0.85955024
0.31661627 -0.13735199 0.83459949
0.32040042 -0.13639861 0.83566988
0.32360965 -0.13792688 0.83997941
0.33559439 -0.13886507 0.84929729
0.34116518 -0.13806564 0.85134524
0.343117 -0.13971761 0.85460991
0.32240221 -0.13864203 0.83505595
0.32405329 -0.13936943 0.83663869
0.33905476 -0.13983558 0.84797609
0.34110782 -0.14019588 0.84911668
0.34363627 -0.14112774 0.85187829
0.30607775 -0.13343397 0.85676831
0.30800298 -0.13374183 0.86115623
0.31159422 -0.13401428 0.86485565
0.31560487 -0.13470778 0.86734331
0.32006338 -0.13509446 0.86985719
0.32470521 -0.1349927 0.87077773
0.3055363 -0.13246396 0.85107249
0.30547199 -0.1332382 0.85360503
0.31264979 -0.13379565 0.85592163
0.31527254 -0.13323072 0.85947174
0.31950113 -0.13430747 0.86271697
0.3236517 -0.13400653 0.86331695
0.32807699 -0.13526708 0.87022036
0.33106527 -0.1348187 0.86964542
0.307419 -0.13204262 0.84670198
0.31150329 -0.1355772 0.85240227
0.31449386 -0.13465373 0.85386705
0.31823447 -0.13375895 0.85404432
0.32445759 -0.1343281 0.85848761
0.32563278 -0.13572064 0.86223459
0.33404458 -0.13490951 0.86769158
0.30972919 -0.13256475 0.84210336
0.32076675 -0.13412261 0.85108459
0.3267495 -0.13440749 0.85517097
0.33822915 -0.13463217 0.86420971
0.31290931 -0.13299456 0.83783013
0.32268181 -0.13282311 0.84499413
0.32481286 -0.13297448 0.8465234
0.3291533 -0.13333526 0.8498649
0.3321774 -0.13373511 0.85199314
0.34125426 -0.13482489 0.86002201
0.31647003 -0.13257946 0.83550888
0.3200773 -0.13256428 0.83726543
0.3236658 -0.1335841 0.840819
0.3276625 -0.13380499 0.84393853
0.33113569 -0.13402107 0.84763867
0.3361696 -0.13420162 0.84990537
0.3404066 -0.13423429 0.85237914
0.3422392 -0.13533261 0.85605764
0.31167683 -0.12923056 0.86635989
0.31466743 -0.12802154 0.86864865
0.30626625 -0.12831756 0.85735726
0.30812404 -0.12854522 0.86180204
0.31120512 -0.12916988 0.86509514
0.31538433 -0.1301304 0.86808825
0.3204858 -0.12935357 0.87126511
0.32502583 -0.13007237 0.87191296
0.30598056 -0.12795742 0.85127527
0.30576307 -0.12786877 0.85387486
0.3145518 -0.1306766 0.85679775
0.31689328 -0.12874332 0.85867947
0.3206574 -0.12932447 0.86142057
0.32819918 -0.13040368 0.87136835
0.33092192 -0.12976019 0.8705461
0.30755165 -0.12801333 0.84757262
0.31865498 -0.1286298 0.85557115
0.32311293 -0.12885478 0.8593967
0.33462989 -0.12996584 0.86801356
0.3104952 -0.12728575 0.8429836
0.32084271 -0.12785488 0.85118914
0.32691091 -0.12883386 0.85600102
0.32927418 -0.12695889 0.85497016
0.33856201 -0.13006777 0.86415547
0.31346026 -0.12772675 0.83944184
0.31775853 -0.12598546 0.84000582
0.32171178 -0.12833692 0.84633917
0.3255114 -0.12828153 0.84818023
0.3296549 -0.12872933 0.85034478
0.33109692 -0.12920642 0.85353082
0.33941227 -0.12805358 0.85728019
0.34048867 -0.12999445 0.86005443
0.31678143 -0.12883304 0.83768946
0.31927079 -0.12845547 0.83940315
0.32325912 -0.12840948 0.84241199
0.32640675 -0.12871987 0.84507322
0.3303813 -0.12922975 0.84859204
0.33527291 -0.12931131 0.85097897
0.3384611 -0.12960893 0.85421461
0.34103841 -0.13131125 0.85594082
0.30880079 -0.1217695 0.86480755
0.31141943 -0.12360232 0.86662632
0.31435999 -0.1238037 0.86880559
0.3178044 -0.12282935 0.87124652
0.30648923 -0.12309678 0.85815579
0.30800387 -0.12399214 0.86173409
0.31167653 -0.1241339 0.86588931
0.31665343 -0.12392145 0.86965764
0.32012969 -0.12494288 0.87142938
0.32516319 -0.12515256 0.87223142
0.30672443 -0.12285197 0.85116976
0.30635843 -0.12275204 0.85396743
0.32852343 -0.12480018 0.87172425
0.33108065 -0.12518977 0.87043273
0.30857974 -0.12273306 0.84808016
0.32012379 -0.12449004 0.85625952
0.32289955 -0.12476858 0.85817552
0.33435974 -0.12492158 0.86774576
0.31147119 -0.12241934 0.84441233
0.31402007 -0.12099019 0.84320062
0.32206875 -0.12411854 0.85204226
0.32614741 -0.12448736 0.85545373
0.33746299 -0.12448301 0.86370951
0.31416723 -0.12370876 0.8413114
0.31724417 -0.12249368 0.84178543
0.3222087 -0.12294107 0.84368068
0.32642877 -0.12317704 0.84730273
0.33048591 -0.12343436 0.8495847
0.33449885 -0.12290382 0.85326409
0.33756039 -0.12386127 0.85710347
0.33929262 -0.1253501 0.86014748
0.32259548 -0.12385775 0.84263402
0.32617411 -0.1239009 0.84543228
0.33135399 -0.1231989 0.84965676
0.33487293 -0.12509046 0.85190803
0.33712527 -0.12582543 0.85407501
0.30487195 -0.11804999 0.86185133
0.30698675 -0.11874779 0.86452985
0.31031793 -0.11928032 0.86807966
0.31456158 -0.11974123 0.87088329
0.31874719 -0.11981735 0.87336248
0.32177383 -0.12008443 0.8747732
0.30511129 -0.11852107 0.85849625
0.30643594 -0.11969312 0.86206418
0.31625664 -0.12196657 0.86981517
0.32071379 -0.12176365 0.87265736
0.32521689 -0.12036441 0.87375218
0.30618519 -0.11781898 0.85215795
0.30628946 -0.11863968 0.85378408
0.32895115 -0.12188995 0.87111294
0.33086613 -0.11978455 0.8712917
0.30888921 -0.1177969 0.84860229
0.3341032 -0.12032355 0.86758077
0.31123751 -0.11793362 0.84607887
0.313853 -0.11733229 0.8450883
0.33597496 -0.11907965 0.86161834
0.33606094 -0.12039382 0.86447638
0.31772196 -0.11764434 0.84417748
0.32173446 -0.11791932 0.84497094
0.32602489 -0.11885422 0.84682763
0.33068934 -0.11951564 0.85034233
0.33410603 -0.11883391 0.85427767
0.33592123 -0.11971933 0.85801947
0.32768869 -0.1169353 0.84689909
0.33103874 -0.11766368 0.84944206
0.33344731 -0.11745197 0.85160917
0.30767426 -0.11497033 0.86482531
0.31105551 -0.11431283 0.86794442
0.31471637 -0.11466617 0.87103528
0.3186872 -0.11585808 0.87311226
0.30651337 -0.11404034 0.85828435
0.30816671 -0.11316041 0.86230379
0.31059641 -0.11223062 0.86574548
0.31746939 -0.11279783 0.87100935
0.32089177 -0.11431976 0.87238425
0.32512492 -0.11529621 0.87267536
0.32853964 -0.11735181 0.87357104
0.30645472 -0.11437131 0.8527115
0.30805615 -0.11291249 0.85484672
0.328152 -0.1138671 0.87056756
0.33099014 -0.11640255 0.87134242
0.30938795 -0.11457042 0.84901434
0.3108601 -0.11188938 0.85055947
0.33207333 -0.11343023 0.86637944
0.33323717 -0.11621213 0.86829203
0.31122583 -0.11423003 0.84682298
0.31433272 -0.11269216 0.84681118
0.31881788 -0.11168881 0.84809542
0.33245856 -0.11274496 0.8584432
0.33466181 -0.11386117 0.86234623
0.33579198 -0.11695655 0.86482209
0.3176966 -0.11352248 0.84472549
0.32170111 -0.11357046 0.84602976
0.32566774 -0.11351673 0.84876639
0.329842 -0.11384054 0.85199118
0.33346629 -0.11439617 0.85485792
0.33591443 -0.11478041 0.85849756
0.32692391 -0.11530223 0.84638709
0.33107117 -0.11574965 0.84960765
0.33371735 -0.11606862 0.85198677
0.35763076 -0.10921709 0.80841112
0.36061239 -0.10978079 0.81075209
0.35987952 -0.10949065 0.80583131
0.36262006 -0.10992626 0.80816656
0.36239976 -0.10928427 0.80413336
0.36390057 -0.10958837 0.80519664
0.31248236 -0.10940527 0.86869705
0.31443384 -0.10992212 0.87027681
0.30840811 -0.11034873 0.85858035
0.30966291 -0.10879724 0.86194044
0.31128281 -0.10908413 0.86581814
0.31752262 -0.10924464 0.87061173
0.32119784 -0.10984278 0.87113482
0.32492962 -0.11078718 0.87122691
0.30989519 -0.10926847 0.85586667
0.31079838 -0.10675472 0.85753596
0.32600668 -0.10815695 0.8691467
0.32745913 -0.11059792 0.86924243
0.31253731 -0.10962104 0.85207701
0.31497929 -0.10715865 0.8532353
0.32899928 -0.10850854 0.86389565
0.33025128 -0.11097769 0.8657124
0.31506211 -0.1102675 0.8495397
0.31878573 -0.10849792 0.85048705
0.32408327 -0.10689078 0.85212493
0.32782692 -0.10716329 0.85489947
0.33036515 -0.10945776 0.85943907
0.33220267 -0.11174398 0.86203295
0.32187918 -0.1100672 0.84897321
0.32479966 -0.10944504 0.85065103
0.32831651 -0.10948644 0.85348201
0.33112606 -0.11103529 0.85605514
0.32567242 -0.10465968 0.82773143
0.32634476 -0.10455029 0.82852221
0.34987959 -0.10655387 0.84646612
0.35076052 -0.10685513 0.84707779
0.32698506 -0.1048638 0.82572687
0.32981953 -0.10501959 0.82697189
0.34917307 -0.1061864 0.83954078
0.35051477 -0.10683805 0.84287012
0.352449 -0.10708382 0.84510851
0.32987541 -0.1045055 0.82321584
0.33322695 -0.10509736 0.82394642
0.33611819 -0.10521169 0.82533479
0.35045075 -0.10648501 0.83627456
0.35260418 -0.10678963 0.83867425
0.35409436 -0.1066543 0.84184444
0.33653942 -0.10482794 0.82121301
0.34014654 -0.10532025 0.82257223
0.34335774 -0.10504092 0.82279921
0.35078213 -0.10534379 0.8289932
0.35211763 -0.10642623 0.83167905
0.3544015 -0.10650074 0.83473337
0.34397864 -0.10519026 0.82040125
0.34670627 -0.10582946 0.8209933
0.35188031 -0.10616925 0.82488358
0.35346106 -0.10606739 0.82795763
0.34823352 -0.10462231 0.81587613
0.35022521 -0.10585348 0.81798762
0.35378808 -0.10590266 0.82109797
0.35635969 -0.10534743 0.82250601
0.34982044 -0.10434072 0.81411159
0.35303751 -0.106107 0.81357867
0.3572143 -0.1061622 0.81643575
0.35802597 -0.10533582 0.82010645
0.35679871 -0.10664792 0.80992419
0.35977477 -0.10677052 0.8122775
0.35945976 -0.1082285 0.80645823
0.36224854 -0.10857132 0.80843335
0.36215124 -0.10830329 0.80400932
0.3639451 -0.1086878 0.80540651
0.31279841 -0.10417065 0.86877191
0.31460348 -0.10454927 0.87026805
0.3110235 -0.10382577 0.86198837
0.31212735 -0.10414547 0.86598498
0.31790903 -0.1044074 0.87020707
0.32152781 -0.10506634 0.87028867
0.31137791 -0.10158089 0.85549003
0.31143332 -0.10317709 0.85812724
0.32552192 -0.10470386 0.86889756
0.32805744 -0.1031962 0.86817974
0.31317693 -0.10184709 0.85247111
0.31510353 -0.10427798 0.85352802
0.32890111 -0.10542273 0.86406612
0.33059248 -0.10337276 0.86572629
0.31540895 -0.10184933 0.85071743
0.31902641 -0.1030817 0.85120624
0.32269543 -0.10474898 0.85141194
0.32914525 -0.10542851 0.8563084
0.3302871 -0.10407835 0.85964787
0.33170846 -0.10321657 0.86323428
0.32176775 -0.10139014 0.84928179
0.32513684 -0.10330416 0.85092026
0.32895228 -0.10386155 0.85394371
0.33150139 -0.10226716 0.85659188
0.32387003 -0.10151795 0.82839429
0.32692152 -0.1024999 0.82958281
0.34889159 -0.10433646 0.84643435
0.3510403 -0.10392987 0.84920746
0.32586372 -0.1019447 0.82430887
0.33017495 -0.10256027 0.82910514
0.3337622 -0.10182543 0.82927996
0.34764355 -0.10310982 0.84012038
0.34861633 -0.10428855 0.84346569
0.35433444 -0.10442133 0.84621221
0.33002132 -0.10115406 0.8215369
0.33274075 -0.10319293 0.82126266
0.33743951 -0.10251015 0.82738334
0.3482734 -0.10339668 0.83556873
0.35549352 -0.10517658 0.83886784
0.35614702 -0.10338783 0.84151995
0.3328906 -0.099863172 0.8202014
0.33614269 -0.10130256 0.8197841
0.34062085 -0.10326208 0.8247633
0.34323344 -0.10235032 0.82428849
0.34976357 -0.10292473 0.82961142
0.34986639 -0.10455312 0.83193767
0.35631987 -0.10331064 0.83533382
0.35680759 -0.10222665 0.83863753
0.33963808 -0.10066734 0.81908917
0.34344524 -0.10188519 0.81887746
0.34799719 -0.10232817 0.82252842
0.35032779 -0.10268009 0.8246085
0.3555932 -0.10299425 0.8279351
0.35626447 -0.10257412 0.83158839
0.34750813 -0.10165466 0.81578547
0.35172001 -0.10163251 0.82007349
0.35223398 -0.10156547 0.81991076
0.35736844 -0.10260875 0.82337189
0.35048002 -0.10108808 0.81202841
0.35419083 -0.10220805 0.81423306
0.35674196 -0.10218364 0.81601155
0.36002842 -0.10207324 0.81944966
0.35353434 -0.10057367 0.80836236
0.35677564 -0.10265273 0.81014925
0.35959595 -0.10214968 0.8124277
0.36293387 -0.10169808 0.81518632
0.35608399 -0.10019173 0.80633187
0.35975444 -0.10111056 0.80613363
0.36336881 -0.10181511 0.80878651
0.36475593 -0.10130367 0.81237787
0.36287838 -0.10097161 0.80263227
0.36589456 -0.1018579 0.80490172
0.36536339 -0.10072757 0.79951173
0.36845821 -0.10168236 0.80176765
0.31276545 -0.0991349 0.86919659
0.31507471 -0.099502072 0.87086719
0.30866721 -0.09704908 0.8597666
0.31092113 -0.098732077 0.86283284
0.3120659 -0.09960629 0.86590552
0.31805247 -0.10017735 0.87062591
0.32181928 -0.099693701 0.87104803
0.32544264 -0.098806821 0.87236977
0.30988079 -0.09802185 0.85662019
0.3107098 -0.10034403 0.85949534
0.32449311 -0.10159773 0.87017417
0.3278029 -0.099652864 0.87038618
0.31272772 -0.098579161 0.85212958
0.31546995 -0.10056473 0.8514322
0.33112529 -0.10186318 0.86363959
0.33144146 -0.10003096 0.86655271
0.31592336 -0.097486116 0.84932107
0.31844661 -0.099219233 0.84924132
0.33270025 -0.10046902 0.86003494
0.33334613 -0.099007703 0.86272585
0.32167077 -0.097754911 0.84785366
0.32628575 -0.098879263 0.84937626
0.33052886 -0.099387616 0.85265255
0.33335808 -0.0989988 0.85693204
0.32773399 -0.096216664 0.84815246
0.33120257 -0.096923672 0.85097343
0.3189843 -0.094377995 0.82974803
0.32056379 -0.095579296 0.83173734
0.34715351 -0.09707927 0.8510682
0.34914213 -0.098044366 0.85338992
0.35148373 -0.097241402 0.85463798
0.32057348 -0.094897881 0.82700711
0.32205734 -0.09726169 0.82919002
0.32723361 -0.096832082 0.83124113
0.34780499 -0.098555893 0.84742904
0.35122567 -0.099769279 0.85137331
0.35380301 -0.097858474 0.85250092
0.32292977 -0.095876992 0.82476938
0.32651412 -0.096626781 0.82446951
0.33080006 -0.096594885 0.82816929
0.33368063 -0.098298281 0.82884163
0.34834445 -0.099518985 0.84004545
0.35010588 -0.098212406 0.84298807
0.35479289 -0.099224903 0.84615839
0.35535529 -0.098541878 0.84969562
0.32994688 -0.097541779 0.82150412
0.33294439 -0.095891297 0.8246454
0.33710879 -0.097796857 0.82677698
0.34959817 -0.098847508 0.83584571
0.35302559 -0.097644605 0.83992183
0.35659692 -0.099926621 0.84190547
0.33275336 -0.097999625 0.82032073
0.33629614 -0.097409695 0.82062334
0.34018975 -0.097220287 0.82306051
0.34374142 -0.099109307 0.82370973
0.35043621 -0.099724889 0.82977635
0.35227782 -0.098323919 0.83237743
0.35586828 -0.099165134 0.83555722
0.35698989 -0.10054199 0.83888972
0.34397736 -0.098270506 0.82004517
0.34721261 -0.09777081 0.82130742
0.35212311 -0.098358341 0.82517374
0.35452491 -0.099093832 0.8274231
0.3560127 -0.10018594 0.83148766
0.34764013 -0.096715406 0.81627429
0.35126194 -0.097474381 0.82021397
0.35238117 -0.097601809 0.82097787
0.35762605 -0.097381413 0.82389033
0.35073125 -0.096574321 0.81230068
0.35518759 -0.096995048 0.81507307
0.3563484 -0.097126074 0.81626135
0.36068261 -0.097376063 0.82000989
0.35338709 -0.09657523 0.80968833
0.35596445 -0.096813902 0.80952245
0.35894227 -0.096477032 0.81236076
0.3630828 -0.097408742 0.81590837
0.3590382 -0.096611589 0.80768502
0.36322606 -0.096768983 0.81057173
0.3646206 -0.095426559 0.81294119
0.31244999 -0.094204761 0.86909258
0.31548271 -0.094480172 0.87161058
0.30886906 -0.093587033 0.86021918
0.30978265 -0.093745008 0.86334306
0.31114572 -0.094824806 0.86659539
0.3183243 -0.095316648 0.87221843
0.32204917 -0.09477672 0.8726306
0.32539028 -0.095095716 0.87260407
0.3095369 -0.093356118 0.85702509
0.32528672 -0.096923187 0.87162745
0.32809561 -0.095111996 0.87117493
0.31134433 -0.093240306 0.85180467
0.33240673 -0.094842456 0.86834729
0.31294429 -0.090765633 0.84706026
0.31515077 -0.093279578 0.84751064
0.33583179 -0.095071971 0.86349094
0.33749187 -0.092879549 0.86494541
0.31898621 -0.091969058 0.84560448
0.32213899 -0.09430106 0.84602821
0.33533788 -0.095629692 0.85636854
0.336712 -0.093718886 0.85926145
0.31613624 -0.090121634 0.83402276
0.31779423 -0.09122704 0.83576441
0.32181814 -0.090637766 0.84385866
0.32498074 -0.092213772 0.84378868
0.32971939 -0.093223035 0.84665984
0.33323824 -0.09372589 0.84938985
0.33700582 -0.093343377 0.85295999
0.3410365 -0.092267521 0.85560399
0.34629881 -0.093405098 0.85737425
0.34867629 -0.092654921 0.85846692
0.31727177 -0.091774859 0.83043337
0.31961837 -0.093354821 0.83379608
0.32388532 -0.091513976 0.83545589
0.32845789 -0.090623036 0.8428148
0.3376005 -0.091274269 0.84956944
0.34515262 -0.093517072 0.85166341
0.34786156 -0.095604196 0.85569626
0.35156631 -0.094746396 0.85659176
0.31971419 -0.092023961 0.82730019
0.32365277 -0.090554103 0.82742363
0.32786271 -0.092546493 0.83296847
0.34637043 -0.094053671 0.84738231
0.35319644 -0.093096606 0.85020113
0.35405025 -0.095169738 0.85358578
0.32279536 -0.093441986 0.82529712
0.32670173 -0.092255153 0.82658327
0.32959488 -0.092362434 0.82894784
0.35021314 -0.094032362 0.84466344
0.35320634 -0.094953075 0.84659159
0.35520411 -0.096456841 0.85004443
0.34853944 -0.092252709 0.81615382
0.35034147 -0.091825619 0.81925827
0.35411692 -0.09213648 0.82179803
0.35797811 -0.093138099 0.82327467
0.35032544 -0.091805704 0.81475228
0.35369807 -0.091759793 0.81376302
0.35780081 -0.091849402 0.81618184
0.36003101 -0.092564315 0.81986994
0.35429236 -0.093462765 0.80945408
0.35642993 -0.091262117 0.81101578
0.36026305 -0.092095926 0.81415743
0.36313576 -0.093408771 0.81585121
0.35980034 -0.091464221 0.80691248
0.36401671 -0.09229175 0.80957139
0.36572149 -0.093274236 0.81196547
0.36301813 -0.090503722 0.80340689
0.36684525 -0.091459423 0.80590624
0.36581355 -0.089767858 0.79988527
0.36950496 -0.090416849 0.80243653
0.31240797 -0.089674175 0.86976248
0.31569427 -0.089993119 0.8724978
0.30950621 -0.089457087 0.86020505
0.31015146 -0.088868208 0.8633737
0.31183383 -0.089088134 0.86709994
0.31840956 -0.089384057 0.87227291
0.32234266 -0.089842707 0.87265897
0.32559714 -0.089600608 0.87236905
0.30776632 -0.08683414 0.85335428
0.30957913 -0.088264585 0.85705549
0.3255465 -0.087714024 0.87233913
0.32859203 -0.090012506 0.87158948
0.33284301 -0.088949591 0.87248254
0.30882198 -0.087135948 0.84993458
0.31024101 -0.089734256 0.85226876
0.33303323 -0.091758639 0.86939991
0.33566877 -0.089491665 0.87063259
0.31214049 -0.087741069 0.84628457
0.33825004 -0.090090901 0.86647373
0.31293261 -0.085028268 0.837942
0.31575862 -0.085873894 0.84200406
0.31858683 -0.087547638 0.84429979
0.33882731 -0.089247495 0.85977483
0.34179792 -0.088160343 0.86220813
0.34613645 -0.087893091 0.86360788
0.31409979 -0.086436644 0.83463186
0.31720081 -0.088351145 0.83843917
0.32160455 -0.087062612 0.84110159
0.32410386 -0.089288488 0.84229058
0.33218604 -0.088970341 0.84627068
0.33297956 -0.088562272 0.84704006
0.33919561 -0.090377145 0.85379344
0.34113461 -0.088944227 0.85598761
0.34491524 -0.090532348 0.85971057
0.34900016 -0.089505538 0.86142582
0.31697541 -0.086841956 0.83115143
0.32420444 -0.087089211 0.83682632
0.32763356 -0.087366968 0.84110212
0.33121338 -0.087546617 0.84436041
0.33560464 -0.088071123 0.84758013
0.33989462 -0.088864826 0.85036373
0.34424117 -0.088965364 0.85214669
0.3515535 -0.090111598 0.85768855
0.32015273 -0.086615764 0.82928652
0.32367462 -0.086711742 0.82988364
0.32722232 -0.087281249 0.83244705
0.34780541 -0.088868633 0.84832096
0.35141426 -0.089411087 0.85109162
0.35266396 -0.089630783 0.85444903
0.32673895 -0.089117348 0.82854617
0.32826972 -0.088805385 0.82968044
0.34057263 -0.085727803 0.83413297
0.34258524 -0.085988142 0.83551955
0.35004085 -0.090515636 0.8464669
0.35164839 -0.091298208 0.84759551
0.34188539 -0.086569518 0.82990593
0.3456794 -0.086838268 0.83275062
0.34392348 -0.086373046 0.82837719
0.34683523 -0.08648847 0.83088213
0.34966141 -0.088897139 0.81578326
0.3512817 -0.08736676 0.81760591
0.35572499 -0.088149875 0.82088906
0.35796836 -0.089268759 0.82197279
0.35045525 -0.088364348 0.81505388
0.35411623 -0.086591385 0.81521165
0.35778701 -0.086811729 0.81788063
0.35933954 -0.089061543 0.82040095
0.35696819 -0.084929995 0.81375259
0.35965872 -0.085740305 0.81581366
0.3634716 -0.088085815 0.80255216
0.36866105 -0.088922068 0.80446804
0.36592501 -0.087415226 0.79993629
0.36963692 -0.08855781 0.80237627
0.31347519 -0.086143084 0.8704263
0.31539804 -0.08624997 0.87195271
0.31131423 -0.08470618 0.86338764
0.31392246 -0.08420229 0.86713892
0.3181119 -0.084373429 0.87067616
0.32266077 -0.085638456 0.87191325
0.30826968 -0.084867202 0.85371536
0.30961278 -0.083438985 0.85670859
0.31155393 -0.082820639 0.86069322
0.32553264 -0.084164552 0.87117082
0.32950115 -0.085250206 0.87185192
0.33231971 -0.087224036 0.87245578
0.3096596 -0.08312875 0.85019314
0.31047162 -0.081660613 0.85279727
0.33325103 -0.083820023 0.87019926
0.33579028 -0.085559905 0.87014818
0.31059459 -0.080081888 0.84329563
0.31026393 -0.082065284 0.84575874
0.34005058 -0.084826827 0.86842883
0.34261075 -0.083210647 0.86753637
0.31185073 -0.081537068 0.8388595
0.31361169 -0.083495267 0.84212482
0.31987596 -0.084966674 0.84336078
0.33947527 -0.086686283 0.85822737
0.34230638 -0.086210258 0.86420619
0.34599236 -0.084673725 0.86535871
0.31306133 -0.08182247 0.83445466
0.32184401 -0.083998762 0.84163696
0.333473 -0.082498834 0.84712201
0.34083751 -0.085586004 0.85598171
0.3501229 -0.085274696 0.86296457
0.31663701 -0.081629239 0.83110231
0.32566041 -0.083118439 0.83757758
0.32822892 -0.082434237 0.84066159
0.33213222 -0.08309485 0.84426326
0.33596882 -0.083433494 0.84700155
0.34046295 -0.083436035 0.84967214
0.34357122 -0.084764384 0.85160977
0.35265821 -0.084990926 0.85841459
0.32007465 -0.081981272 0.82955247
0.3230845 -0.081886552 0.83072191
0.32583919 -0.082584471 0.83356214
0.33749014 -0.080977686 0.83818185
0.33997464 -0.081378683 0.84018463
0.34774983 -0.084657684 0.85028118
0.35115984 -0.084392048 0.85228723
0.35303554 -0.084867664 0.85486841
0.33713561 -0.08177577 0.83235717
0.33822536 -0.082515925 0.83568889
0.34257901 -0.082962535 0.83849227
0.34591702 -0.081420846 0.83874267
0.33872351 -0.082259327 0.82911146
0.34020072 -0.084260494 0.8296833
0.34678289 -0.084399104 0.8351503
0.34867349 -0.082063258 0.83659756
0.34111345 -0.081171781 0.82408005
0.34481472 -0.083019011 0.82645404
0.34913629 -0.083378896 0.8299278
0.35251722 -0.08235833 0.83305031
0.34375796 -0.079905018 0.82330602
0.3476069 -0.081221923 0.82517409
0.35057434 -0.081281081 0.82780164
0.35301679 -0.081456713 0.83037823
0.35512155 -0.082758524 0.81508189
0.35827863 -0.082961619 0.81751513
0.35759136 -0.081410289 0.81220621
0.36063436 -0.081992581 0.81430316
0.36008894 -0.080241479 0.81015408
0.36291057 -0.08066079 0.81197566
0.3164413 -0.080330431 0.86656773
0.3187001 -0.080340892 0.86873001
0.31133991 -0.079102919 0.85694557
0.31357491 -0.078661866 0.86005342
0.31638122 -0.07838618 0.86423534
0.32147649 -0.078515545 0.86829418
0.32572314 -0.079756722 0.86937916
0.32925889 -0.08069919 0.87058079
0.31137127 -0.079277016 0.84991199
0.31218472 -0.077983961 0.85326135
0.31428218 -0.076284945 0.85722595
0.32864365 -0.077585779 0.86807448
0.33272234 -0.079739332 0.86888242
0.33595753 -0.081560992 0.86873996
0.31059295 -0.078494415 0.84315997
0.31134805 -0.077709973 0.84654772
0.31289509 -0.076273799 0.85030204
0.33597046 -0.078514077 0.86766273
0.33938211 -0.080245428 0.86806303
0.34299994 -0.081221104 0.86784655
0.31201249 -0.078107782 0.8402527
0.3143883 -0.075907327 0.84179217
0.3435415 -0.078441486 0.86402112
0.34532538 -0.081127182 0.86594945
0.31457859 -0.076943897 0.83564335
0.31679496 -0.075158834 0.83964634
0.32331547 -0.075577237 0.84033334
0.32694328 -0.077148117 0.84427404
0.32918745 -0.077342004 0.84466207
0.33717388 -0.078064069 0.85028696
0.33803457 -0.077945605 0.85236269
0.34303138 -0.077196062 0.8553192
0.34543383 -0.077704929 0.86127728
0.34929407 -0.07996691 0.8621462
0.31772012 -0.077058949 0.83245242
0.32148543 -0.075580649 0.83387423
0.32502258 -0.076904148 0.83749539
0.32777879 -0.079347856 0.84146577
0.33226722 -0.078678466 0.84313214
0.33761197 -0.079036213 0.84667361
0.33980563 -0.080143638 0.85074741
0.34496662 -0.078619957 0.85264421
0.34937787 -0.078149714 0.85526901
0.35149017 -0.079979926 0.85848486
0.32034025 -0.079222836 0.8305468
0.32275611 -0.07818985 0.83215368
0.32529852 -0.078648709 0.83405644
0.33447686 -0.075936615 0.83664322
0.33581004 -0.077917241 0.83962083
0.33973002 -0.078239508 0.84280717
0.34306753 -0.076802514 0.84315699
0.34767362 -0.080766678 0.85128444
0.35042372 -0.080670334 0.85340911
0.33579987 -0.077145502 0.8331418
0.33641103 -0.07871785 0.83601791
0.34285459 -0.079251803 0.84066606
0.34593907 -0.077888839 0.84072989
0.33729672 -0.077182434 0.82814419
0.34990299 -0.078368582 0.83765376
0.3387256 -0.078065932 0.82349598
0.33952677 -0.077417076 0.82391065
0.3531706 -0.078707114 0.83388114
0.3439658 -0.076854944 0.82254165
0.34844515 -0.077193342 0.82317406
0.35231516 -0.077433668 0.82653642
0.35357305 -0.07822448 0.83015525
0.35865983 -0.078276455 0.81189388
0.3611722 -0.078532606 0.81338823
0.35996142 -0.07759463 0.8101716
0.36290953 -0.078083277 0.81200039
0.31668642 -0.076177686 0.8599093
0.31860226 -0.076226994 0.86415446
0.32110277 -0.076402038 0.866391
0.3249281 -0.076979823 0.86683947
0.31422132 -0.075112961 0.853297
0.31678611 -0.074644275 0.85644978
0.3210192 -0.073802032 0.86014104
0.3247796 -0.07387843 0.86292148
0.32899457 -0.075828493 0.86574733
0.33254743 -0.076558985 0.86701566
0.31375796 -0.074006453 0.84648103
0.31576952 -0.073511004 0.84961247
0.31983805 -0.072532803 0.85277212
0.32382026 -0.072085328 0.85619092
0.32767612 -0.072259791 0.85909861
0.33195576 -0.073736727 0.86199218
0.33576706 -0.075283505 0.86482733
0.33949265 -0.076290868 0.86606514
0.31557217 -0.073794149 0.84406185
0.31895411 -0.072359547 0.84611678
0.32185447 -0.071137063 0.84863436
0.32781231 -0.071264915 0.8545602
0.32799926 -0.071404636 0.85603803
0.33515817 -0.072291434 0.85901135
0.33873007 -0.074183702 0.86122221
0.34152156 -0.076142609 0.86376601
0.31697655 -0.074341223 0.835509
0.31845734 -0.074361518 0.83868223
0.32182056 -0.073544756 0.84177661
0.32651216 -0.072941683 0.84458548
0.32910883 -0.070763133 0.84563082
0.33641064 -0.071411401 0.85095716
0.33829036 -0.073748872 0.85366106
0.34191519 -0.075232007 0.85695887
0.34522629 -0.076695375 0.85932565
0.34902737 -0.077236764 0.8598811
0.31776744 -0.074442357 0.83442998
0.31982344 -0.074182391 0.83526194
0.32977569 -0.073227242 0.84354168
0.33176491 -0.07227613 0.84272897
0.33814222 -0.072436541 0.84783906
0.33837909 -0.073889568 0.85001218
0.34871826 -0.076931588 0.85751605
0.33381039 -0.072264738 0.83790302
0.33341101 -0.073194399 0.83977497
0.34114781 -0.074615918 0.84494257
0.34260553 -0.072911903 0.84481454
0.33501127 -0.072223656 0.83190984
0.34776577 -0.073675737 0.84173644
0.33681858 -0.071510226 0.82906282
0.35018176 -0.073044673 0.83923399
0.34075907 -0.07193011 0.8250466
0.35280475 -0.073158592 0.8340562
0.34451148 -0.071984902 0.82195395
0.34872043 -0.072106615 0.82203007
0.35404187 -0.072597772 0.82637739
0.35491246 -0.072698183 0.82999051
0.3507019 -0.071622588 0.82285357
0.35269377 -0.07206057 0.82438141
0.32507241 -0.070981279 0.85438919
0.32929543 -0.071385428 0.85752773
0.32406279 -0.070547342 0.84977812
0.32662219 -0.070648417 0.85192508
0.33120397 -0.071063772 0.85538852
0.33416563 -0.071444817 0.85711616
0.3260501 -0.070443839 0.84754932
0.33024147 -0.070559271 0.84849423
0.33350632 -0.070863724 0.85106206
0.33555815 -0.071297988 0.8547492
0.33335072 -0.069902167 0.84429187
0.33690083 -0.070080169 0.84665614
0.33415154 -0.068298444 0.83780396
0.33501691 -0.067632981 0.84098285
0.33975637 -0.068327896 0.84480119
0.34321612 -0.069112256 0.8445971
0.33467615 -0.065723382 0.83005297
0.3351624 -0.06760671 0.83215064
0.34805068 -0.068991244 0.84224159
0.35062245 -0.068432331 0.84230828
0.33497512 -0.066491649 0.82963198
0.33722082 -0.067504168 0.82929093
0.35063019 -0.068869703 0.83944893
0.35107061 -0.068563163 0.84183258
0.34163031 -0.067078166 0.82568371
0.35276529 -0.068323545 0.83429748
0.34489164 -0.067115903 0.82262403
0.34925663 -0.067142747 0.82305509
0.35349631 -0.067479424 0.82642519
0.35477331 -0.067841813 0.83038867
0.35039043 -0.069560692 0.82284397
0.35234624 -0.069633141 0.82433146
0.33757681 -0.064218901 0.83986324
0.34081566 -0.064596988 0.84230953
0.33703029 -0.063163489 0.83391231
0.33895153 -0.061736681 0.83709681
0.34341818 -0.062297784 0.84063119
0.34666857 -0.064118713 0.84140605
0.33886856 -0.062370926 0.83017176
0.34648004 -0.060782157 0.83915609
0.35017067 -0.063445412 0.83868438
0.34235588 -0.06244272 0.82679236
0.34507734 -0.060505725 0.82637703
0.35244533 -0.061287928 0.83160388
0.35247755 -0.063335791 0.83435261
0.34514761 -0.063513428 0.82422405
0.34822273 -0.062314942 0.82510298
0.35222739 -0.062681988 0.82806087
0.35376078 -0.06414666 0.83112437
0.34165835 -0.059740853 0.83642691
0.34334138 -0.06010244 0.83813
0.3402324 -0.059709579 0.8313964
0.34398711 -0.057244375 0.83279359
0.34673119 -0.057298474 0.83485335
0.34933001 -0.060004033 0.83714944
0.34208691 -0.059388962 0.82900155
0.34634477 -0.056901943 0.82990813
0.34942275 -0.057080358 0.83178437
0.35098502 -0.060023203 0.83489305
0.34844497 -0.059574522 0.82750505
0.35048008 -0.059590291 0.82929641
0.3391313 -0.051350698 0.84844822
0.34019539 -0.051250897 0.84957868
0.33994341 -0.051166467 0.84672034
0.34575933 -0.053794917 0.83291274
0.34667754 -0.053561188 0.83364928
0.34675553 -0.053062879 0.83069813
0.34892529 -0.053311296 0.83213419
0.34925824 -0.053678606 0.82874417
0.34993416 -0.053702138 0.82936859
0.33691785 -0.049662322 0.85246003
0.33784959 -0.049626451 0.8532806
0.33821678 -0.049044646 0.8489399
0.34008208 -0.049823835 0.85074919
0.33889306 -0.047423501 0.84240115
0.34080726 -0.048716344 0.84496295
0.34197631 -0.049201198 0.84790456
0.34048998 -0.046092317 0.83940762
0.34247303 -0.046850309 0.84180439
0.34413931 -0.046920821 0.83403879
0.34626925 -0.047227971 0.83483118
0.34652939 -0.047682904 0.83073258
0.34857476 -0.048092522 0.83242178
0.33926317 -0.044336446 0.84201539
0.34081849 -0.04466556 0.84421694
0.34074473 -0.04310241 0.83858007
0.34317273 -0.043568294 0.84075731
0.34364155 -0.042463981 0.83456033
0.34545851 -0.043922123 0.83621913
0.34623891 -0.043697711 0.83217239
0.34724301 -0.044455029 0.83340859
