# .PCD v0.7 - Point Cloud Data file format
VERSION 0.7
FIELDS x y z
SIZE 4 4 4
TYPE F F F
COUNT 1 1 1
WIDTH 1294
HEIGHT 1
VIEWPOINT 0 0 0 1 0 0 0
POINTS 1294
DATA ascii
0.076822199 -0.0032819333 0.52676791
0.074557617 -0.0026130453 0.52557695
0.070884563 -0.00054030679 0.52288723
0.067207336 0.0015464602 0.52024275
0.063559696 0.0037909308 0.51763713
0.059889399 0.005923559 0.51500469
0.056274608 0.0080597606 0.51238614
0.05244308 0.010142761 0.50953639
0.048799664 0.012437153 0.5069803
0.045182429 0.014425308 0.50427264
0.041654956 0.016439289 0.50172561
0.039390415 0.017957702 0.49991888
0.077307209 0.0010815994 0.52952635
0.075141944 0.0020808685 0.52841234
0.071489356 0.0040889038 0.52570552
0.067885593 0.0060853651 0.52304173
0.064200088 0.0082995528 0.5203957
0.060477283 0.010364861 0.5176453
0.056834027 0.012249121 0.51489151
0.053146735 0.014563684 0.51228929
0.049475379 0.016789481 0.50966251
0.045834478 0.018691655 0.50691921
0.04221775 0.020836424 0.50430983
0.040050045 0.022070847 0.50225216
0.077941574 0.0050835945 0.53179681
0.075748473 0.0061965026 0.53087908
0.072187439 0.0083516296 0.52832955
0.068498194 0.010377967 0.52559471
0.064723834 0.012445832 0.52279437
0.061119765 0.014535055 0.52017236
0.057560723 0.016579911 0.51757479
0.053787716 0.018776827 0.51483428
0.050126903 0.020803832 0.51212788
0.046524689 0.022959687 0.50953794
0.04274128 0.024953607 0.50669509
0.040637538 0.02658472 0.5049836
0.078471869 0.0093585206 0.53442377
0.076405451 0.010295693 0.53338832
0.072823718 0.012638673 0.53090346
0.069213443 0.014644736 0.52823758
0.065299265 0.016565686 0.5252322
0.061696529 0.018953351 0.5227468
0.058134891 0.020877115 0.52009177
0.054354515 0.023008782 0.51731443
0.050736316 0.025048915 0.51465613
0.047198787 0.027292732 0.51217014
0.043350689 0.029305644 0.50927186
0.041167475 0.030792117 0.50733989
0.079176396 0.013958357 0.53706712
0.076976523 0.014618559 0.53591388
0.073222257 0.016991671 0.53327185
0.069579773 0.019031744 0.53058946
0.066028811 0.020965066 0.52794939
0.062379878 0.023163524 0.52533245
0.058783665 0.025089005 0.52264398
0.055020809 0.027159717 0.51985633
0.051518172 0.02935344 0.51738214
0.047679465 0.03148729 0.514548
0.043831892 0.033697713 0.51173979
0.041775048 0.035175987 0.51012963
0.07967262 0.017717756 0.53933632
0.077492982 0.019021243 0.53842151
0.073891178 0.021071587 0.53578413
0.070291206 0.02326028 0.53321129
0.066554859 0.025511619 0.53053176
0.063033484 0.027420251 0.52790976
0.059326366 0.029307332 0.52509403
0.055585839 0.031668104 0.52246004
0.05188176 0.033708524 0.51971686
0.048226476 0.03565247 0.5169782
0.044817816 0.03779285 0.51457292
0.042526782 0.039541021 0.51282936
0.080268808 0.022165753 0.54200888
0.078210816 0.02311134 0.5409869
0.074644849 0.025378175 0.53848314
0.070978105 0.027425725 0.53578019
0.067243472 0.029737376 0.53312969
0.063469991 0.031560767 0.53021938
0.059942931 0.033910338 0.52779168
0.056078084 0.036014456 0.5249182
0.05239886 0.037970357 0.52216125
0.04875537 0.040107276 0.51952183
0.045202956 0.042043369 0.51688159
0.042974345 0.043817807 0.51521778
0.081028879 0.026963469 0.54473132
0.078797296 0.027424891 0.54352349
0.0750558 0.029935937 0.54095668
0.071472876 0.031895071 0.53829658
0.067788668 0.033907849 0.53556055
0.064203918 0.035886284 0.53290743
0.060435504 0.038121302 0.5301888
0.056739874 0.040223613 0.52748203
0.05311767 0.042277675 0.52482611
0.049330607 0.044302542 0.5219937
0.045659889 0.046424478 0.51932049
0.043565206 0.047857735 0.51739663
0.081632353 0.031245559 0.54726374
0.07943733 0.031855524 0.54616624
0.075734042 0.033899728 0.54342556
0.071980357 0.035933878 0.5406304
0.068352506 0.038146939 0.538041
0.064645365 0.040231604 0.5353148
0.061038449 0.042252086 0.53265882
0.057218753 0.044500183 0.52989531
0.053664353 0.046582114 0.52731913
0.050086163 0.048543576 0.52466482
0.046403985 0.050658088 0.52197695
0.044189237 0.052150223 0.52015877
0.082094781 0.035404362 0.54989254
0.080045789 0.036003448 0.54864949
0.076339647 0.038232706 0.54598987
0.072744459 0.040252119 0.54334503
0.068999872 0.042433761 0.54062575
0.065376058 0.044268277 0.53786868
0.061690681 0.046413004 0.5351913
0.057969984 0.048661146 0.53252584
0.054385889 0.050758973 0.52992755
0.05071418 0.052832011 0.52723122
0.046893217 0.05502262 0.52444035
0.044805415 0.056638505 0.52265859
0.082857162 0.039588027 0.55213022
0.080596372 0.040288482 0.55113763
0.076966919 0.042602956 0.54859263
0.073379517 0.044569314 0.5459314
0.069689557 0.046639211 0.54321551
0.065789945 0.04871143 0.54029316
0.062296696 0.050640631 0.53770828
0.058636468 0.053135883 0.53521478
0.054954097 0.055047117 0.53243452
0.051321156 0.057266649 0.52984297
0.047638524 0.059205566 0.52707499
0.045466661 0.061022066 0.52530265
0.083529033 0.043919537 0.55460775
0.08137431 0.044467796 0.55380297
0.077580944 0.046837687 0.55112076
0.074060738 0.048803784 0.54852593
0.070321195 0.050990328 0.54581392
0.066476345 0.052941602 0.54289091
0.06283249 0.055224538 0.5403173
0.059185408 0.057449032 0.537714
0.055556007 0.059252847 0.5349375
0.051918186 0.061401833 0.53230917
0.048222102 0.063456982 0.52958059
0.04601904 0.064807579 0.5275383
0.083988219 0.048277654 0.55739731
0.081883192 0.048703369 0.55622739
0.078139149 0.050981957 0.55355257
0.07438685 0.053034101 0.55076694
0.070733815 0.05526074 0.54815876
0.067065641 0.057256397 0.54543084
0.0635074 0.059184249 0.54278105
0.059842076 0.061509553 0.54020542
0.056010075 0.063810796 0.53745377
0.052455001 0.06556797 0.53472972
0.048687737 0.067868605 0.53204197
0.046646595 0.069132507 0.53024936
0.084572248 0.052263778 0.55972421
0.082244769 0.053302158 0.55867058
0.078573711 0.055322558 0.555951
0.075161293 0.057432797 0.55352831
0.071527302 0.059444606 0.55084157
0.067782208 0.061575521 0.5480988
0.064016744 0.063756078 0.54535836
0.060317677 0.065712512 0.54258204
0.056679673 0.068005309 0.54001874
0.052977011 0.069935434 0.53722692
0.049445767 0.072198436 0.53475583
0.047231749 0.073309094 0.5326888
0.085200444 0.05656207 0.56223553
0.083185121 0.057247382 0.56139064
0.079403773 0.05948231 0.55865908
0.075742431 0.0616691 0.55602461
0.071986921 0.063829646 0.55328494
0.0684641 0.065727361 0.55065656
0.064714745 0.067876101 0.54791766
0.061084948 0.07005053 0.54530877
0.057393707 0.072011977 0.54254252
0.053774938 0.074255221 0.53997576
0.049987957 0.076423585 0.5372085
0.047835797 0.077950113 0.53540039
0.08568994 0.060941223 0.56500006
0.083458088 0.061674263 0.56366813
0.079932489 0.063922495 0.56119591
0.076193608 0.066008389 0.5584389
0.07261911 0.068266563 0.55592275
0.069018029 0.069881067 0.55308843
0.065371424 0.07191015 0.55039704
0.06174469 0.07427647 0.54787821
0.057864722 0.076508291 0.54504764
0.054352976 0.078461155 0.5424552
0.050684899 0.080837809 0.53990012
0.048371274 0.081911534 0.53783625
0.086230651 0.065032944 0.56746906
0.084050015 0.066056028 0.56624103
0.08054442 0.067921072 0.5636149
0.076899745 0.070284672 0.56107706
0.073191211 0.072289921 0.55831355
0.069331676 0.074374713 0.55543649
0.06571459 0.076470427 0.55280453
0.062091034 0.078697346 0.55022568
0.058499482 0.080716901 0.54758447
0.054634176 0.083052926 0.5448156
0.051327553 0.084863089 0.54236168
0.049002931 0.086174197 0.54030192
0.086912513 0.068943739 0.56960297
0.084669568 0.070316888 0.5687865
0.08104565 0.072421119 0.56615162
0.077257305 0.074597172 0.5633865
0.073718384 0.076778471 0.56087077
0.070110939 0.078834258 0.55823022
0.066249192 0.080882311 0.55533433
0.062757045 0.082995191 0.55283391
0.059242018 0.08495599 0.55024183
0.055510089 0.08677724 0.54737169
0.051744338 0.089188412 0.54473555
0.04963534 0.090460427 0.54285306
0.087558821 0.073795378 0.57252347
0.085374698 0.074552201 0.57140511
0.081738777 0.076761641 0.56880605
0.078051373 0.078558654 0.56596905
0.074403077 0.080901466 0.56341821
0.070668966 0.082866184 0.56061095
0.067067653 0.085092694 0.55805391
0.063453496 0.087113321 0.55539083
0.05971865 0.089165427 0.55262244
0.055991877 0.091271602 0.54988658
0.05242613 0.093356334 0.54730052
0.0500964 0.094583459 0.54513228
0.088223577 0.077955194 0.57487607
0.086001247 0.078668252 0.57389188
0.082444131 0.080870226 0.57136744
0.078759044 0.082827501 0.56860536
0.074917108 0.085050136 0.5658083
0.071425065 0.087191626 0.56332093
0.067664161 0.089510493 0.56064773
0.06392023 0.091431305 0.55781084
0.060394216 0.093372874 0.55519915
0.056652982 0.095638134 0.55252111
0.053118154 0.097700946 0.54995573
0.050807752 0.098929174 0.54788423
0.08882577 0.082258664 0.57742703
0.086612299 0.08317326 0.57653958
0.082849488 0.08516939 0.57371819
0.079140045 0.087494858 0.57109892
0.075622469 0.089178219 0.56837857
0.071735099 0.091620699 0.5656361
0.068202145 0.093743347 0.56309968
0.064465001 0.095595859 0.56023854
0.060921077 0.097780831 0.55771953
0.057196945 0.099938035 0.55500942
0.053671509 0.10197614 0.55244207
0.051431023 0.10326284 0.55031216
0.089426033 0.086542241 0.579965
0.08706896 0.087350823 0.57888597
0.083646253 0.089433581 0.57644063
0.079835244 0.091493957 0.57360059
0.076135941 0.093589023 0.57088691
0.072483867 0.095882259 0.5683099
0.068872131 0.097837992 0.56561971
0.065249011 0.099943765 0.56298637
0.061439388 0.10216843 0.56022221
0.057917211 0.10435002 0.55772316
0.054192249 0.106218 0.5548811
0.051978964 0.10766354 0.55298615
0.090003848 0.09107168 0.58272654
0.087802276 0.091644369 0.58155894
0.084190562 0.093765147 0.57894361
0.080657095 0.095803656 0.57636857
0.076797001 0.098011672 0.57354683
0.073203549 0.10022844 0.57099319
0.069569334 0.10219391 0.56828523
0.065836534 0.10416005 0.56547987
0.06222355 0.10641994 0.56292641
0.058488 0.10844447 0.5601449
0.054730006 0.11043417 0.5573253
0.052606709 0.11190277 0.55554944
0.090559691 0.094693296 0.58480614
0.088403001 0.095965572 0.58411312
0.084744513 0.097909339 0.58137125
0.081185907 0.1002242 0.57889652
0.077327549 0.10214034 0.57594424
0.073675543 0.10447665 0.57338679
0.070008755 0.10636022 0.57060939
0.066462874 0.10849407 0.56806523
0.062752321 0.11059937 0.56534505
0.059147298 0.11263201 0.56269646
0.055315226 0.11479191 0.55988067
0.053076088 0.11603776 0.55790675
0.091196328 0.099891193 0.58801144
0.088794358 0.10012741 0.58638763
0.085232124 0.10221443 0.5838061
0.081735164 0.10440781 0.58133739
0.077921033 0.10644144 0.57848215
0.074290186 0.10854274 0.57583904
0.070739523 0.11069704 0.57329941
0.067027807 0.11266094 0.57051402
0.06344828 0.11495604 0.56800961
0.05959304 0.11715675 0.56518942
0.056184106 0.11902801 0.56266183
0.053896204 0.12064868 0.56070471
0.091751933 0.10370961 0.59024572
0.08945711 0.10440807 0.58898491
0.085995048 0.10652476 0.58651596
0.082194924 0.10852245 0.58365828
0.078442857 0.11072972 0.58094323
0.074753478 0.11294772 0.57829511
0.071195446 0.11509209 0.57574368
0.067534909 0.11701366 0.57298976
0.063935086 0.1192588 0.57044262
0.060235009 0.1211993 0.56765807
0.056456812 0.12341692 0.56492186
0.054307658 0.12450525 0.56294906
0.092218898 0.10784673 0.59285128
0.090088591 0.10875779 0.59158248
0.08653152 0.11086991 0.58901739
0.082790628 0.11292095 0.58624256
0.079158336 0.11514473 0.58365357
0.075438373 0.11706203 0.58083886
0.07182537 0.11937235 0.57830822
0.068054415 0.12137028 0.57547957
0.064497136 0.12334547 0.57285213
0.060910001 0.12560725 0.57032514
0.05715435 0.12749195 0.5674603
0.055040166 0.12944132 0.56579107
0.092961967 0.11220711 0.595254
0.090895355 0.1130712 0.59433717
0.087035425 0.11504088 0.59140754
0.083462432 0.11725127 0.58887124
0.079778843 0.11942373 0.58620822
0.07613866 0.12130841 0.58345771
0.072439142 0.12343965 0.58076018
0.068805255 0.12558115 0.57813233
0.065030694 0.12788543 0.57543898
0.061413854 0.12995708 0.57279634
0.057897128 0.13198812 0.57023448
0.055524319 0.1330861 0.56808066
0.093500584 0.11614992 0.5976091
0.091319136 0.11738568 0.59671307
0.087518975 0.11953828 0.59392554
0.084020518 0.12153474 0.59136605
0.080442861 0.12351047 0.58871877
0.076743275 0.12569425 0.58604503
0.073122427 0.12752908 0.58329105
0.069391839 0.12976649 0.58061093
0.065743476 0.13200431 0.57801241
0.062013429 0.13415504 0.57529354
0.058456253 0.13607386 0.57264072
0.056188546 0.13729945 0.57060319
0.093922257 0.12013771 0.60015953
0.091745168 0.12164742 0.59906727
0.088363186 0.12345646 0.59653813
0.084757023 0.12553468 0.59390908
0.081134975 0.1276589 0.59128511
0.07736849 0.12985075 0.58854878
0.0736439 0.13193826 0.58580667
0.070056438 0.13408589 0.58322757
0.066443339 0.13614295 0.58058202
0.062686086 0.13832618 0.57785094
0.05891829 0.14044785 0.57508147
0.05683846 0.14220141 0.57333261
0.094674028 0.12444892 0.60251176
0.092588678 0.12599969 0.60186028
0.088901609 0.12768194 0.59898722
0.085173644 0.1300998 0.5963915
0.081483953 0.13207844 0.59363455
0.077761024 0.1341808 0.59090078
0.07422927 0.13637699 0.58839893
0.070613571 0.1382008 0.58564502
0.066899598 0.14038122 0.58295548
0.063232042 0.14247254 0.5802716
0.059671786 0.14468127 0.57770777
0.057355985 0.14588876 0.57573557
0.093566015 0.12783992 0.60302067
0.089424513 0.13031749 0.59981847
0.085918322 0.13226227 0.59736538
0.082160845 0.13439178 0.59465992
0.078623123 0.13656068 0.59183598
0.07508716 0.13847548 0.58944046
0.071229927 0.14063928 0.58670074
0.067833766 0.14267355 0.5840705
0.063910335 0.14498414 0.58109868
0.060608655 0.1467426 0.57891166
0.057842962 0.14805169 0.57735646
0.07886517 -0.0022962196 0.52474457
0.076599322 -0.0034370879 0.52232045
0.073118366 -0.0012783306 0.51950014
0.069353536 0.00077632675 0.51692277
0.0657143 0.0029139016 0.51417565
0.061803967 0.0049191713 0.51171619
0.058175325 0.0070827445 0.5089227
0.0546146 0.0093331113 0.50596654
0.051106595 0.011223609 0.50360554
0.047489617 0.013438604 0.50072247
0.043646127 0.015538032 0.49808818
0.041395321 0.019009173 0.49751803
0.079337388 0.0018361211 0.52733922
0.042083539 0.023597613 0.50014102
0.079973951 0.0062436508 0.52992469
0.04256919 0.027586879 0.50260508
0.080571011 0.01050031 0.53244597
0.043276839 0.031887576 0.50500947
0.081106722 0.014793347 0.53507972
0.043733567 0.036069382 0.50766414
0.081893712 0.018982727 0.53728819
0.044455066 0.040598493 0.51022869
0.082487367 0.023570918 0.54007411
0.044931628 0.044770904 0.51284885
0.082979247 0.027490428 0.54247493
0.045634717 0.048835419 0.51507425
0.083419457 0.031766448 0.54522604
0.046304807 0.053307135 0.51766419
0.08410129 0.036175974 0.54775119
0.046920009 0.057437759 0.52006179
0.084946051 0.040577568 0.55004704
0.047506362 0.06178274 0.52266699
0.085424803 0.044592969 0.55254102
0.048106089 0.066286601 0.52537847
0.086039916 0.048991997 0.5551492
0.048622295 0.070285626 0.52780831
0.086664796 0.05323771 0.55762374
0.049118623 0.074453898 0.53039813
0.087180041 0.05750965 0.560269
0.049667507 0.078711942 0.5329864
0.087704115 0.061781786 0.56290227
0.050282396 0.082910977 0.53543806
0.088399813 0.066094756 0.56533265
0.050939545 0.087347507 0.53801811
0.088999897 0.070402436 0.56788981
0.051572643 0.091624379 0.54050589
0.089703798 0.074646115 0.57025462
0.052135523 0.09599264 0.54316145
0.090195686 0.078809954 0.57284701
0.052778602 0.10032155 0.54567641
0.090734117 0.083143704 0.57550895
0.053507701 0.10457498 0.54801434
0.091523767 0.087459557 0.57781303
0.053947158 0.108734 0.55067474
0.091981083 0.091710001 0.58052069
0.054464672 0.11303325 0.55333829
0.092668764 0.095916159 0.58287829
0.055222388 0.11737153 0.55570364
0.093195915 0.10000692 0.58536512
0.055798151 0.12164076 0.5582639
0.09382315 0.10452569 0.5880506
0.056279205 0.12590587 0.56095058
0.094284959 0.10873504 0.59071988
0.057097975 0.13026707 0.5632503
0.094814375 0.11298224 0.59332633
0.057568468 0.13438338 0.56583476
0.095549203 0.11717197 0.59560651
0.058167152 0.13864525 0.56835783
0.096038699 0.12132123 0.59819078
0.058893926 0.14305839 0.57082427
0.096829571 0.12584303 0.60065466
0.091483086 0.12998101 0.59989905
0.080095686 0.13857867 0.58808023
0.076073349 0.14063853 0.58555508
0.06832619 0.14362004 0.58235592
0.065233372 0.14482541 0.58105326
0.063355751 0.14814398 0.57589519
0.059267286 0.14737289 0.57369709
0.09511327 0.12893963 0.60079765
0.091697432 0.13121629 0.59776282
0.087785594 0.13336965 0.59505361
0.084100768 0.13533737 0.5926041
0.080831721 0.13729584 0.59007174
0.077075742 0.13939072 0.5874244
0.073527008 0.14161053 0.58451706
0.069552019 0.14370146 0.58192819
0.066121094 0.14586385 0.57908988
0.061952215 0.14796467 0.57653028
0.059999302 0.14920565 0.57489759
0.082080573 -0.00080862828 0.52151
0.07969033 -0.0019070939 0.51900542
0.076361701 0.00024620909 0.51615822
0.072679691 0.002345915 0.51348519
0.068897016 0.0043943878 0.51092249
0.065289833 0.0066067884 0.5080415
0.061463404 0.0087531563 0.50532389
0.0579684 0.010731597 0.50281131
0.054233864 0.012922021 0.49999756
0.050899304 0.015022734 0.49724057
0.047004677 0.017062824 0.49471855
0.044722997 0.020512182 0.49416724
0.082802102 0.0035137064 0.52391237
0.045192804 0.024802245 0.49682984
0.083167896 0.0076534869 0.52665854
0.045929112 0.029090527 0.49918526
0.08403977 0.012240055 0.52906233
0.046474881 0.033415213 0.5018301
0.084578857 0.016445123 0.53162247
0.04702286 0.037690476 0.5044331
0.085300535 0.020658188 0.53393894
0.047764312 0.041822162 0.50665867
0.085811235 0.024871308 0.53654426
0.048230596 0.046096284 0.50937265
0.086400501 0.029226495 0.53915346
0.048947059 0.050430078 0.51179093
0.086841665 0.033350859 0.54178435
0.049659569 0.054687254 0.51415455
0.087427892 0.037425295 0.54417747
0.050158478 0.058959946 0.51682276
0.088300638 0.041817214 0.54642743
0.050842971 0.063187495 0.51920152
0.08877445 0.046197284 0.54921418
0.051356375 0.067533046 0.52190697
0.089378834 0.050525416 0.55178148
0.05200652 0.071915746 0.52445441
0.089892276 0.054570064 0.5542509
0.05250635 0.076011531 0.52698261
0.090563074 0.059063908 0.55685723
0.053227477 0.080390058 0.52942961
0.091103621 0.063252375 0.55940235
0.053772792 0.084685348 0.53205198
0.091620758 0.067547247 0.56206298
0.054354064 0.0889415 0.53459442
0.092275001 0.071709722 0.56443208
0.054838575 0.093118772 0.53720748
0.093044743 0.076031454 0.56676799
0.055630751 0.09757185 0.53961569
0.093538091 0.080369845 0.56949532
0.056097239 0.10176216 0.54226363
0.094030872 0.084386028 0.5719707
0.056633528 0.10616413 0.54498202
0.094839178 0.088928536 0.57442695
0.057359524 0.11035795 0.54727751
0.09528397 0.093127236 0.57711118
0.057964519 0.11461629 0.54978919
0.096042395 0.097457372 0.57946914
0.05866671 0.11887713 0.55216986
0.096573755 0.10172471 0.58208871
0.059126757 0.12321553 0.55494273
0.097171962 0.10590196 0.58454609
0.059673291 0.12746069 0.55752414
0.097802252 0.11027733 0.58711499
0.060218193 0.13157599 0.5600059
0.098312318 0.11459114 0.58980012
0.060976923 0.13601729 0.56245065
0.09891393 0.1189713 0.59241199
0.061578788 0.14023098 0.56493163
0.099638849 0.12316555 0.59470928
0.062165398 0.14464211 0.56758833
0.10007521 0.12743938 0.59746397
0.081561759 0.14043213 0.58460385
0.076025046 0.14375626 0.58030283
0.073499471 0.14533947 0.578228
0.068101227 0.14668868 0.57722843
0.064436764 0.14874713 0.5746209
0.06268917 0.14880808 0.57013875
0.098328188 0.13069949 0.59706515
0.094695285 0.13282464 0.59433752
0.091067694 0.13479008 0.59187829
0.087797239 0.1368385 0.58919442
0.083958335 0.13897251 0.58650064
0.079979464 0.14110585 0.58384109
0.076609924 0.14304128 0.58137143
0.072804168 0.14517841 0.57866454
0.069335938 0.14739288 0.57574719
0.06589815 0.14952816 0.5729562
0.063212804 0.15057151 0.57183069
0.085564815 0.00072736666 0.51794535
0.083121985 -0.00025933236 0.51541084
0.079782411 0.0017168683 0.51286525
0.075950578 0.0038790349 0.51012224
0.072373442 0.0059557874 0.50746316
0.068844043 0.0080475444 0.50476742
0.065271847 0.010228161 0.50193179
0.06158565 0.012277659 0.49934453
0.057808209 0.014370808 0.49670517
0.05411331 0.016406115 0.4941439
0.050331417 0.01857549 0.49137694
0.048013024 0.022031792 0.4908523
0.086139485 0.0049974085 0.52050775
0.048479311 0.026350757 0.49354574
0.086565837 0.0092430441 0.52325404
0.049231663 0.030768797 0.49598098
0.087368943 0.013558538 0.5255394
0.04975044 0.034888133 0.49850169
0.087973021 0.017825259 0.52805895
0.050299756 0.039099541 0.5010528
0.088607438 0.022228293 0.53064382
0.050925266 0.043392137 0.50356328
0.089119211 0.026492774 0.53328794
0.051569518 0.047768809 0.50611407
0.089860231 0.030721184 0.53558999
0.052110463 0.05196831 0.50866729
0.090301141 0.034974098 0.53832203
0.052652229 0.056229297 0.5112676
0.090855442 0.039079186 0.54078293
0.053231876 0.060425855 0.51376551
0.09164612 0.043543268 0.54320186
0.053941596 0.064673439 0.51612544
0.092096962 0.047777206 0.54590541
0.054566257 0.069087319 0.51873225
0.092705697 0.051965553 0.54835713
0.055238105 0.073304683 0.52112031
0.09334442 0.056329448 0.55090541
0.055842239 0.077668697 0.52371609
0.093855597 0.06042004 0.55341399
0.056577768 0.081867971 0.52600276
0.094407603 0.064909682 0.55617964
0.0570429 0.086051598 0.52864736
0.095195651 0.069343515 0.55857837
0.057653684 0.090398923 0.53122091
0.095783092 0.073396973 0.56095344
0.058261983 0.094772384 0.53381836
0.096303508 0.07776954 0.56367052
0.058868468 0.098988377 0.53629482
0.096798085 0.081809595 0.56616217
0.05946666 0.10330974 0.53886527
0.097608984 0.086315341 0.56858605
0.060036756 0.10742599 0.54131329
0.098049819 0.090376951 0.57116818
0.060612146 0.11171424 0.54388899
0.098709427 0.094606414 0.57358247
0.061402552 0.11611117 0.54625559
0.099265069 0.098989107 0.57625926
0.06187265 0.12042227 0.54899335
0.099944212 0.10332714 0.57873195
0.062350921 0.12447111 0.55151421
0.10052159 0.10766257 0.58134192
0.063088745 0.1288805 0.55396253
0.10111001 0.11185525 0.58382481
0.063738868 0.13314736 0.55641919
0.10158893 0.11609738 0.58649635
0.064274088 0.13743848 0.55905211
0.10224754 0.12039474 0.5889653
0.064907275 0.14169818 0.56152624
0.10296254 0.12478082 0.59142661
0.06551376 0.14601721 0.56408352
0.1036266 0.12909086 0.593898
0.084981114 0.14124525 0.58242136
0.083598375 0.14233702 0.58090556
0.072517291 0.14936706 0.57166076
0.068797804 0.15208107 0.56795949
0.066037998 0.15018889 0.56664681
0.10184868 0.13211562 0.59384066
0.098397344 0.13403966 0.59140956
0.094566233 0.136261 0.58856654
0.091063514 0.13839202 0.58579814
0.087538503 0.14048031 0.58310723
0.083290085 0.14251854 0.58067214
0.079862073 0.1447151 0.57777542
0.076280184 0.14676054 0.57517034
0.072775558 0.14878207 0.57258725
0.068986505 0.15089287 0.5699209
0.066757515 0.15215172 0.56832337
0.08903493 0.0024408479 0.5145393
0.086680733 0.0011734287 0.51214921
0.082918897 0.0033221529 0.50941229
0.079274654 0.0054546753 0.50667495
0.075638711 0.0076045953 0.50390625
0.072086364 0.0096067078 0.50136727
0.06841781 0.011795268 0.49854106
0.064765379 0.013854668 0.49592906
0.061082765 0.015957184 0.49325144
0.057452239 0.018113514 0.49047065
0.053627498 0.020136774 0.48796049
0.051498231 0.023235634 0.48718554
0.089491628 0.0066410322 0.5172084
0.051986441 0.027839283 0.4899126
0.08996664 0.010678288 0.51972461
0.052689034 0.032226309 0.49239162
0.090661988 0.015073274 0.52221984
0.053118758 0.036425579 0.49509692
0.091287866 0.019331438 0.52470279
0.053793721 0.04078906 0.49759531
0.09188734 0.023586368 0.52721941
0.054307349 0.044974841 0.50017518
0.092551537 0.027983386 0.52975881
0.054927997 0.049428564 0.5028187
0.093130253 0.032206569 0.5322789
0.055462193 0.053570639 0.50533611
0.093704745 0.036542248 0.53489304
0.056241713 0.057803344 0.5075888
0.094355002 0.040758058 0.53730941
0.05671509 0.062007282 0.51023799
0.09493421 0.044899881 0.53976506
0.057305209 0.066449836 0.51291454
0.095268078 0.04905137 0.54256403
0.057993688 0.070750982 0.51534557
0.095946148 0.053539451 0.54515594
0.058615755 0.074927635 0.51776981
0.096705914 0.057789929 0.54744959
0.059247267 0.079196632 0.5202536
0.097274221 0.062140394 0.55008376
0.05975499 0.083460689 0.52290291
0.097802356 0.066374063 0.55268133
0.060357936 0.087658934 0.5253703
0.098256476 0.070617989 0.55538827
0.060947012 0.091922656 0.52790803
0.099063918 0.075033076 0.55774581
0.061559644 0.096133441 0.53037196
0.099635817 0.079282679 0.56029594
0.062255662 0.10058187 0.53290814
0.10004971 0.083566189 0.56308895
0.062771656 0.10474695 0.53546852
0.10085117 0.087822527 0.56533021
0.06345658 0.10916743 0.53799802
0.10146415 0.091983549 0.56775463
0.063991129 0.11342245 0.54060352
0.10203996 0.096322604 0.5703696
0.064560153 0.11745576 0.542988
0.10263729 0.10065582 0.57295048
0.065348729 0.12192494 0.54541373
0.10325853 0.10482804 0.57537246
0.065911651 0.12616591 0.54796946
0.1037142 0.10896602 0.57799411
0.066422105 0.13052814 0.55069202
0.10441294 0.1133616 0.58048517
0.067203507 0.13468966 0.55288631
0.10507908 0.11767192 0.58295393
0.067608714 0.13883658 0.55558407
0.10557879 0.12187362 0.58556533
0.06808079 0.1430762 0.55826306
0.10625662 0.12617655 0.58801228
0.068837665 0.14727783 0.56052244
0.10683797 0.1304408 0.59056103
0.097420819 0.139089 0.58311594
0.092508405 0.14048533 0.58192182
0.091208972 0.14210872 0.57948875
0.080460489 0.14832786 0.57153428
0.075357638 0.15012273 0.56971234
0.071487278 0.15272789 0.5662306
0.069464512 0.15184851 0.56331193
0.10510832 0.13373572 0.59033352
0.10161528 0.13572796 0.58779716
0.097936638 0.13772067 0.58530402
0.094507627 0.13988598 0.58246028
0.090724789 0.14191608 0.57992864
0.08679571 0.14404693 0.57726157
0.083327189 0.14621243 0.57442695
0.079677917 0.14834583 0.57168931
0.075875714 0.15044749 0.56904137
0.072515905 0.15244347 0.56646723
0.070135221 0.15374021 0.56484169
0.092257529 0.003889984 0.51126468
0.09004841 0.0027208943 0.50873911
0.086210214 0.0048958315 0.50597608
0.082724422 0.0069581089 0.5033198
0.079153344 0.0090663638 0.50060606
0.075518735 0.011078284 0.49807
0.071534276 0.013206508 0.49542046
0.068070516 0.015417477 0.4925079
0.06452556 0.017450117 0.48991567
0.060862459 0.019720253 0.48695043
0.057358705 0.021732867 0.48438224
0.054780226 0.024422735 0.48370606
0.092755489 0.0080224499 0.51382422
0.055397242 0.029372627 0.48644641
0.093276069 0.012228963 0.51641083
0.056076437 0.033839814 0.48902035
0.094007932 0.016629815 0.51886064
0.056523494 0.037934065 0.49161956
0.09459585 0.020886855 0.52139467
0.057241734 0.042411275 0.4941479
0.095327146 0.02530957 0.52386242
0.057861798 0.046672914 0.49664158
0.095874697 0.029451709 0.52636164
0.05834873 0.050856177 0.49925599
0.096311465 0.033512589 0.52894872
0.058816027 0.055007763 0.50187248
0.09703964 0.038077272 0.53153205
0.059671156 0.059317075 0.50408173
0.097667344 0.042358395 0.53403056
0.059990861 0.063539967 0.50695616
0.098301604 0.046584476 0.53647691
0.06062429 0.067858025 0.50947577
0.098653227 0.050717585 0.5392372
0.061295524 0.072079301 0.51186776
0.099317238 0.055061642 0.54173535
0.06192109 0.076473974 0.51445824
0.099925645 0.059302248 0.54422849
0.062544614 0.080710284 0.5169273
0.10040787 0.063423567 0.54680079
0.063186564 0.084953792 0.51937675
0.1011399 0.067876577 0.54929125
0.063744172 0.089258216 0.52198946
0.10163713 0.07201501 0.55185646
0.064502306 0.093650736 0.52439678
0.10231046 0.076484196 0.55443996
0.064980112 0.097896814 0.52707297
0.10280269 0.080681451 0.5570581
0.065532796 0.10210884 0.52961999
0.10355654 0.085065618 0.55946475
0.066164166 0.10644609 0.53215742
0.10416377 0.089226618 0.56189704
0.066796407 0.11076091 0.53467619
0.10480286 0.093498684 0.56437284
0.067368053 0.11502271 0.53723621
0.10526082 0.09749011 0.56687647
0.067925304 0.11918867 0.53974086
0.10600199 0.10212529 0.56949735
0.068639807 0.12352793 0.54216611
0.10659682 0.10637819 0.57201868
0.06913285 0.12785545 0.54488528
0.10723486 0.11070348 0.57453769
0.06978488 0.13196209 0.54721367
0.10782342 0.11495176 0.57706398
0.070470929 0.13639671 0.54975265
0.10831975 0.11921573 0.57972884
0.071053334 0.14059365 0.55224711
0.10894676 0.12343819 0.58218229
0.071427785 0.14480442 0.55503708
0.1095586 0.1276518 0.5846495
0.072084889 0.14894752 0.55738711
0.11014129 0.13188927 0.58717537
0.10800772 0.13700992 0.58411908
0.10094737 0.13906467 0.58232194
0.095760822 0.14078271 0.58064955
0.08041048 0.15240215 0.56466746
0.07714498 0.15366787 0.56330383
0.07276839 0.15335207 0.55990601
0.10864908 0.13517348 0.58706772
0.10490687 0.13734883 0.58428121
0.10141992 0.13946097 0.58154094
0.097759314 0.14155143 0.57887852
0.094001122 0.14347965 0.57651305
0.090358518 0.14557999 0.57382959
0.086710632 0.1477426 0.57104236
0.082969867 0.14985618 0.56835979
0.079023838 0.15196964 0.5657261
0.075532056 0.15412354 0.56291658
0.073342092 0.1551785 0.56165397
0.095399186 0.0051386077 0.50794363
0.093333766 0.0043211034 0.50525951
0.089727797 0.006446484 0.50252515
0.085836969 0.0084518241 0.50006086
0.082280092 0.010622545 0.49723834
0.078667305 0.012747129 0.4945069
0.074993648 0.014732676 0.49202463
0.071372569 0.016908407 0.48920885
0.067555368 0.018985495 0.486606
0.064274147 0.021018606 0.48395053
0.060552396 0.023166604 0.48120537
0.058086656 0.025984231 0.48040694
0.09621387 0.0096209943 0.51034403
0.058786944 0.031113233 0.4831717
0.096665621 0.013739377 0.51295573
0.059261519 0.035339922 0.4858371
0.097372442 0.018194253 0.51548219
0.059930947 0.039577123 0.48824403
0.097866043 0.022408936 0.51811212
0.060597181 0.043766458 0.49061778
0.098498575 0.026666816 0.52058578
0.061037224 0.048014387 0.49334711
0.0991714 0.031030053 0.52308691
0.061720669 0.052497204 0.49592748
0.099670529 0.035335682 0.52578062
0.062150896 0.056706414 0.49863988
0.10021361 0.039467499 0.52827787
0.063021608 0.060851637 0.50069916
0.10089672 0.043660048 0.53063101
0.06354019 0.064999521 0.50324249
0.10142265 0.047904599 0.53324014
0.064126492 0.069366656 0.50586516
0.10208368 0.052392092 0.53585488
0.064614497 0.073784262 0.50866187
0.10270893 0.056509499 0.53822833
0.065467477 0.078096949 0.51087677
0.10322706 0.060802743 0.54088628
0.065880246 0.082219325 0.51354498
0.10386342 0.065138765 0.54341596
0.066517353 0.086586684 0.5160982
0.104385 0.06941317 0.54605448
0.067167945 0.090786479 0.51850158
0.10491406 0.073598683 0.54861301
0.067695409 0.094977781 0.52106684
0.10580742 0.078138068 0.55095041
0.068391129 0.099414237 0.52359402
0.10622904 0.082120657 0.55349684
0.068909191 0.10354873 0.52612758
0.10697918 0.086477302 0.55588698
0.06950362 0.10788317 0.52871346
0.10768497 0.090941794 0.55842239
0.070178159 0.11230442 0.53125775
0.10809373 0.094931558 0.56099206
0.070588879 0.11622778 0.53377265
0.1087435 0.099417605 0.56362104
0.07136298 0.12067372 0.53619999
0.10936234 0.10378724 0.56620109
0.071894884 0.12486026 0.53875542
0.11000829 0.10802598 0.56864136
0.072362736 0.12910506 0.54144424
0.11050755 0.11218909 0.57122314
0.073037826 0.13348201 0.54395306
0.11112694 0.11643851 0.57370812
0.073764205 0.13785113 0.54638547
0.11177676 0.12069637 0.57615811
0.074346982 0.14216906 0.54897434
0.11223386 0.12490049 0.57882971
0.07485079 0.14627166 0.55150241
0.11288424 0.12931213 0.5813995
0.075453267 0.15061517 0.5540843
0.11362056 0.13365068 0.58379436
0.11290619 0.13666865 0.58353525
0.10858905 0.13842884 0.58158588
0.084336519 0.15385711 0.56128138
0.077907436 0.15473859 0.5613156
0.076161474 0.15486315 0.55644661
0.11177427 0.13666226 0.58381408
0.10815586 0.13881752 0.58103222
0.1047617 0.14077337 0.57853389
0.10111509 0.14291778 0.57577705
0.097434439 0.14508468 0.5729903
0.093794756 0.14715821 0.57035148
0.090037785 0.1492994 0.56762612
0.086381003 0.15127845 0.56515092
0.082651816 0.1534916 0.56229752
0.079122864 0.15567631 0.55944484
0.076970078 0.15683885 0.55799168
0.098862201 0.0068695405 0.50456095
0.098152719 0.0079825614 0.50154501
0.094569519 0.01006473 0.49890307
0.090775423 0.012029141 0.49621844
0.087153807 0.014102668 0.49370155
0.083276764 0.016151056 0.49088067
0.079582416 0.018190671 0.488217
0.076019272 0.020151455 0.48561376
0.072149344 0.021911405 0.48306203
0.068397224 0.024035597 0.48027578
0.064705715 0.026148843 0.47768286
0.062102109 0.027723948 0.47658032
0.099596173 0.011289607 0.50702298
0.099207602 0.013022698 0.50397593
0.095661491 0.015002421 0.50136167
0.091983102 0.017073862 0.49865797
0.088312119 0.019268312 0.4960174
0.08464361 0.021257462 0.49328619
0.0810192 0.023478938 0.490704
0.077216037 0.025610622 0.48790407
0.073675886 0.02779267 0.48538741
0.069994301 0.02979926 0.48265117
0.066207275 0.03197078 0.47988528
0.062756151 0.032702081 0.47931612
0.10005442 0.015380015 0.50960386
0.099771425 0.017266691 0.50645852
0.096211001 0.019413488 0.50390583
0.092673875 0.021383952 0.50129628
0.088895723 0.023483135 0.49850637
0.0853265 0.025429472 0.49585408
0.081562936 0.027780771 0.49319294
0.077893972 0.029799975 0.49047491
0.07424169 0.032197502 0.48794493
0.07056804 0.034020521 0.48513332
0.066834696 0.036206715 0.48242724
0.063397348 0.037080631 0.48183981
0.1006134 0.019545345 0.51210558
0.10044535 0.021683823 0.50912869
0.097049564 0.023410551 0.50654858
0.093267769 0.025718078 0.50384957
0.08951804 0.027832139 0.50109452
0.085753672 0.029928127 0.49831685
0.082177147 0.032045424 0.49573484
0.078384243 0.033947796 0.49284109
0.074865445 0.036200114 0.49037749
0.071158417 0.038289115 0.4876534
0.067525521 0.040399127 0.48501226
0.064159214 0.041367393 0.48426712
0.10126214 0.024057826 0.51475674
0.10126588 0.025746934 0.51178354
0.097581945 0.027646307 0.50899637
0.093808271 0.03000211 0.50632721
0.090117045 0.032102183 0.50362384
0.08643952 0.0342093 0.50093716
0.082739592 0.036302552 0.49822205
0.079073049 0.038152013 0.49542946
0.075367816 0.040314503 0.49274048
0.071724609 0.04267586 0.49020308
0.068170242 0.044749759 0.48762333
0.06479913 0.045537956 0.48667786
0.10185517 0.028236926 0.51722264
0.10182922 0.029878436 0.51421469
0.098149411 0.031977348 0.51152205
0.094508104 0.034143195 0.5088979
0.09089487 0.036317881 0.50630558
0.087078191 0.03850095 0.50351554
0.083341628 0.040446285 0.50069708
0.079559058 0.042763829 0.49800178
0.075923793 0.044797912 0.49532387
0.072341397 0.047122445 0.49283004
0.06870798 0.048933033 0.49005261
0.065413527 0.049947895 0.48923489
0.10235687 0.032517929 0.51989353
0.10240374 0.034302406 0.5167895
0.098644063 0.03622856 0.51393944
0.095046952 0.038424253 0.51137257
0.091364831 0.040632583 0.50872725
0.087499887 0.042870019 0.50591409
0.083924785 0.04478649 0.50324243
0.080203518 0.046931945 0.50052989
0.076616675 0.049067222 0.49794579
0.072896183 0.05134286 0.49529299
0.06945736 0.053195514 0.49272737
0.065967798 0.054254562 0.49191573
0.10305458 0.036708072 0.52222484
0.10300097 0.038599204 0.51932913
0.099215791 0.040520146 0.51645148
0.095605507 0.042739119 0.51388216
0.091988906 0.044781275 0.51122636
0.088185742 0.046944011 0.50844049
0.084485993 0.049099062 0.50575358
0.080811374 0.051192898 0.5030638
0.077136748 0.053205051 0.50033695
0.073523507 0.05547351 0.49778712
0.069882683 0.057408094 0.4950586
0.06647113 0.058391333 0.4944196
0.10345474 0.04099391 0.52503848
0.10364069 0.042711258 0.5218271
0.099870898 0.044811297 0.51904589
0.096263885 0.047038071 0.51648331
0.092418507 0.049282659 0.51369274
0.088854894 0.051383685 0.51111615
0.085200004 0.053226799 0.50833225
0.081332736 0.055767421 0.50565422
0.077766031 0.057530262 0.50292122
0.074114814 0.059736826 0.50030571
0.070477247 0.061811548 0.49764395
0.067069709 0.062758692 0.49699503
0.10407928 0.045233414 0.52750868
0.10411011 0.047040265 0.5242548
0.10046179 0.04924193 0.52163994
0.096708983 0.051104918 0.51876801
0.09312138 0.053546108 0.5163219
0.089470893 0.055584908 0.51363105
0.085580721 0.057665192 0.51072168
0.081943803 0.05982345 0.50809842
0.078459673 0.061881229 0.5055809
0.074847683 0.063878149 0.50290924
0.071049914 0.066050708 0.50013316
0.067837104 0.066948846 0.49931541
0.10482157 0.049468573 0.52981424
0.10473799 0.0513466 0.52682912
0.10097905 0.053477291 0.52407253
0.097334921 0.055442825 0.52135473
0.093673758 0.057755418 0.51877749
0.09005741 0.059736468 0.51609427
0.086302422 0.062096857 0.51344573
0.082562268 0.064160138 0.51067716
0.07897386 0.066120252 0.50801212
0.075412303 0.068053655 0.50536156
0.071650073 0.07020919 0.50261301
0.068211526 0.071290866 0.50214571
0.10547002 0.053774424 0.53230375
0.10520775 0.055646405 0.52924389
0.10162501 0.057885777 0.52671105
0.09794414 0.059856005 0.52395904
0.094257995 0.06213117 0.52134007
0.090589084 0.064194329 0.51864201
0.086993277 0.066235855 0.51600653
0.083391197 0.068216182 0.51333714
0.079708129 0.070395134 0.51067758
0.076054551 0.072467878 0.50799906
0.072364643 0.074705377 0.50535923
0.068868548 0.075307868 0.50439966
0.10611733 0.058134906 0.53483766
0.10581052 0.059973713 0.53180283
0.10212835 0.061964326 0.52905875
0.098571673 0.064056687 0.52648515
0.094914995 0.066142976 0.52380967
0.091139637 0.06843695 0.52111089
0.087435603 0.070531376 0.51839221
0.08397232 0.072389223 0.51580471
0.080185562 0.074738115 0.51311952
0.076685481 0.076595791 0.51049548
0.072911136 0.078683823 0.50770432
0.069440112 0.079833962 0.5072006
0.10663234 0.062420413 0.53749382
0.10637863 0.064485662 0.53441119
0.10298155 0.066143975 0.53179884
0.099295929 0.068399824 0.52917159
0.095552422 0.070358396 0.52635223
0.09174414 0.072597086 0.52359575
0.0881477 0.074759759 0.52101457
0.084396452 0.076842248 0.51824379
0.080988593 0.078817531 0.51576442
0.077110976 0.081022561 0.51292402
0.073438399 0.083292231 0.51031595
0.070165545 0.084182464 0.50955075
0.10716721 0.066679321 0.54010195
0.10725448 0.068443559 0.53707314
0.10346502 0.070595011 0.53429574
0.099847056 0.072741792 0.53168607
0.096142873 0.074687853 0.52889997
0.092413396 0.077044271 0.52627492
0.088730864 0.079112306 0.52356559
0.085117482 0.081004202 0.52084488
0.081476644 0.083182506 0.51822686
0.077728637 0.085441791 0.51553941
0.074038863 0.087453097 0.51279718
0.070597626 0.088297091 0.51218426
0.1077815 0.070982248 0.54263592
0.10761163 0.072756164 0.53938222
0.10395764 0.074913584 0.53674167
0.10023841 0.076985136 0.5339976
0.096632659 0.079130016 0.53139913
0.092968553 0.08115387 0.52868801
0.089296468 0.083243221 0.52599871
0.085746899 0.085529231 0.52351987
0.082039177 0.08758039 0.52077794
0.078318149 0.089541808 0.51798218
0.074646115 0.091838278 0.51538682
0.071512565 0.09261027 0.51447201
0.10852772 0.07518252 0.54490876
0.10815478 0.076970853 0.54183108
0.10462707 0.079007491 0.5392608
0.10086232 0.081309773 0.53657627
0.09717451 0.083471343 0.53390414
0.093508929 0.085470609 0.53118044
0.089932829 0.087530784 0.52857292
0.086257808 0.089535877 0.52584249
0.082738794 0.091913976 0.52343571
0.078886576 0.093929358 0.52053446
0.075250916 0.096000224 0.51787281
0.072049484 0.096802004 0.51704472
0.10904139 0.079292968 0.54742944
0.10891472 0.081329323 0.54455984
0.10527392 0.083513327 0.54194438
0.10154475 0.085498594 0.53915137
0.09776067 0.087601312 0.53635716
0.094185703 0.089737535 0.53378528
0.090482026 0.091809727 0.53105694
0.086888179 0.093937732 0.52846259
0.083164632 0.096056096 0.5257355
0.079620853 0.098139659 0.52317059
0.075823076 0.10016802 0.52032918
0.072524577 0.10107463 0.51965988
0.10954682 0.083587825 0.55010611
0.10947379 0.085623644 0.54706055
0.10575864 0.087812699 0.54437381
0.10202636 0.089988075 0.54166389
0.098444201 0.092018522 0.53903687
0.094783813 0.094006293 0.53631312
0.090985082 0.096012734 0.5334608
0.087462552 0.09814316 0.53093821
0.083763883 0.10031683 0.52826077
0.080204852 0.10253558 0.52574211
0.076493129 0.1044898 0.52295226
0.073110275 0.10539305 0.5222863
0.11016955 0.087936938 0.5526647
0.1101094 0.090173602 0.54975295
0.10634036 0.091963939 0.54683208
0.10270892 0.094137534 0.54422122
0.099054426 0.096210316 0.54154181
0.095408909 0.098277241 0.53886861
0.091759197 0.10043556 0.53623271
0.087996677 0.10249816 0.53344172
0.084393121 0.1045135 0.53078675
0.080688156 0.10670845 0.52811271
0.077100523 0.10867061 0.5254494
0.073741756 0.10987835 0.5248968
0.11090048 0.09225823 0.55505341
0.11067019 0.094253615 0.55215824
0.10712107 0.096263811 0.54955482
0.10331611 0.09839204 0.54675156
0.099740237 0.10044545 0.54414123
0.096020438 0.10255603 0.54141426
0.092314065 0.10462714 0.5386827
0.088643044 0.10665633 0.53596717
0.085148081 0.1086425 0.5334065
0.081295311 0.11105944 0.5306868
0.0777473 0.11302796 0.52806556
0.07428313 0.11398238 0.5273599
0.1113748 0.096410796 0.55766106
0.11127783 0.098456487 0.55466563
0.10771626 0.1004898 0.55206037
0.10414446 0.10252257 0.54944468
0.10036589 0.10469676 0.54668838
0.096448451 0.10690199 0.54380864
0.092888415 0.10885631 0.54116905
0.08915557 0.11099583 0.53844231
0.085549057 0.11319736 0.53586876
0.081901573 0.1153366 0.53322649
0.078231357 0.11729981 0.53048182
0.074786276 0.11834496 0.53002673
0.11221307 0.10090332 0.56003708
0.11181714 0.10288478 0.55720752
0.10821752 0.10482594 0.55452281
0.10454136 0.10691044 0.55182725
0.10097873 0.10897072 0.54923314
0.0972642 0.11106263 0.54650295
0.093623951 0.11321587 0.54387414
0.089787073 0.11540728 0.5410679
0.086309262 0.11752423 0.53858346
0.082579665 0.11951035 0.53579038
0.078835458 0.12155272 0.53300834
0.075531185 0.12248526 0.53238207
0.11258753 0.10499319 0.56273222
0.11257389 0.10701717 0.55983061
0.10897391 0.10907218 0.55719715
0.10530674 0.11102657 0.55445153
0.10167988 0.11305743 0.55178046
0.097846687 0.11540465 0.54904848
0.09409938 0.11751143 0.5462926
0.090370402 0.11964399 0.54356652
0.086741805 0.12172133 0.54091483
0.083154932 0.12381683 0.53831267
0.079671308 0.12564741 0.53569269
0.076211452 0.12688154 0.5348509
0.11319675 0.10931118 0.56528491
0.11319583 0.11126974 0.56237471
0.10945137 0.11328382 0.55957955
0.10584185 0.11546529 0.55699396
0.10215341 0.11741701 0.55422604
0.0984267 0.11976109 0.55159813
0.094735935 0.12175421 0.54884672
0.091041282 0.123876 0.54614973
0.087335885 0.12592387 0.54340863
0.083580174 0.12816969 0.54070741
0.080084778 0.130061 0.53810334
0.07647077 0.13107708 0.53766251
0.11378807 0.1135493 0.56779951
0.11350657 0.11560687 0.56464887
0.10997076 0.11755585 0.56203091
0.10626252 0.11968797 0.55932516
0.10261957 0.12166289 0.55661285
0.09910588 0.12382546 0.55411357
0.095319599 0.12594995 0.55132711
0.091586992 0.12797396 0.54854822
0.088099569 0.1301603 0.54608577
0.084435873 0.13228104 0.543419
0.080718376 0.13447641 0.54073274
0.077312335 0.13527703 0.53989726
0.11436033 0.11782093 0.57036644
0.11419489 0.11991405 0.56728345
0.11064494 0.12177946 0.56461358
0.1069841 0.12388591 0.56194317
0.10329503 0.12619644 0.55933732
0.099568538 0.12809753 0.55650872
0.095984079 0.13010216 0.55386782
0.092262752 0.1325364 0.5512861
0.088619441 0.13433476 0.54849333
0.084987178 0.13651869 0.54588634
0.081377819 0.13858914 0.54325056
0.077814005 0.13953067 0.54259306
0.11518504 0.12241144 0.57283789
0.11478944 0.12414329 0.56978983
0.11114775 0.12601298 0.56703103
0.10749858 0.12815769 0.56438953
0.10396297 0.13035974 0.56188643
0.10022645 0.13243869 0.55912858
0.096612364 0.13446578 0.55646849
0.09290462 0.13657774 0.55375409
0.089218929 0.13865803 0.55104721
0.085503273 0.14073381 0.54830861
0.081975348 0.14283893 0.54576921
0.078584529 0.14395742 0.54500383
0.11555359 0.12656464 0.57559079
0.11537656 0.12831284 0.57226181
0.11180507 0.13034579 0.56964654
0.10818861 0.13247551 0.56703061
0.10449916 0.13469991 0.56438529
0.10086805 0.13673434 0.56171167
0.097108386 0.13884223 0.55894405
0.093403727 0.14093898 0.55622578
0.08976943 0.14307056 0.55359304
0.086037815 0.14528517 0.55090159
0.082563847 0.14715408 0.54830849
0.0790198 0.14805293 0.54757172
0.11618663 0.13075326 0.57800943
0.11604433 0.13260326 0.57486838
0.11243246 0.13461584 0.57220387
0.10883826 0.13693993 0.56969815
0.10501366 0.13890862 0.5668031
0.10151853 0.14101642 0.56429738
0.097625166 0.14315714 0.56141222
0.094008051 0.14535055 0.55882454
0.090508737 0.14721061 0.55620235
0.086837858 0.1496118 0.55365562
0.083211593 0.151508 0.55092406
0.079728752 0.15235732 0.54993194
0.11695381 0.13514878 0.58040673
0.1166111 0.1368828 0.57758182
0.11296461 0.13887607 0.57490546
0.10947405 0.14104109 0.5721873
0.10576291 0.14302221 0.5694102
0.10180578 0.14532439 0.56653512
0.098407276 0.14733325 0.56408024
0.094631143 0.14932801 0.56124496
0.090997949 0.15148573 0.55862516
0.087414294 0.15373054 0.55618799
0.083658308 0.15577555 0.55341047
0.080154307 0.15665992 0.55276293
0.11522521 0.13827707 0.58027065
0.11152068 0.14023918 0.5778352
0.10804303 0.14237699 0.57504952
0.10435456 0.14466873 0.57205379
0.10063402 0.14668801 0.56952566
0.096993886 0.14878629 0.56684518
0.093180858 0.15089729 0.56418419
0.089497447 0.15296727 0.56156176
0.085896939 0.15504898 0.55889976
0.082329877 0.15714805 0.55620044
0.080510139 0.15860549 0.55417079
