# .PCD v0.7 - Point Cloud Data file format
VERSION 0.7
FIELDS x y z
SIZE 4 4 4
TYPE F F F
COUNT 1 1 1
WIDTH 837
HEIGHT 1
VIEWPOINT 0 0 0 1 0 0 0
POINTS 837
DATA ascii
0.042781707 -0.00021583401 0.56217021
0.045566872 -0.00019294862 0.56211543
0.033786774 0.00430544 0.56205982
0.037223991 0.0031740237 0.56151491
0.041968297 0.0023976173 0.5610953
0.046876315 0.0024099983 0.56108153
0.051657043 0.0030926196 0.56154233
0.055177476 0.0044285068 0.56203669
0.032713652 0.0077079041 0.56150436
0.037017744 0.00751227 0.56025088
0.04192603 0.0073877214 0.55951869
0.046970073 0.0074549098 0.55950773
0.051920149 0.0074069137 0.56028074
0.056276914 0.0078445114 0.56150186
0.029282406 0.012773227 0.56219953
0.031982567 0.012439939 0.5610615
0.036903493 0.012449951 0.55951506
0.041851636 0.012419064 0.55875856
0.046961069 0.01248502 0.55874908
0.051936924 0.012513083 0.5594967
0.056986216 0.012496538 0.56108278
0.059657291 0.01371527 0.56215256
0.029336384 0.016256766 0.56212157
0.031962268 0.017512256 0.56107265
0.03690106 0.017396767 0.55951548
0.041964624 0.01750607 0.5587545
0.046975039 0.017489925 0.55875325
0.051933959 0.017413007 0.55949777
0.056932416 0.01743901 0.56106234
0.059623778 0.016245961 0.56213945
0.032742299 0.022129957 0.56147909
0.03702284 0.022608884 0.5603025
0.041917395 0.022417761 0.55950177
0.046948206 0.022354893 0.55948436
0.052040424 0.022440784 0.56029487
0.056195412 0.022103496 0.56148267
0.033889733 0.025570925 0.56201291
0.03735074 0.026825199 0.56152749
0.042046126 0.027398217 0.561046
0.0468738 0.027379602 0.56103987
0.0516527 0.026775861 0.56152964
0.055113561 0.02567219 0.5620833
0.042967297 0.030135421 0.56216246
0.045766372 0.030165892 0.56216758
0.034404758 -0.0051897876 0.5671041
0.037650596 -0.0058126841 0.56656873
0.042016368 -0.0063325725 0.56623179
0.046873756 -0.0063467398 0.56623405
0.051292568 -0.0058238953 0.56658638
0.02866107 -0.00061347894 0.56681824
0.032220419 -0.0021251887 0.56591755
0.036912739 -0.0025610253 0.56449687
0.041921977 -0.0027451497 0.56370842
0.047036629 -0.0027711485 0.5637247
0.051986128 -0.0025807377 0.56450707
0.056534376 -0.0021034889 0.56583405
0.060202546 -0.0007346049 0.5668624
0.027479934 0.0027776556 0.56582129
0.031752564 0.0021822369 0.56379133
0.036078364 0.0010376526 0.56270528
0.039498501 0.00021802261 0.56229365
0.049400121 0.00013704505 0.56233191
0.052887499 0.0010369821 0.56270999
0.057182454 0.0022263099 0.56378347
0.061428137 0.002725835 0.56584328
0.064724766 0.0049421079 0.56719047
0.023691554 0.0077988547 0.56666809
0.026896913 0.0073640724 0.56453729
0.030416228 0.0067824479 0.56270832
0.058430731 0.0067300517 0.56269211
0.062048428 0.0075089051 0.56452012
0.065251499 0.0078674406 0.56666845
0.023112973 0.0125957 0.5662685
0.026779428 0.012327421 0.56370419
0.059281986 0.01045448 0.56226939
0.0621439 0.012480944 0.56369722
0.065709561 0.012424125 0.56621313
0.023277024 0.017385721 0.56614149
0.026793368 0.017475724 0.56368637
0.029523009 0.019314647 0.56230187
0.059401721 0.019088447 0.56227589
0.062114693 0.017547749 0.56369197
0.065646678 0.017372956 0.56615192
0.023786291 0.021955516 0.56654644
0.026917521 0.022451214 0.56450468
0.030439781 0.023075938 0.56268573
0.058414213 0.023195993 0.56269169
0.061995305 0.022526596 0.56452495
0.065220572 0.021951692 0.56662208
0.027305974 0.027069772 0.56591201
0.031758454 0.027591495 0.56373197
0.036148176 0.028945586 0.56272322
0.039801586 0.02984494 0.56232589
0.049101621 0.029811343 0.56230932
0.052714329 0.028945003 0.56271178
0.057097953 0.0276412 0.56372494
0.06141489 0.027128603 0.56581134
0.064498007 0.025455192 0.56721163
0.028784739 0.030701226 0.56685764
0.032308087 0.031955399 0.56582832
0.036936868 0.032543339 0.56453943
0.041886982 0.032597981 0.56368017
0.046991672 0.032544233 0.56364352
0.052004986 0.03251601 0.564533
0.056620207 0.031968426 0.56584537
0.060218342 0.030567523 0.56683105
0.037473217 0.035701137 0.56660956
0.042078532 0.036196664 0.56619406
0.046851039 0.036157176 0.56615883
0.051280886 0.0357228 0.56658703
0.037440501 -0.010682186 0.57149804
0.0420602 -0.011063403 0.57094896
0.046764053 -0.011082966 0.57096404
0.051365405 -0.010679878 0.57146543
0.028335335 -0.0059390198 0.57124388
0.032168798 -0.0072980672 0.57016653
0.036691621 -0.0082384497 0.56909215
0.041910887 -0.008838363 0.56851405
0.047058273 -0.008766165 0.56844616
0.052097194 -0.0082118195 0.56902027
0.056714274 -0.0071985722 0.57004905
0.06061326 -0.0059846099 0.57131368
0.023648048 -0.0013327785 0.57128644
0.026933959 -0.0027652252 0.56960142
0.030846585 -0.0040763821 0.56796145
0.05827345 -0.0041173846 0.56811064
0.062078558 -0.0026451424 0.56958747
0.065373749 -0.0011790916 0.57128382
0.019445891 0.0043680547 0.5722124
0.022347119 0.0026247557 0.57004434
0.025409304 0.0012615137 0.56802326
0.063566282 0.0014443658 0.56797165
0.066594504 0.0025858684 0.57009131
0.069509991 0.0046000388 0.57214653
0.018856755 0.0078964578 0.57147157
0.021188986 0.0072758556 0.56913465
0.067544222 0.0071565486 0.56899285
0.07001318 0.0078605134 0.57143539
0.018402563 0.012711866 0.57098281
0.020608531 0.012297843 0.56858325
0.068236411 0.012312727 0.56851733
0.070475109 0.012476545 0.57096791
0.018367626 0.017383207 0.57104057
0.020704689 0.017487865 0.56847566
0.068244629 0.017453887 0.56851137
0.070514023 0.017393526 0.57101566
0.018814964 0.021788795 0.57144839
0.021337347 0.022703961 0.56901538
0.067581326 0.02266475 0.5690071
0.07007201 0.021905608 0.57145935
0.022277983 0.027250007 0.57010347
0.025400605 0.028678767 0.56804949
0.063529015 0.02848915 0.56795979
0.066650465 0.027176693 0.57007587
0.069548182 0.025267623 0.57217747
0.023486748 0.031161565 0.57139391
0.026934294 0.03260725 0.56955588
0.03082657 0.033981547 0.56797165
0.057942901 0.033936124 0.56786007
0.061969154 0.032637902 0.56957859
0.065455787 0.031031236 0.57132345
0.028210966 0.035912655 0.57141083
0.032127209 0.037036821 0.57002503
0.03677265 0.038116872 0.56903923
0.041790377 0.038688354 0.56847411
0.047050782 0.038676344 0.56845641
0.052114539 0.038052175 0.56897038
0.056797974 0.03711506 0.57010657
0.060635332 0.035837736 0.57128483
0.034285787 0.039988186 0.57203585
0.037416983 0.04059317 0.57151967
0.042047426 0.040932056 0.57091653
0.046801556 0.040969484 0.5709548
0.051461246 0.040641051 0.57156044
0.054513771 0.04004113 0.57204491
0.043310303 -0.015119325 0.57699293
0.046417266 -0.015143391 0.57714039
0.028695699 -0.010512069 0.57669902
0.03226839 -0.011451144 0.57524645
0.037016522 -0.012796436 0.57468325
0.041884366 -0.013602631 0.57457691
0.046991609 -0.013575999 0.57453108
0.051990252 -0.012828007 0.5747723
0.056547362 -0.011464585 0.5751915
0.060192201 -0.010456201 0.57658923
0.023542784 -0.0059514921 0.57602185
0.02681982 -0.007696718 0.57464796
0.03085551 -0.009353986 0.57323235
0.058066964 -0.0093488507 0.5732407
0.062043123 -0.0076881349 0.57459056
0.065411396 -0.0059282538 0.57604957
0.019045854 -0.00056507625 0.57637
0.02178322 -0.0026357528 0.57463074
0.024918092 -0.0045864154 0.5728811
0.063939221 -0.004633138 0.57287419
0.067242034 -0.0025785808 0.57472134
0.069975339 -0.00075556152 0.57674003
0.018058231 0.0028741173 0.5751645
0.02030584 0.0012161247 0.5731312
0.068591312 0.0011558812 0.57315564
0.070809506 0.0027358327 0.57519287
0.016689137 0.0074308747 0.57474726
0.072205298 0.0074506998 0.57471967
0.014350241 0.013533759 0.57708555
0.015871864 0.012393001 0.57462329
0.073001504 0.01250955 0.5745455
0.074530549 0.013364536 0.57703537
0.014384815 0.016379746 0.57702017
0.015870191 0.017522492 0.57462317
0.073037572 0.017550943 0.57462037
0.074552163 0.016221659 0.57704717
0.016693249 0.022467664 0.57473791
0.072216108 0.02240774 0.57471323
0.018027309 0.027030174 0.57521278
0.02020311 0.028627383 0.57322669
0.068683714 0.028596159 0.57316846
0.070876569 0.027098652 0.57524788
0.018959003 0.030563788 0.57660967
0.021744685 0.032520518 0.57466263
0.024919117 0.034422107 0.57281369
0.063864477 0.034481406 0.57274175
0.067084439 0.032554656 0.57459164
0.069866545 0.030680865 0.57658821
0.02344905 0.035793789 0.57607293
0.026860846 0.037612751 0.57462621
0.030819172 0.039171383 0.57315606
0.057976786 0.039182924 0.57308894
0.06208742 0.037623595 0.57467383
0.06537088 0.035868876 0.5760442
0.02868217 0.040360525 0.57662904
0.032281425 0.041356809 0.57524949
0.036902413 0.042716738 0.5747683
0.04190731 0.04355067 0.57465446
0.047022063 0.043488033 0.57454425
0.051911768 0.042679332 0.57466441
0.056653515 0.04134791 0.5752486
0.060082152 0.040488131 0.57669127
0.043362562 0.045038953 0.5770179
0.045452494 0.045057185 0.57706088
0.033842254 -0.015257411 0.58159292
0.037289806 -0.015790883 0.58044732
0.042006977 -0.016221127 0.57972234
0.046963945 -0.016256716 0.57981932
0.051718384 -0.015758233 0.58042234
0.055090416 -0.015247909 0.58159268
0.027404197 -0.011450777 0.58012843
0.031772338 -0.013573641 0.57960457
0.036085088 -0.014576228 0.57828629
0.039788045 -0.015000539 0.57741278
0.052561596 -0.01463295 0.57825923
0.057099018 -0.013577448 0.57957101
0.061460681 -0.01146172 0.58008844
0.019325141 -0.0051914714 0.58216435
0.022247551 -0.0072137266 0.58003223
0.025380321 -0.0093274191 0.57868248
0.063408948 -0.0093288869 0.57851636
0.06661585 -0.007212216 0.57994175
0.018107647 -0.0021510329 0.58008271
0.020230843 -0.0041261502 0.57859075
0.06869489 -0.0040595103 0.57852614
0.070847586 -0.0021189358 0.58014214
0.014245501 0.0043046633 0.58163548
0.015903665 0.0023018317 0.57962865
0.073006108 0.0023027714 0.5796293
0.074668512 0.0043012854 0.58164155
0.01374536 0.0076978053 0.58042884
0.014930772 0.0065918071 0.57826728
0.074000813 0.0070350664 0.57806551
0.075182974 0.0076677459 0.58048576
0.01325004 0.012492215 0.57982445
0.01451588 0.010061979 0.57746226
0.075624257 0.012409117 0.57973504
0.013251802 0.017489227 0.57982045
0.014494756 0.019471209 0.57738972
0.075592168 0.01750176 0.57965571
0.013714982 0.022018764 0.58039337
0.014914747 0.023198403 0.57825428
0.073958457 0.023306653 0.57822263
0.075171977 0.02205229 0.58035201
0.014247186 0.025602568 0.58163738
0.015979843 0.027650716 0.57951313
0.072983339 0.027565615 0.57954901
0.074660644 0.025605395 0.581635
0.018100433 0.032046914 0.5800913
0.020172199 0.033943579 0.5785867
0.068664774 0.034026779 0.57856137
0.070847012 0.032047614 0.5801664
0.022301868 0.037137501 0.57997799
0.025417235 0.039183214 0.57855332
0.063571021 0.039180435 0.57865703
0.066636115 0.037110776 0.57998168
0.027402338 0.041352242 0.58013451
0.031749677 0.043478876 0.57963294
0.036300201 0.044489771 0.57820219
0.039854791 0.044932857 0.57745683
0.049264714 0.044833537 0.57732284
0.052838244 0.044477075 0.5782966
0.057138272 0.043458402 0.57956517
0.061533026 0.041328903 0.58010906
0.033804301 0.045127124 0.58155537
0.037158564 0.045673091 0.58049065
0.042005338 0.046078887 0.57962054
0.046985466 0.046106681 0.57970732
0.051596351 0.045708947 0.58048302
0.055018172 0.045188695 0.58163548
0.032587744 -0.015773823 0.58512729
0.036920156 -0.017003657 0.58471006
0.042006161 -0.017793881 0.58472323
0.046991304 -0.017782783 0.58471006
0.052055873 -0.016997209 0.58474344
0.056294229 -0.015750209 0.58498251
0.02375719 -0.010750378 0.5853352
0.026984898 -0.012853689 0.58479291
0.030439679 -0.014575234 0.58395696
0.058467593 -0.014556017 0.5838939
0.061991438 -0.012801392 0.58476907
0.06533625 -0.010658439 0.58552164
0.018788137 -0.0058098603 0.58538389
0.021286469 -0.0082584824 0.58457243
0.067618102 -0.008240981 0.58449113
0.070047788 -0.0057996903 0.58509082
0.016732056 -0.0026036464 0.58467698
0.072136186 -0.0027012918 0.58476573
0.013734525 0.0030725226 0.58513343
0.014895478 0.0010006027 0.58397955
0.073996723 0.00089303777 0.58408564
0.075209811 0.0031484496 0.58513016
0.012488332 0.0074766479 0.58471864
0.076424018 0.0074279769 0.58477211
0.011702966 0.012432753 0.58477408
0.077193953 0.012399113 0.58473784
0.011699952 0.017386528 0.58478671
0.077187791 0.017424636 0.58469051
0.012503799 0.022512184 0.58474123
0.076419979 0.022439746 0.58471841
0.01371029 0.026715634 0.58504516
0.014919341 0.028949466 0.58398318
0.074022092 0.028828409 0.58387458
0.075207807 0.026691213 0.58505201
0.016703727 0.032474823 0.5847317
0.072233409 0.032449532 0.58477068
0.018829042 0.035668142 0.58513671
0.021282692 0.038121782 0.58448583
0.067642614 0.038136058 0.584553
0.070147395 0.0356724 0.5853669
0.023719605 0.040599808 0.58524477
0.026966834 0.042721979 0.5847224
0.030415291 0.044495378 0.58407241
0.058518209 0.044481639 0.58408922
0.061988704 0.042667925 0.58462042
0.065236613 0.040577076 0.58530104
0.032572348 0.045664705 0.58511353
0.036944732 0.046911478 0.58471918
0.042058822 0.047703072 0.58475506
0.046944972 0.047682181 0.58468372
0.051995371 0.046912126 0.58475477
0.056160096 0.045730792 0.58508521
0.029264418 -0.01515151 0.59115344
0.031898294 -0.016210686 0.58979124
0.03697117 -0.017798452 0.58974212
0.041968994 -0.018552871 0.5897671
0.046932321 -0.018552909 0.5897736
0.051975556 -0.01778811 0.58972675
0.057033237 -0.016190713 0.58966619
0.059659414 -0.015140196 0.59093839
0.023209866 -0.011090674 0.58969647
0.026816219 -0.01363172 0.58973795
0.02953599 -0.014991997 0.58780706
0.059353799 -0.014926733 0.58731055
0.062133826 -0.013610089 0.58977956
0.065730125 -0.011087229 0.589881
0.018433835 -0.0063510537 0.58996069
0.02071611 -0.0088198483 0.58956945
0.068304747 -0.0087211207 0.58965105
0.070513323 -0.006293403 0.58983314
0.014389826 -0.00031906925 0.59110141
0.015901031 -0.0027260613 0.58971429
0.073013768 -0.0027255546 0.5897125
0.074565552 -0.00022041332 0.59097272
0.013276985 0.002449031 0.58972013
0.014490435 4.7868118e-05 0.58791381
0.074394763 8.8836998e-05 0.58757973
0.07562387 0.0024471926 0.58965576
0.01173012 0.0073742168 0.58973014
0.077196583 0.0074372906 0.58972323
0.01095438 0.012491381 0.58971882
0.077951342 0.012361356 0.58975619
0.01095017 0.017469227 0.58980602
0.077963829 0.017459076 0.58982384
0.011701424 0.022405943 0.58975405
0.077201471 0.022470428 0.5898174
0.013256188 0.027397398 0.58974397
0.014491139 0.029829776 0.58782905
0.074397385 0.02989226 0.58788669
0.075593233 0.027538393 0.58971703
0.014360255 0.030109033 0.59064925
0.015891733 0.032603711 0.58966976
0.072992206 0.032659225 0.58971608
0.074553154 0.030144464 0.59090555
0.01843467 0.036244288 0.5899117
0.020695047 0.038708963 0.58964199
0.068186246 0.038735919 0.58961517
0.070531324 0.036177654 0.58990622
0.023149339 0.04095643 0.58983982
0.026748212 0.043478765 0.58964592
0.059282899 0.044921778 0.58768094
0.062135797 0.043491788 0.58960372
0.065688029 0.041018747 0.58988297
0.029249361 0.045042433 0.59098691
0.032007504 0.046140485 0.58966154
0.036908757 0.047679462 0.58967113
0.041946605 0.048456214 0.5898304
0.046918817 0.04844828 0.58972025
0.051908955 0.047709979 0.58980453
0.056916244 0.046149373 0.58989227
0.059611868 0.04506693 0.59087533
0.029358126 -0.015150888 0.59427786
0.032004073 -0.016249426 0.59474242
0.036902893 -0.017777549 0.59478313
0.041977804 -0.01855191 0.59477353
0.0468738 -0.018546319 0.59486419
0.05190479 -0.017809747 0.59469855
0.05696103 -0.016228287 0.59469932
0.059681434 -0.015118644 0.59370667
0.023222027 -0.011104805 0.59476227
0.026874335 -0.013666376 0.59476316
0.029730652 -0.015006855 0.5972271
0.059226859 -0.015013935 0.59703839
0.062093526 -0.013626015 0.59482324
0.065762565 -0.011056025 0.59467489
0.018418878 -0.006300509 0.59482181
0.02068406 -0.0088197682 0.59465176
0.068192586 -0.0088336617 0.59484327
0.070499189 -0.0063118972 0.59467155
0.014381446 -0.00024782866 0.59394419
0.015928457 -0.0027775951 0.59475827
0.073035195 -0.0026843473 0.59478849
0.074565068 -0.0002481956 0.59324777
0.013248565 0.0025027907 0.59463525
0.014551081 3.8059428e-05 0.59696656
0.074448019 0.00027826708 0.59716958
0.075637668 0.0024501774 0.59470189
0.011708759 0.0074700955 0.5947628
0.077199452 0.0074455692 0.59471947
0.010955352 0.012449592 0.59474838
0.077963218 0.012540949 0.59479511
0.010958537 0.017563064 0.59468329
0.077953503 0.017460287 0.59478289
0.011701956 0.022403549 0.59476471
0.077213481 0.022437066 0.5946523
0.013231995 0.027338356 0.59475046
0.014523279 0.02981893 0.59692794
0.074313171 0.029902523 0.59714359
0.075629205 0.027465222 0.59470558
0.014359523 0.030093377 0.5939576
0.015868114 0.032570377 0.59485185
0.073016867 0.032614116 0.59482121
0.074544109 0.03018235 0.5932616
0.01837776 0.036168858 0.59463078
0.02072111 0.038742471 0.59480733
0.068229973 0.038685877 0.59489483
0.070442528 0.036285035 0.59460902
0.023176881 0.040979423 0.59466475
0.026851883 0.043557137 0.59472406
0.059345201 0.044864763 0.5969848
0.062120467 0.04351081 0.59482211
0.065708473 0.041001789 0.59465128
0.029296078 0.045064688 0.59354699
0.031886511 0.046106651 0.59467769
0.036852133 0.047668435 0.59477621
0.041958153 0.048445508 0.59483325
0.047092061 0.048439734 0.59476745
0.051967219 0.047687873 0.59479749
0.056935094 0.046130855 0.59481436
0.059699871 0.045005236 0.59368342
0.032676283 -0.015801486 0.59941345
0.036952607 -0.017009871 0.59978306
0.041936502 -0.017796634 0.59974587
0.047008459 -0.017782027 0.59978956
0.052000351 -0.017007044 0.59976107
0.056209035 -0.015810227 0.5994221
0.023735018 -0.010725278 0.59920257
0.02698222 -0.012805883 0.59986681
0.030514663 -0.014598396 0.600586
0.058451526 -0.014578087 0.60056162
0.061996832 -0.012798367 0.59973609
0.065317631 -0.010631174 0.59914929
0.018805863 -0.0058199055 0.59912711
0.021312516 -0.0082928129 0.59989846
0.067615956 -0.0082632564 0.59994608
0.070035264 -0.005952226 0.59901851
0.016763847 -0.0026454832 0.5998292
0.072187901 -0.0025958233 0.5997842
0.013734404 0.003118678 0.59943563
0.014946764 0.00094791315 0.60061616
0.074007846 0.00099509396 0.60054755
0.075169787 0.003090119 0.59943759
0.012477629 0.0074771657 0.59975183
0.076416448 0.0074798409 0.59981215
0.011717554 0.012479154 0.59978384
0.077191986 0.012423828 0.59978068
0.011710331 0.017471898 0.59974128
0.077180058 0.017431259 0.59983975
0.012498219 0.022508265 0.59975231
0.076421142 0.022540232 0.59968722
0.013755556 0.026851125 0.59941328
0.014923213 0.028982148 0.60050219
0.073979169 0.029011127 0.60047591
0.075185746 0.026760051 0.59945536
0.016687671 0.032440051 0.599783
0.072153762 0.032554075 0.59977907
0.018833611 0.035665967 0.59939164
0.021234715 0.038077869 0.60001254
0.067595392 0.03816843 0.59999526
0.070032701 0.035792053 0.59920609
0.023726055 0.040585794 0.59930354
0.026978118 0.042749971 0.59971064
0.030446699 0.044505116 0.60044032
0.058539703 0.044473872 0.60040528
0.062056597 0.04264196 0.59981751
0.065264463 0.040555246 0.59918809
0.032669015 0.045692652 0.59943169
0.036915533 0.046887606 0.59985691
0.042028543 0.047691174 0.599783
0.046942741 0.047695629 0.59975135
0.051910579 0.046925962 0.599778
0.056291789 0.04567327 0.59943324
0.033866379 -0.015288673 0.60283941
0.037301727 -0.015768198 0.60411519
0.041955072 -0.016228424 0.60475665
0.046867389 -0.016234245 0.60474986
0.051592145 -0.015764991 0.60414129
0.055073231 -0.015265781 0.60286611
0.027399449 -0.011402348 0.60447586
0.031663168 -0.013528746 0.60489041
0.036026012 -0.014578847 0.60617989
0.049451858 -0.01493155 0.60712057
0.052702181 -0.014589207 0.60626739
0.057107575 -0.013580114 0.60492539
0.061502762 -0.011417737 0.60444921
0.064570352 -0.010191577 0.60236448
0.022240965 -0.0071813855 0.60451412
0.025512464 -0.0093302689 0.6059953
0.06352824 -0.009311717 0.60584927
0.066614129 -0.0071565285 0.60465389
0.01807736 -0.0021108259 0.60440254
0.020292107 -0.0040776785 0.60609317
0.068773784 -0.0040711295 0.60582227
0.070839204 -0.0021236129 0.60438085
0.014250997 0.0044740373 0.60304552
0.015934879 0.002256657 0.60489577
0.073001243 0.0022505205 0.60483134
0.074685782 0.0044834511 0.60298324
0.013716357 0.0078460583 0.60408634
0.014949389 0.0066059558 0.60627431
0.073997244 0.006737073 0.60627693
0.075186327 0.0078381561 0.60412133
0.013279863 0.012420469 0.60474432
0.014586831 0.010009017 0.60716397
0.075632915 0.012423467 0.60475004
0.013284881 0.017510029 0.60475266
0.014565924 0.019744532 0.60717058
0.074423522 0.019664669 0.6070407
0.075629637 0.017382955 0.60477465
0.013716185 0.022245795 0.60397661
0.014891544 0.023195013 0.60621011
0.074012958 0.023256049 0.60618365
0.075140044 0.022150556 0.6041798
0.014246577 0.025653966 0.60280621
0.015938032 0.027595829 0.6049515
0.073011376 0.027542394 0.60491771
0.074654974 0.025528423 0.60296696
0.018055556 0.031993195 0.60439265
0.020258939 0.034070823 0.60589117
0.068740092 0.033983327 0.60585916
0.070899725 0.031960949 0.60434073
0.019409288 0.035061687 0.60260338
0.022259293 0.037082113 0.60456449
0.025333725 0.039154679 0.60587466
0.063557714 0.039125673 0.60596639
0.066566646 0.03718492 0.60451919
0.024253316 0.03996931 0.60249442
0.027234603 0.041226305 0.60440272
0.031743243 0.043458477 0.60489851
0.03605786 0.044492669 0.60617369
0.049355172 0.044854674 0.60710675
0.052767858 0.044500701 0.60620183
0.057185955 0.043448422 0.60491306
0.061512578 0.041329626 0.60441715
0.033885881 0.045164771 0.60292977
0.037214316 0.045686476 0.60401326
0.0419649 0.046118498 0.60478175
0.04698322 0.046145238 0.60470051
0.051733781 0.045678437 0.6040042
0.055162694 0.045108188 0.60295439
0.043276541 -0.01516897 0.60739207
0.046574332 -0.015102442 0.60745341
0.028753888 -0.010438031 0.60798311
0.03229801 -0.011440314 0.60929412
0.036999844 -0.012802411 0.60979778
0.041852441 -0.013605094 0.6099183
0.046968538 -0.013612295 0.60992056
0.051992692 -0.012788579 0.60978848
0.056498751 -0.011528922 0.60924238
0.060189918 -0.010475576 0.60788441
0.023465151 -0.006002387 0.6083104
0.026843097 -0.0076895319 0.60988432
0.030904029 -0.0092768222 0.61139607
0.058047593 -0.0093405545 0.6112864
0.062100377 -0.0077158473 0.60981387
0.06541495 -0.0058995411 0.60848868
0.019033983 -0.00071364082 0.60796571
0.021785133 -0.0025999527 0.60990584
0.025000116 -0.0044371448 0.61185312
0.063953862 -0.0045210738 0.61172807
0.067147098 -0.0026481431 0.60983497
0.069942199 -0.0006189961 0.60795343
0.018067487 0.0027815215 0.60929459
0.020150295 0.0014389632 0.61132926
0.068747826 0.0014446266 0.61134475
0.070825376 0.0028012553 0.60932928
0.016714113 0.0074436418 0.60979778
0.072204269 0.0074189426 0.60977775
0.01435375 0.013387924 0.60740423
0.015856132 0.012409093 0.60985321
0.073055983 0.012354897 0.6098448
0.074574307 0.013245076 0.60736811
0.014333144 0.016200207 0.60739791
0.015893869 0.017410222 0.60992622
0.072957657 0.017460763 0.61001688
0.074554697 0.016083097 0.60745627
0.016669698 0.022416022 0.60973799
0.072202273 0.022465385 0.60979015
0.018034561 0.027062295 0.60928291
0.020235207 0.028653651 0.61130512
0.068764232 0.02846997 0.61131465
0.070838794 0.027163498 0.60926223
0.018961407 0.030475084 0.60798258
0.021719445 0.032490291 0.60983342
0.024992883 0.034527399 0.61165261
0.063955039 0.034278005 0.61186773
0.067153215 0.032517958 0.6098541
0.069912501 0.030554108 0.60796648
0.023491867 0.035811596 0.60846519
0.026900344 0.03762953 0.60989761
0.030790579 0.039206501 0.61127627
0.058090046 0.039246097 0.61124885
0.062070549 0.037568953 0.60991716
0.065289348 0.035954699 0.60845172
0.028663661 0.040308826 0.60793567
0.032215323 0.041349024 0.60921746
0.036938034 0.042723879 0.60974336
0.041903347 0.043573305 0.60981804
0.047046199 0.043528616 0.60988051
0.051942267 0.042675182 0.60983294
0.056573328 0.04138286 0.60925716
0.06015322 0.040342227 0.60797489
0.042430468 0.04500854 0.60742396
0.045437481 0.045104671 0.60736179
0.034249295 -0.010164317 0.61235279
0.037702817 -0.010712823 0.61304837
0.042091232 -0.011111565 0.61349887
0.046882425 -0.011084827 0.61352044
0.051366627 -0.010638827 0.61309004
0.054546859 -0.010282286 0.61226469
0.028208936 -0.005901793 0.61319512
0.032141253 -0.0072320346 0.61439264
0.036679968 -0.0082982071 0.61534625
0.041797791 -0.0088305436 0.61598265
0.04699998 -0.008794995 0.61603427
0.052169479 -0.0082495082 0.6154173
0.056685917 -0.0072330777 0.61443889
0.060630612 -0.0059994254 0.61315417
0.023588 -0.0012581646 0.61321503
0.026781386 -0.0026740916 0.61485481
0.03091196 -0.0041393545 0.61652118
0.058065407 -0.0040645935 0.61654961
0.062163908 -0.0025863722 0.61489499
0.065382026 -0.0012916941 0.61312503
0.019440537 0.0049020406 0.61255562
0.02234651 0.0027099028 0.61450189
0.025488719 0.0012295153 0.61652118
0.063521445 0.0013252227 0.6165058
0.066623956 0.0026669772 0.61441749
0.018845951 0.0080857854 0.613083
0.021254027 0.0073107476 0.61544269
0.067630887 0.0072932336 0.6154601
0.070128776 0.0081182849 0.61301464
0.018380439 0.012566399 0.61347842
0.020691669 0.012447502 0.61601526
0.068211459 0.012398671 0.61601985
0.070521839 0.012565573 0.61348587
0.01841611 0.017383639 0.61351311
0.020679813 0.017566139 0.61599529
0.06824787 0.017556107 0.61598086
0.070437305 0.017364575 0.61358231
0.018853525 0.02202839 0.61301684
0.021247977 0.022660945 0.61541075
0.067653134 0.02258515 0.61544877
0.070088595 0.021886095 0.61303031
0.019418556 0.025206856 0.61242312
0.022363093 0.027170373 0.61453182
0.025494033 0.028701521 0.61650938
0.063560858 0.028585639 0.61646295
0.066586941 0.027224582 0.61446387
0.069483921 0.025405196 0.61233318
0.023497971 0.031199561 0.61308557
0.026870511 0.032656051 0.61486119
0.030834101 0.033994023 0.61651921
0.058025181 0.034042411 0.61651105
0.062064622 0.03249006 0.61496872
0.065332532 0.031249907 0.61313146
0.028250808 0.035935145 0.61309594
0.032148767 0.037107002 0.61441648
0.036805023 0.038194038 0.61539179
0.041921761 0.038733117 0.61599427
0.047075253 0.038770176 0.61594939
0.052233767 0.03809347 0.61545497
0.05672621 0.03714484 0.61439919
0.060605027 0.035933491 0.61314416
0.033874303 0.039990921 0.61225116
0.037629381 0.040574808 0.61307895
0.042197879 0.041045733 0.61346859
0.046845239 0.040957239 0.61356312
0.051203646 0.040581129 0.61309874
0.05458397 0.040115532 0.61232919
0.034369111 -0.0052537359 0.6173318
0.037551153 -0.0059173554 0.61782026
0.042094234 -0.0063434374 0.61827338
0.046856191 -0.0063302275 0.61827934
0.051441945 -0.0058391523 0.61786675
0.054784711 -0.0052032713 0.61727309
0.028726226 -0.00078792125 0.61761528
0.032212537 -0.0020719301 0.61861432
0.03699746 -0.0026405975 0.61998087
0.041827358 -0.0027085301 0.62080824
0.047066603 -0.0026976299 0.62081778
0.052000374 -0.0026627518 0.61993903
0.056614343 -0.0020728428 0.61865532
0.060170591 -0.00075264275 0.61764586
0.027440032 0.0027518542 0.61864078
0.031808794 0.0023125969 0.62079507
0.036206018 0.0010695159 0.62184745
0.039775383 -3.392715e-05 0.622127
0.048935853 -1.8812716e-07 0.62217474
0.05271836 0.0010154992 0.62182015
0.057160821 0.0022498406 0.62073958
0.061463594 0.0027391855 0.61863965
0.06447576 0.0046505937 0.61739302
0.023726113 0.0079577621 0.61791128
0.026876537 0.007356782 0.61994791
0.030365577 0.0067323567 0.62176055
0.058490369 0.006860828 0.62182522
0.062005803 0.0074514756 0.6199919
0.065186709 0.0080055371 0.61791384
0.023271589 0.012522783 0.61835438
0.026850231 0.012345472 0.62084609
0.05934542 0.01002986 0.62213564
0.06207677 0.01235668 0.62083256
0.065714866 0.012645137 0.61830693
0.023128819 0.017210152 0.61825514
0.026836662 0.017443962 0.62084419
0.029582836 0.019686714 0.62217271
0.061953098 0.017425193 0.62092274
0.06569761 0.01731858 0.61831367
0.023662051 0.021866895 0.61787546
0.026865136 0.022439994 0.61997157
0.030425284 0.023232641 0.62176967
0.058402777 0.023299791 0.62178737
0.061983306 0.02239104 0.62002039
0.065183088 0.021998007 0.61789256
0.024293879 0.025094012 0.61734247
0.027390461 0.027136998 0.61861736
0.031766765 0.027517639 0.62080866
0.036263742 0.029019941 0.62177283
0.039763115 0.029757056 0.62221384
0.048640393 0.02992918 0.62220347
0.052692384 0.02894786 0.62179881
0.056983296 0.027626567 0.62083155
0.061531775 0.027110683 0.61861694
0.028725039 0.030646356 0.61764121
0.032323118 0.032005265 0.61864555
0.036894441 0.032571718 0.61993295
0.041829791 0.03260342 0.62081319
0.046913765 0.032621801 0.62081403
0.05201022 0.032524221 0.61996365
0.056685235 0.031958893 0.6186322
0.06026268 0.030645477 0.61759651
0.037433408 0.035740264 0.61784989
0.041990109 0.036174528 0.61831748
0.046805203 0.036273178 0.61824948
0.051432103 0.035702556 0.61789197
0.054597098 0.035020337 0.61741745
0.043455686 -0.00021599606 0.62237507
0.045683127 -0.00030967966 0.62232089
0.033718813 0.0044468092 0.62246889
0.037289094 0.0031424817 0.62298858
0.041897222 0.0024372479 0.62342072
0.04682909 0.0024483865 0.6234383
0.051628847 0.0031592706 0.62299526
0.054942891 0.0041635204 0.62245667
0.03264169 0.0077862097 0.62298375
0.036983531 0.0074469554 0.62423152
0.041922651 0.0074440995 0.62498921
0.046942636 0.0074643604 0.62499911
0.051942557 0.0075074909 0.6242432
0.056261014 0.0077789989 0.6229887
0.029236216 0.013450111 0.62232947
0.031859428 0.012459999 0.6233896
0.036888495 0.012450913 0.62497878
0.041849196 0.012477893 0.62574607
0.046954166 0.012411889 0.62574679
0.051945146 0.012458601 0.62499803
0.056925844 0.012393717 0.62343556
0.059626251 0.0132417 0.62233317
0.029276468 0.015795132 0.62237716
0.031898733 0.017459454 0.62340695
0.03691835 0.017414056 0.62499142
0.041969094 0.017444817 0.62575072
0.047012478 0.017510291 0.62574416
0.052042771 0.017496021 0.62497437
0.05700092 0.017487258 0.6234073
0.059592653 0.016410481 0.62236804
0.032675199 0.02209973 0.62300253
0.036874123 0.022441486 0.6242069
0.042016216 0.022563798 0.62497479
0.047022101 0.022432324 0.62499279
0.052057017 0.022502765 0.62418473
0.056275796 0.022091949 0.62299103
0.033799838 0.0256088 0.62244201
0.03723368 0.026754569 0.62297374
0.042028859 0.027480138 0.62342519
0.04694245 0.02742321 0.62343979
0.051632941 0.026800713 0.62296885
0.055170525 0.025480786 0.62246758
0.04295304 0.030115433 0.62234503
0.045886606 0.030124802 0.62234747
