# .PCD v0.7 - Point Cloud Data file format
VERSION 0.7
FIELDS x y z
SIZE 4 4 4
TYPE F F F
COUNT 1 1 1
WIDTH 398
HEIGHT 1
VIEWPOINT 0 0 0 1 0 0 0
POINTS 398
DATA ascii
0.0099407779 0.03831517 0.44899997
0.012534962 0.037928782 0.44886211
0.013707705 0.048360571 0.44899991
0.016218986 0.048360571 0.44899997
0.014219261 0.051057953 0.44899994
0.016218986 0.051290482 0.44899994
0.032288034 0.069075637 0.44878563
0.03780615 0.068851069 0.44873679
0.042145576 0.068747267 0.44874996
0.045098748 0.069288492 0.449
0.028277338 0.073368341 0.44776917
0.032743882 0.072418049 0.44648713
0.037656553 0.072450578 0.44709986
0.042874213 0.072846159 0.44786108
0.046129026 0.072121806 0.44899991
0.024157461 0.07824403 0.44874996
0.027556542 0.077709571 0.44759995
0.032696508 0.077455327 0.4454166
0.037649963 0.077392042 0.44505543
0.042579751 0.077418827 0.44713324
0.046322189 0.076951332 0.44899991
0.024171386 0.080171011 0.449
0.027787749 0.08226569 0.44839999
0.03272368 0.082073607 0.44599992
0.037582267 0.081907973 0.44510338
0.041741773 0.080906086 0.44588888
0.045098748 0.080171011 0.449
0.028775405 0.085193716 0.449
0.03191451 0.085193716 0.449
0.015870821 0.039326686 0.45100001
0.0087653408 0.043527208 0.45161539
0.012591711 0.042472906 0.45066676
0.016218333 0.042545881 0.45109099
0.0042576496 0.048278451 0.45283338
0.0078941155 0.047391873 0.45175001
0.012376788 0.046671126 0.45026082
0.017743591 0.046898156 0.45072007
0.021180414 0.0480696 0.45135301
0.0037436401 0.052415222 0.45226085
0.007889065 0.052408561 0.45141664
0.012370201 0.05261999 0.4507308
0.01786988 0.052708283 0.45069569
0.022202976 0.052417833 0.4515
0.025649721 0.053735904 0.454
0.0045943609 0.057147946 0.45377779
0.0075737811 0.057573412 0.45283878
0.012175101 0.057605404 0.45208567
0.017137975 0.05742665 0.45116678
0.022232305 0.057543762 0.45208326
0.025663158 0.057175398 0.454
0.0077003217 0.06112545 0.454
0.012164435 0.062428676 0.45390016
0.017191727 0.062247157 0.45256674
0.021824211 0.061946977 0.45318177
0.038129095 0.063403375 0.45345452
0.042624407 0.063027807 0.45328122
0.046439651 0.063733332 0.45392308
0.029258972 0.069442809 0.44999999
0.033873245 0.067764848 0.44999999
0.037373945 0.066548899 0.45061105
0.04247747 0.066336632 0.45110533
0.047568962 0.067581542 0.45199993
0.05181095 0.068728402 0.45325005
0.028699666 0.070561446 0.44999996
0.048541132 0.072378173 0.45068425
0.052652489 0.072694421 0.45245942
0.055757958 0.073445834 0.454
0.048402883 0.077897601 0.45063159
0.052459572 0.077549979 0.45261285
0.055757958 0.075985149 0.454
0.023223896 0.082905158 0.45233336
0.025679803 0.084172405 0.45099998
0.048445083 0.082194895 0.45244443
0.052526042 0.082471475 0.45355186
0.022726562 0.087335072 0.45359999
0.027235489 0.087910689 0.45187879
0.030598789 0.088136658 0.45120001
0.023055511 0.091144092 0.454
0.026799532 0.091103815 0.45227271
0.0015930644 0.054498296 0.456
0.024602056 0.050074261 0.45699999
0.027515015 0.052463554 0.45584613
0.030796308 0.05372512 0.45725
0.002441609 0.057462476 0.45579997
0.028340619 0.057435218 0.45573911
0.032177527 0.057886448 0.45759994
0.037847079 0.059084702 0.45750001
0.042429723 0.058928978 0.45629996
0.047673766 0.058862541 0.45820004
0.050658304 0.058945231 0.45839995
0.004023761 0.06169327 0.45513332
0.0074227406 0.063321933 0.45499995
0.024240464 0.063482843 0.45660001
0.027585899 0.062431071 0.45699999
0.032780584 0.062372707 0.45749989
0.037069168 0.06128924 0.4553684
0.042562768 0.060374081 0.45499998
0.048032943 0.061892185 0.45680955
0.051629502 0.062853821 0.45804155
0.0049948869 0.065267704 0.456
0.007412225 0.067286789 0.45629027
0.012200017 0.067279056 0.45522225
0.017246503 0.067362651 0.45661759
0.035522036 0.065124579 0.45500001
0.049518667 0.065124579 0.45500001
0.05295492 0.066518754 0.45616663
0.057026394 0.068844669 0.45817649
0.060584657 0.069471791 0.4585
0.0088398829 0.070949048 0.45699999
0.012241608 0.070910625 0.45674995
0.015547904 0.070961982 0.45800003
0.057942513 0.072462164 0.45714289
0.061228167 0.072613008 0.45828578
0.057680119 0.077664323 0.45662495
0.060518585 0.07622768 0.458
0.019468676 0.084488556 0.45649999
0.020761956 0.083956912 0.45500001
0.054184213 0.082090646 0.45500001
0.055786517 0.081336588 0.45499998
0.017997405 0.087588757 0.45762959
0.020252986 0.087604612 0.45500001
0.018054394 0.092094094 0.4579545
0.02071793 0.092455022 0.45590001
0.033186544 0.053554062 0.46128568
0.03725078 0.053173687 0.46064302
0.042291939 0.05355582 0.4634285
0.033728097 0.056440856 0.46028572
0.037242789 0.05690119 0.46054164
0.042591348 0.056691762 0.46186221
0.045758042 0.057293419 0.46200001
0.052206837 0.059836853 0.46000001
-0.012161007 0.063817516 0.46399987
-0.0096235005 0.064682588 0.46399999
0.03205318 0.064982608 0.46000001
0.054355707 0.062850781 0.46044445
0.057263862 0.063365698 0.46134996
0.06038544 0.064023733 0.4613333
-0.012052321 0.067344375 0.46399981
-0.0092991022 0.067277834 0.46399999
0.024763558 0.065840229 0.46000001
0.025621161 0.065840229 0.46000001
0.032830294 0.066967577 0.46037498
0.035555732 0.067086659 0.46014285
0.058187291 0.066758886 0.46014285
0.061514236 0.067137562 0.46094114
0.061640464 0.070128359 0.46000001
0.059196062 0.079735197 0.461
0.061512258 0.079167686 0.46271425
0.058640528 0.082802758 0.46154544
0.062067959 0.082303897 0.46250001
0.0087348735 0.088099077 0.4636153
0.01233211 0.087522857 0.4616971
0.015548496 0.087518528 0.46012503
0.052158661 0.088255487 0.46256518
0.05724236 0.087336205 0.46256667
0.06155663 0.086095326 0.4628461
0.0086278599 0.092342451 0.46281245
0.012347719 0.092295609 0.46077788
0.016187532 0.093614101 0.46000001
0.052898679 0.090812296 0.46325004
0.0557843 0.09065555 0.463
0.013512098 0.096660532 0.461
0.01749957 0.097714975 0.46066678
0.020799128 0.097319998 0.46083331
0.047037128 0.054350853 0.46739998
-0.013835167 0.058445305 0.46600002
0.048267525 0.056701306 0.46666667
0.051436577 0.057117142 0.46799999
-0.013010389 0.061928574 0.46525007
-0.0087773167 0.064099535 0.465
-0.0070916307 0.067663655 0.46500003
-0.020977871 0.073676378 0.46818179
-0.017619889 0.073726505 0.46833336
-0.012549814 0.073495887 0.46825007
-0.0074896878 0.072309256 0.46574986
-0.0032524941 0.072739333 0.46599996
0.063965313 0.072130486 0.46600002
0.06616579 0.073412493 0.46685717
-0.020758346 0.076292373 0.46799996
-0.017568497 0.077061318 0.46824995
-0.012694457 0.077453606 0.46834478
-0.00752377 0.07743454 0.46786678
-0.0030528964 0.077216998 0.46704769
0.063470446 0.077274933 0.46578577
0.066727839 0.077664554 0.46692589
-0.010601584 0.080244482 0.46900001
-0.0075394833 0.080844618 0.46885711
-0.0034579264 0.080478914 0.46866667
0.003971443 0.084325045 0.46900001
0.007284475 0.084339716 0.4666667
0.065774523 0.080982119 0.46619996
0.0031986153 0.087939173 0.46831572
0.0064028488 0.087285012 0.46575001
0.039204374 0.088636518 0.46599999
0.042836476 0.088146478 0.46617651
0.046997141 0.088688187 0.46620005
0.0039508562 0.090575516 0.46666667
0.0060481825 0.091629997 0.46509999
0.043347817 0.091071218 0.46722221
0.04737784 0.092258736 0.46662077
0.052067261 0.092806742 0.46593753
0.044769008 0.05171784 0.472
0.047753319 0.052791506 0.47155556
0.050993681 0.053157896 0.47028571
0.051151149 0.055003773 0.47
-0.02155895 0.069190815 0.47371432
-0.018025203 0.069317065 0.47371429
-0.014249421 0.06961152 0.47400001
-0.021789432 0.071305849 0.47185713
-0.017261529 0.071229264 0.47184998
-0.013609948 0.071597248 0.47222221
-0.020435344 0.079332516 0.47400001
-0.016338546 0.079623923 0.47050002
-0.021630939 0.082867436 0.47400004
-0.017419936 0.082533114 0.47303122
-0.012364455 0.082573727 0.47076926
-0.0075573279 0.083602019 0.46999997
-0.002069168 0.083127625 0.47079989
0.0020339668 0.083200656 0.47033325
-0.016641088 0.085982054 0.47345456
-0.012455865 0.087015502 0.47300005
-0.0075921207 0.08781758 0.47209999
-0.0023070127 0.087686151 0.47140005
0.0013803815 0.086899966 0.46999997
-0.0078173168 0.091152661 0.47363636
-0.0027612764 0.090820961 0.47400004
0.057092812 0.093893558 0.47112501
0.044369567 0.099069089 0.47400001
0.047441605 0.097553581 0.47269234
0.052350111 0.097470291 0.47150007
0.0576327 0.097350091 0.47248387
0.043018717 0.1029229 0.4736774
0.047428396 0.10236039 0.47220001
0.052248791 0.10231771 0.47200006
0.057175376 0.10246937 0.47270006
0.043303214 0.10719533 0.47304544
0.04747295 0.1075298 0.47203457
0.052248791 0.10759771 0.47200006
0.05757026 0.10767255 0.47233331
0.060704853 0.10864846 0.47275001
0.043950852 0.11166141 0.47393334
0.047450393 0.11246621 0.47356519
0.052249033 0.11190068 0.47305262
0.057134025 0.11137842 0.47238466
0.060608551 0.1106777 0.472
-0.027025932 0.079532437 0.47671431
-0.023064526 0.079023317 0.47658336
-0.027500011 0.082087584 0.47599992
-0.02362432 0.081564002 0.47533327
-0.012561013 0.089617141 0.477
0.064671911 0.089429267 0.47600001
0.066327117 0.088635124 0.47514281
-0.011648491 0.090316713 0.47599998
0.042052843 0.093849488 0.47730768
0.045053557 0.094554931 0.47499999
0.059388876 0.093931653 0.47633335
0.062445123 0.092709936 0.4768149
0.066426568 0.090924039 0.47585717
0.039856244 0.098157465 0.47816667
0.042268146 0.097248137 0.47642857
0.045053557 0.096326113 0.47499999
0.062757574 0.097543187 0.47716665
0.06507951 0.098476857 0.479
0.037839577 0.10281081 0.47745454
0.041054387 0.10112805 0.47557142
0.062472388 0.10275526 0.47696871
0.065683737 0.1032152 0.47820002
0.038004663 0.1072387 0.47670382
0.041089885 0.10844974 0.47524998
0.062863342 0.10708409 0.47660869
0.065697074 0.10651422 0.477
0.037929218 0.11240433 0.47777423
0.041906662 0.11316794 0.47526309
0.047267474 0.11492353 0.47499999
0.052619021 0.11426557 0.47533333
0.056359459 0.1145181 0.477
0.038064823 0.11755563 0.47737935
0.042393096 0.11765981 0.47573075
0.04734423 0.1177714 0.47576666
0.052300777 0.11723737 0.47647998
0.055524334 0.11720722 0.47788885
0.034716651 0.12169613 0.479
0.037680313 0.12254036 0.4782941
0.042592611 0.12257473 0.4772
0.047396332 0.12252484 0.47777772
0.052250009 0.12169389 0.47815791
0.05519855 0.12067744 0.47850001
0.038288753 0.12571485 0.479
0.041821592 0.12589589 0.47855556
0.045432951 0.12571485 0.479
0.03848486 0.094277151 0.4815
0.040158466 0.093312964 0.47999999
0.037714783 0.097404107 0.48134607
0.066202074 0.098372668 0.48066667
0.03729482 0.10038278 0.47999996
0.064320482 0.10091973 0.47999999
0.065807395 0.10082448 0.4804
0.034789126 0.10986886 0.47999999
0.036280613 0.10957056 0.47999999
0.033864874 0.11338297 0.48066667
0.035982314 0.11374682 0.47999999
0.03288969 0.11776789 0.48131242
0.035684019 0.11658071 0.47999999
0.057975408 0.11811876 0.4808
0.060991257 0.11812671 0.48339996
0.029262645 0.12449161 0.48233333
0.032300465 0.12231556 0.48026651
0.05393976 0.12365053 0.47999996
0.057595816 0.12284374 0.48174992
0.060328592 0.12187665 0.48266664
0.029273411 0.12758681 0.48312503
0.032622565 0.12715609 0.48106661
0.037497032 0.12793733 0.48029989
0.042600293 0.12844479 0.48014277
0.047620729 0.12741187 0.48090473
0.052116033 0.12691694 0.48107687
0.057001732 0.12628116 0.48209086
0.02929176 0.1313045 0.48379999
0.032509066 0.13212383 0.48336005
0.037016496 0.13243681 0.48329172
0.042023852 0.13099299 0.48088884
0.047065429 0.13009678 0.48199999
0.031082567 0.11463027 0.48500001
0.029726246 0.11643875 0.48500001
0.030856514 0.11621269 0.48500001
0.059113115 0.11598663 0.48500001
0.061147593 0.11621269 0.48500001
0.023803627 0.12906945 0.48716664
0.026869502 0.12812024 0.48605558
0.023213686 0.13264149 0.48749998
0.027037298 0.13264999 0.48544824
0.030630462 0.13452345 0.48500001
0.023093536 0.13757707 0.48773912
0.027561527 0.13771905 0.48669997
0.032549169 0.1377029 0.48664001
0.035751309 0.13665558 0.48614284
0.02345133 0.14158711 0.48822224
0.027648924 0.14270307 0.48823336
0.032597471 0.14270528 0.4885
0.035441425 0.14019138 0.48899999
0.038106445 0.13890989 0.49200001
0.041161492 0.1396746 0.49199998
0.024551507 0.1441323 0.49000001
0.037521936 0.14239559 0.49043995
0.041878317 0.14252605 0.49141669
0.045013715 0.14438787 0.49399999
0.027953118 0.14639376 0.49014285
0.032638106 0.1476555 0.49042845
0.037369601 0.14744072 0.49036661
0.04254267 0.14735281 0.49219358
0.045934703 0.14742723 0.49400002
0.033852395 0.15218362 0.49240002
0.037536133 0.15268961 0.49254996
0.041822657 0.15190955 0.49316671
0.045013715 0.15129548 0.49399999
0.040408764 0.15544005 0.49399999
0.04648912 0.14468016 0.495
0.047950309 0.1475257 0.49499992
0.043259125 0.15430447 0.49499995
0.047400407 0.15273818 0.49647617
0.037842061 0.15764856 0.49659997
0.042606335 0.15784913 0.49700004
0.046358086 0.1567546 0.49763635
0.038750656 0.16083005 0.49833333
0.041861292 0.16088372 0.49849999
0.047238361 0.15863307 0.5
0.043330956 0.16258432 0.50055557
0.046738986 0.16221081 0.50172722
0.048840541 0.16455041 0.505
0.039237339 0.16858995 0.50866669
0.042492766 0.16769286 0.50595647
0.046850242 0.16761886 0.50560874
0.02835037 0.17297114 0.509
0.032589041 0.17262316 0.50899994
0.038176853 0.17245139 0.50844997
0.042295113 0.17245787 0.506423
0.047050528 0.17242336 0.5059998
0.043277074 0.17525351 0.50599998
0.04752221 0.17525351 0.50599998
0.037914269 0.16998301 0.50999999
0.026029019 0.17283554 0.50999999
0.034110989 0.17236012 0.50999999
0.036963452 0.17093384 0.50999999
0.18442495 -0.089294717 0.917
0.49692574 -0.10139824 0.93400002
0.48820686 -0.10369173 0.93900001
0.48640659 -0.10776386 0.94400001
0.45747045 -0.13590276 0.98199999
0.45838583 -0.13315651 0.98199999
0.46113205 -0.13407193 0.98199999
0.45842358 -0.13673314 0.98799998
0.45842358 -0.13489111 0.98799998
0.46579149 -0.13489111 0.98799998
0.457968 -0.13714832 0.991
0.44944838 -0.14658074 1.005
0.44628268 -0.15401924 1.017
0.44094342 -0.15637526 1.02
0.40765074 -0.16013904 1.0319999
