# .PCD v0.7 - Point Cloud Data file format
VERSION 0.7
FIELDS x y z
SIZE 4 4 4
TYPE F F F
COUNT 1 1 1
WIDTH 744
HEIGHT 1
VIEWPOINT 0 0 0 1 0 0 0
POINTS 744
DATA ascii
0.021341205 -0.040104974 0.54833335
0.021146629 -0.038692243 0.54860002
0.024035703 -0.040336587 0.55149996
0.019425038 -0.035227399 0.55199999
0.022816336 -0.036863536 0.55185008
0.027470428 -0.037584078 0.55295449
0.03118081 -0.038549565 0.55239999
0.018088246 -0.032031048 0.55311102
0.022053778 -0.03265328 0.55199999
0.025646152 -0.034260202 0.55299997
0.0143829 -0.030299634 0.55599999
0.015391748 -0.030245136 0.55500001
0.013523826 -0.026987204 0.55676931
0.01747576 -0.027163405 0.55547994
0.022057949 -0.026689285 0.55576468
0.013551811 -0.021841519 0.5579232
0.017522343 -0.02256342 0.55695009
0.022824148 -0.022449054 0.55719048
0.027487673 -0.02108331 0.55900002
0.030614195 -0.020562209 0.55900002
0.01259298 -0.017416699 0.55838889
0.017524101 -0.017892461 0.5570001
0.022633495 -0.017808676 0.55708343
0.026232535 -0.017063303 0.55816674
0.030614194 -0.018998908 0.55900002
0.012863917 -0.012713407 0.55759996
0.017525509 -0.012700861 0.5570401
0.02274169 -0.012712292 0.55760008
0.025924414 -0.014830104 0.55900002
0.013321017 -0.0083097992 0.55858338
0.017618837 -0.0078109223 0.55849993
0.022313567 -0.0088564418 0.55872732
0.038905125 0.001843535 0.5583334
0.043406781 0.0033709598 0.55866677
0.047467936 0.0033796832 0.55884212
0.043481987 0.0068181278 0.5584445
0.047528904 0.0067927241 0.55875003
0.011652557 -0.022612546 0.56
0.027313123 -0.020971874 0.56
0.032771889 -0.020607956 0.56024998
0.037588969 -0.020148665 0.56199998
0.0087515078 -0.015914897 0.56050003
0.010310223 -0.015900699 0.56
0.028267672 -0.017675612 0.56
0.032485165 -0.01733176 0.56127775
0.035874274 -0.017892949 0.5625
0.0080498569 -0.012480877 0.56181258
0.010310223 -0.012768502 0.56
0.027630206 -0.012663208 0.56021059
0.031399831 -0.013104033 0.56246668
0.0040748967 -0.0086536137 0.56400001
0.0076843617 -0.0079991855 0.56322223
0.0115282 -0.0068332581 0.56069225
0.017270474 -0.0054600439 0.56
0.023211548 -0.0065041105 0.56
0.027597625 -0.0075628581 0.56120002
0.030867603 -0.008121633 0.56362498
0.0088581024 -0.0025750559 0.56355566
0.0124478 -0.0023361489 0.56231999
0.017658532 -0.0023313032 0.56128007
0.0225331 -0.0024341196 0.56228572
0.027298557 -0.0027841954 0.56357902
0.030782873 -0.0036063022 0.56400001
0.043526314 -0.0010571809 0.56200004
0.047277782 -0.0012919023 0.56300002
0.051602475 -0.00066203793 0.56400001
0.013081375 0.0015415824 0.5625
0.017831011 0.0019885462 0.56256247
0.021851353 0.0024350446 0.56390917
0.037574098 0.0042245244 0.56036359
0.041422546 0.0021616344 0.56
0.048481748 0.0013274591 0.56075001
0.051793866 0.0027539155 0.56264287
-0.021371286 0.0088016707 0.56400001
0.03756807 0.0076149357 0.56169999
0.041942619 0.0082131606 0.56036359
0.048287094 0.0087653492 0.56
0.052809455 0.0072765043 0.56194127
-0.021978816 0.010857983 0.56400007
-0.01853225 0.010799563 0.56400001
0.038084812 0.012044043 0.56315005
0.042784382 0.01232164 0.56143999
0.047375586 0.012200915 0.56099993
0.051205974 0.011526567 0.56099993
0.03851448 0.017813964 0.56382364
0.042638145 0.017432056 0.56191307
0.046265826 0.015806627 0.56133336
0.038145833 0.021782003 0.5625
0.04136914 0.021382505 0.56116658
0.037914097 -0.016747873 0.5651111
0.0053988211 -0.012092466 0.565
0.034009792 -0.012464966 0.56519997
0.037287209 -0.012692932 0.56711107
0.043361247 -0.01085202 0.56900001
0.047604512 -0.01085202 0.56900001
0.0064521804 -0.0070888759 0.565
0.033362515 -0.0073879152 0.56658816
0.036642741 -0.0090839453 0.56900001
0.04329966 -0.0076609389 0.56820005
0.047463216 -0.0076502706 0.56732005
0.052412815 -0.0072829761 0.56764996
0.056489088 -0.0064512524 0.56842858
0.027256031 -0.0002418567 0.565
0.03227013 -0.0028866038 0.56666666
0.043105986 -0.0039333482 0.56566668
0.047461379 -0.0037850691 0.565
0.052756906 -0.0027707755 0.56509995
0.057333816 -0.0022445167 0.5663684
0.060228281 -0.0018316121 0.56800002
-0.0053981137 0.0023916122 0.565
-0.0027296029 0.0027076283 0.565
0.0014487229 0.0039716931 0.565
0.023832612 0.0018649183 0.565
0.02677723 0.0015776308 0.565
0.054292262 0.0020404828 0.565
0.057328746 0.0023944278 0.56550002
0.060122244 0.0013429616 0.56699997
-0.021619849 0.007974566 0.565
-0.017428083 0.008040837 0.56630766
-0.014045915 0.0085289348 0.56785715
-0.0054191332 0.0071637272 0.56720001
-0.0022436464 0.0071469974 0.56603986
0.0019764591 0.0071360925 0.56526667
0.034629546 0.0092386305 0.565
0.054643378 0.0081852432 0.565
0.057061389 0.0065013487 0.5664615
-0.021330176 0.01305716 0.565
-0.017264502 0.012805226 0.56556249
-0.012962765 0.012635827 0.56743485
-0.0074086371 0.012766153 0.56859088
-0.0022495645 0.012460105 0.56775993
0.0021963923 0.012106805 0.56766665
0.029414717 0.014531242 0.56599998
0.032795306 0.012651504 0.56559086
0.036104251 0.013662858 0.565
-0.017511748 0.015558956 0.565
-0.012590114 0.016097136 0.56744444
-0.0073022079 0.01654244 0.5681538
-0.002402063 0.016633708 0.56828576
0.01896246 0.019912489 0.56900001
0.022113029 0.019884493 0.56819999
0.027778259 0.018162336 0.56663156
0.032556247 0.017684488 0.56559998
0.036077917 0.01727071 0.565
0.01896246 0.022034178 0.56900001
0.022243695 0.022468911 0.56868434
0.02738015 0.022509642 0.56760001
0.032611117 0.022468697 0.56655008
0.035714481 0.022427201 0.56550002
0.028388487 0.027008211 0.56799996
0.032555856 0.027104994 0.56795645
0.035872374 0.026231378 0.56800002
0.028989181 0.030467302 0.56800002
0.030577613 0.030467302 0.56800002
0.042284656 -0.012777396 0.57129419
0.04713412 -0.012837159 0.57229996
0.051648967 -0.011517771 0.57185709
0.055513803 -0.010947381 0.574
0.038005944 -0.0070808418 0.57050002
0.040801935 -0.0076864487 0.57030004
0.053532928 -0.009808383 0.56999999
0.057296418 -0.0079726959 0.57175004
0.060652424 -0.005577045 0.57200003
0.034936003 -0.0039634802 0.56999999
0.037710223 -0.0039754161 0.57174999
0.041183155 -0.0032922695 0.57242852
0.059377674 -0.0044948352 0.56999999
0.062525384 -0.0021334696 0.57261539
0.065145053 -0.00078079285 0.574
0.062544614 0.0025757435 0.5725714
0.065145053 0.0040349592 0.574
-0.01131044 0.0088044526 0.57099998
-0.0079084374 0.0084892409 0.57130003
0.058999795 0.0082818959 0.5715
0.062318735 0.0072289081 0.57260013
0.065517977 0.0072425385 0.57374996
-0.011290632 0.010383098 0.56999999
-0.0086339284 0.010383098 0.56999999
0.0033212355 0.014368258 0.56999999
0.0066763721 0.013905259 0.57060003
0.059103966 0.010428638 0.57249999
0.060652424 0.010419531 0.57200003
-0.015316118 0.018136041 0.5715
-0.012164524 0.018708304 0.57110006
-0.0078397524 0.01915613 0.57016671
-0.0020646683 0.019277407 0.57018185
0.0024333925 0.017465713 0.57058829
0.0073269038 0.017338615 0.57155007
0.012433765 0.018072434 0.57276922
0.017103117 0.018907407 0.57070005
0.020058466 0.018884774 0.56999999
-0.015519716 0.021388611 0.57200003
-0.012399134 0.022155659 0.57212508
-0.007591649 0.022666797 0.57155007
-0.0022652505 0.02269318 0.5722
0.0025381804 0.021928472 0.573125
0.0075212326 0.021649523 0.57357901
0.012668384 0.022160897 0.57228005
0.017046999 0.022745468 0.57046157
0.020058466 0.024198322 0.56999999
-0.0076152897 0.025411714 0.57340002
-0.0018150546 0.027578635 0.57399994
0.00949784 0.025438301 0.574
0.012862382 0.026040904 0.57227272
0.017595006 0.027235715 0.57055557
0.022199469 0.027406711 0.5704
0.026032481 0.027837047 0.57050002
0.024373163 0.031188257 0.5715
0.027157633 0.031307451 0.57125002
-0.050429925 0.084297493 0.574
-0.049359787 0.084297493 0.574
-0.050429925 0.08590275 0.574
-0.049359787 0.08590275 0.574
0.039530471 -0.015254579 0.57499999
0.042811994 -0.016755914 0.57587498
0.047109839 -0.016687367 0.57685721
0.051808368 -0.015768679 0.57700008
0.048642494 -0.014182547 0.57499999
0.052925166 -0.013311331 0.57591659
0.057300333 -0.012477289 0.57623076
0.060158961 -0.011552013 0.57749999
0.058478452 -0.0090501886 0.5758
0.06225238 -0.007516657 0.57756245
0.038203191 -0.0015341218 0.57600009
0.041560799 -0.00089107419 0.57639998
0.063927747 -0.0045539779 0.57749999
0.065258548 -0.0023902003 0.57499999
0.065986812 0.0024419285 0.57666671
0.056781095 0.0094184978 0.57599998
0.066330545 0.0051140203 0.57499999
0.054506239 0.012942975 0.57749999
0.057317413 0.012235278 0.57706672
0.060158961 0.012135223 0.57749999
0.0030823685 0.024410585 0.57499999
0.0068343789 0.024053244 0.57499999
-0.012463172 0.028261712 0.57857144
-0.0074182758 0.028106945 0.57627779
-0.0024563137 0.02762668 0.57499993
0.0024391669 0.026983462 0.57499993
0.0069237128 0.026465319 0.57499993
-0.013627825 0.031057335 0.579
-0.047091097 0.069918945 0.579
-0.043312985 0.069918945 0.579
-0.056748509 0.073342018 0.5789091
-0.052443385 0.073093623 0.57849997
-0.047577638 0.072535351 0.57835007
-0.042211458 0.072579294 0.57870007
-0.037320767 0.073243901 0.5789091
-0.034677301 0.0742369 0.579
-0.062022138 0.078022756 0.57856262
-0.05742621 0.077187814 0.57791311
-0.05254351 0.077341169 0.57690907
-0.047493149 0.077248707 0.57731998
-0.042386971 0.077070743 0.57709098
-0.037663449 0.077486709 0.57804358
-0.034677301 0.077475369 0.579
-0.066521391 0.082872815 0.579
-0.062463731 0.082497977 0.57769567
-0.057635944 0.082514226 0.57650006
-0.05280143 0.082287639 0.57554168
-0.047233086 0.082245976 0.57524997
-0.042484865 0.082314894 0.57509989
-0.03778667 0.08259777 0.57708001
-0.034137573 0.082872815 0.579
-0.066521391 0.087460652 0.579
-0.062794164 0.087347776 0.57809103
-0.057517126 0.087724037 0.57615805
-0.052856509 0.087813772 0.57508683
-0.047115341 0.087800272 0.57499987
-0.042272255 0.087438866 0.57627785
-0.03759484 0.08742632 0.5777778
-0.034137573 0.08719077 0.579
-0.066413447 0.091292836 0.579
-0.06269253 0.092511766 0.57852006
-0.057810895 0.092696108 0.57729411
-0.052771967 0.092679001 0.57620001
-0.047358703 0.092598192 0.57570004
-0.042124677 0.092352003 0.57752001
-0.03735631 0.092541084 0.57870018
-0.034197543 0.092348322 0.579
-0.062131949 0.096408017 0.57888889
-0.057252068 0.09728618 0.57805002
-0.052386772 0.097257286 0.57787508
-0.047499117 0.097177945 0.57739991
-0.042277075 0.097229227 0.57877773
-0.037375957 0.096366428 0.579
-0.034677301 0.096366428 0.579
-0.056806244 0.10014464 0.579
-0.05227251 0.10100822 0.579
-0.047630828 0.10068438 0.579
-0.043043122 0.10041451 0.579
0.041387215 -0.017941264 0.58099997
0.062798299 -0.011278084 0.57999998
0.065826006 -0.011061814 0.57999998
0.063663363 -0.0094397822 0.57999998
0.054303378 0.014993366 0.58399999
0.057214838 0.01490094 0.58039999
0.062658392 0.012950041 0.58129406
0.06652081 0.012864362 0.58312505
0.053290218 0.015923345 0.58483332
0.057411063 0.016582148 0.58239996
0.062058903 0.016277907 0.58319998
0.065191202 0.016082177 0.58399999
-0.013651362 0.024622852 0.57999998
-0.015273348 0.027326237 0.57999998
-0.012815792 0.027178777 0.57999998
-0.0098667247 0.028948268 0.57999998
-0.011488712 0.030029621 0.57999998
-0.0098667247 0.030029621 0.57999998
-0.060666848 0.064099438 0.58499998
-0.057067715 0.0638813 0.58499998
-0.052368362 0.06395223 0.58366674
-0.047606096 0.064254172 0.58311111
-0.043516781 0.064370446 0.58416671
-0.066633381 0.068895862 0.58471429
-0.062358599 0.067153141 0.58357137
-0.057505917 0.06722533 0.58252168
-0.052569129 0.067430809 0.58164704
-0.047659684 0.067505859 0.58073676
-0.042258788 0.067130916 0.58130437
-0.037507303 0.067282915 0.58326322
-0.032822397 0.067498952 0.58354545
-0.029583421 0.069552816 0.58499998
-0.067478977 0.072711729 0.58337498
-0.062473338 0.072387651 0.58149999
-0.057987057 0.071293972 0.58078563
-0.052613392 0.070625655 0.58037496
-0.04987574 0.070039697 0.57999998
-0.04068448 0.070039697 0.57999998
-0.037521787 0.070800856 0.58033329
-0.032570872 0.072308928 0.58158338
-0.029048536 0.07294149 0.58399999
-0.071088351 0.077417605 0.58400005
-0.067389548 0.077657208 0.58104163
-0.063306212 0.076121308 0.58019996
-0.032090623 0.077749118 0.58104992
-0.027391532 0.077380121 0.58371431
-0.071744375 0.08265312 0.58330768
-0.068425991 0.082221672 0.58049995
-0.031902678 0.082303695 0.58042854
-0.027330715 0.082430951 0.58352
-0.075754128 0.087367184 0.58499998
-0.072083235 0.087420903 0.58293331
-0.06846837 0.087198623 0.58024997
-0.031496715 0.087351643 0.58006662
-0.027293764 0.08775074 0.58271998
-0.024130188 0.088094294 0.58499998
-0.071895756 0.092739619 0.58391666
-0.068100266 0.09303721 0.58076918
-0.031675708 0.09246432 0.5803076
-0.027411425 0.092565499 0.58278948
-0.024130188 0.091366321 0.58499998
-0.075132832 0.096488699 0.583
-0.07222867 0.097496882 0.58329415
-0.067651443 0.097747579 0.58185714
-0.062784664 0.0986671 0.58062494
-0.041765805 0.099236242 0.57999998
-0.037440509 0.098695569 0.57999998
-0.032273043 0.097515017 0.58109522
-0.028504623 0.097332038 0.58353853
-0.070906572 0.10100944 0.58399999
-0.067502409 0.1025779 0.58378947
-0.062553637 0.10233615 0.58225
-0.057673499 0.10251184 0.58093745
-0.052669864 0.10374153 0.58033329
-0.047728796 0.10359737 0.58019996
-0.042136211 0.10279161 0.58078945
-0.037512545 0.10213899 0.5811249
-0.032737993 0.10245956 0.58295006
-0.029298116 0.10195577 0.58475
-0.067358822 0.10645388 0.58446157
-0.062331889 0.10643934 0.58441669
-0.057068232 0.10695375 0.58375001
-0.052617837 0.10780668 0.58263147
-0.047617074 0.10755715 0.58177781
-0.042738758 0.1074597 0.58295
-0.038032904 0.10642171 0.5838182
-0.032775618 0.10529252 0.58359998
-0.056304261 0.11099849 0.58499998
-0.050305702 0.11099849 0.58499998
-0.048124414 0.11099849 0.58499998
0.048838545 0.018635759 0.58899999
0.052053157 0.01798521 0.58752942
0.057610895 0.018837355 0.58688891
0.062383924 0.018518962 0.58833337
0.048811458 0.020647395 0.58999997
0.053250991 0.021889273 0.58957136
0.057543904 0.022272864 0.58931243
0.061071701 0.022106074 0.58977771
0.048921455 0.028567377 0.58999997
0.052866295 0.0274731 0.58949995
0.057558019 0.02722114 0.58944994
0.060911108 0.027247379 0.59000003
0.048872568 0.032502923 0.58999997
0.052575521 0.032694232 0.58903986
0.057513565 0.032691862 0.58899987
0.061681092 0.033260699 0.59000003
0.052961338 0.036847353 0.59000003
0.057036813 0.036857083 0.58974999
0.062927723 0.036047358 0.58999997
-0.057335477 0.05914731 0.58999997
-0.052385617 0.05914731 0.58999997
-0.047013689 0.058722273 0.58987498
-0.042816091 0.058730513 0.58949995
-0.038636018 0.05914731 0.58999997
-0.065832205 0.063794911 0.58974999
-0.062308706 0.062781356 0.588
-0.05761442 0.061472759 0.58793753
-0.052561902 0.061171763 0.58757132
-0.047229573 0.061444733 0.58744442
-0.042374007 0.061887756 0.58761108
-0.03752083 0.062359914 0.58833331
-0.033323623 0.063316137 0.58899999
-0.071149118 0.068066426 0.5884546
-0.067797944 0.066818804 0.58753848
-0.064594343 0.065301552 0.58600003
-0.037827827 0.065301552 0.58600003
-0.031431925 0.06563586 0.58899999
-0.027873904 0.068130091 0.58823538
-0.024336429 0.069047287 0.58999997
-0.07229878 0.072065666 0.58771431
-0.026469169 0.072186053 0.58678573
-0.02261249 0.072111592 0.58810002
-0.018522309 0.074075855 0.58999997
-0.077352032 0.078661941 0.58936363
-0.073619783 0.077378988 0.58764279
-0.025263948 0.075680688 0.58600003
-0.022572067 0.07745795 0.58704996
-0.018914172 0.077150635 0.58958334
-0.077307746 0.082611375 0.58868742
-0.074169226 0.082373701 0.58642858
-0.022657653 0.082503736 0.58676469
-0.018733781 0.082509942 0.58946162
-0.077284805 0.087364674 0.58809096
-0.074426942 0.087698624 0.58600003
-0.022187823 0.08734607 0.58774996
-0.019936554 0.086647242 0.58999997
-0.076524355 0.092562847 0.58741665
-0.074114799 0.092146821 0.58600003
-0.025307061 0.094961911 0.58700001
-0.022750037 0.092601895 0.58781821
-0.076195508 0.096056312 0.58700001
-0.074426942 0.095892675 0.58600003
-0.02584816 0.097677939 0.58687502
-0.0226596 0.097781852 0.5893333
-0.019936554 0.096547224 0.58999997
-0.070785232 0.10317627 0.58600003
-0.027023356 0.1023128 0.58718747
-0.023456454 0.10138722 0.58999997
-0.070056893 0.10681807 0.58600003
-0.06261237 0.10877073 0.58642858
-0.058767617 0.10863898 0.58600003
-0.03632563 0.10832033 0.58600003
-0.03241083 0.10806423 0.5868333
-0.06163672 0.1111101 0.58774996
-0.057830848 0.11215716 0.58690906
-0.052816112 0.1125378 0.58692849
-0.047101393 0.11336999 0.58668751
-0.042174242 0.11219662 0.58662504
-0.037699785 0.1121119 0.58739996
-0.033241279 0.11055717 0.58700001
-0.051198728 0.11505185 0.58899999
0.047241449 0.01958053 0.59100002
0.06437473 0.019597095 0.59150004
0.066195853 0.019646792 0.59299999
0.047847934 0.022764834 0.59223074
0.051295757 0.023260167 0.59116668
0.063908853 0.022498844 0.59136367
0.066349618 0.022718465 0.59239995
0.043777436 0.028346671 0.59383327
0.046893835 0.027017212 0.59219992
0.050914224 0.025457129 0.59100002
0.063805275 0.027308833 0.59133333
0.067347676 0.027405271 0.59339994
0.04356809 0.03238837 0.59349996
0.046216439 0.032306511 0.59200001
0.064000279 0.032036938 0.59110004
0.067813106 0.032504201 0.59359992
0.071290903 0.032415658 0.59399998
0.043743685 0.037260771 0.59399992
0.047234133 0.037370428 0.59208339
0.05238333 0.038801897 0.59100002
0.058284648 0.038604323 0.59125006
0.062658645 0.038087789 0.59152937
0.066456258 0.036974441 0.59162503
0.043605257 0.042382751 0.59399992
0.047429312 0.042714838 0.59220839
0.052316338 0.042550415 0.59169996
0.057381604 0.042335484 0.59210527
0.062340349 0.042321369 0.59312499
0.065458812 0.041021544 0.59299999
0.039729267 0.049581211 0.59399998
0.042871766 0.047459647 0.59343749
0.047230784 0.047642294 0.5921905
0.052474223 0.047677096 0.59300005
0.056822851 0.046748154 0.59358823
-0.056958206 0.053991813 0.59244442
-0.052374147 0.054195404 0.59359998
-0.047629282 0.054417036 0.59239995
-0.043410681 0.053803474 0.59324998
0.042452302 0.052295003 0.59337497
0.047373615 0.052231677 0.59265006
0.051871739 0.051958021 0.59354538
-0.06824474 0.059179157 0.59399992
-0.061734438 0.057732597 0.59190911
-0.057478063 0.056828797 0.5914706
-0.052691642 0.056716803 0.59219998
-0.047805648 0.056784302 0.59116668
-0.042098224 0.056573875 0.59230769
-0.037775364 0.057959601 0.5921818
-0.032756258 0.05834958 0.59308332
-0.029987982 0.058895264 0.59299999
0.043273032 0.055561472 0.59399998
0.047207672 0.056034155 0.59376913
0.050803527 0.055118486 0.59399998
-0.071263872 0.064025797 0.59239995
-0.067988016 0.062561266 0.59283328
-0.062417537 0.060650416 0.59125
-0.035396006 0.060349423 0.59100002
-0.03201519 0.061798383 0.59145457
-0.028297799 0.063457727 0.59237498
-0.021857383 0.064902961 0.59233332
-0.071756482 0.065858729 0.59100002
-0.026779665 0.066263169 0.59133339
-0.022157099 0.067277305 0.59195232
-0.018458962 0.068398364 0.59200001
-0.018484244 0.071333237 0.59154552
-0.080980137 0.079482503 0.59399998
-0.079469316 0.077979222 0.59100002
-0.016527122 0.078116946 0.59100002
-0.080980137 0.080589958 0.59399998
-0.017105583 0.081505179 0.59100002
-0.020004138 0.089148425 0.59200001
-0.018347662 0.086389109 0.59200001
-0.020409111 0.092834219 0.59175003
-0.018304184 0.092054166 0.59255552
-0.020555988 0.095770776 0.59200001
-0.023826763 0.10332204 0.59100002
0.044307657 0.024190923 0.59600002
0.045342606 0.023595674 0.59500003
0.039307464 0.027524471 0.59600008
0.042049374 0.027104799 0.59549999
0.069746993 0.028587611 0.59500003
0.071410924 0.028864942 0.59500003
0.039929923 0.031466324 0.597
0.041494466 0.032497518 0.59550005
0.069746993 0.030806253 0.59500003
0.071410924 0.030806253 0.59500003
0.042231902 0.037950858 0.59612501
0.039996807 0.044340529 0.59799999
0.041129254 0.042431548 0.59681821
0.039492656 0.046968639 0.59600002
0.040922634 0.04691039 0.59525001
0.058854591 0.048745733 0.59562504
0.061984837 0.047429729 0.59578574
-0.040627379 0.053547308 0.59500003
-0.037681323 0.053952843 0.59580004
-0.034642335 0.054283816 0.597
0.038151167 0.053054161 0.59657151
0.053773213 0.053214509 0.59500003
0.05766188 0.052544575 0.59619999
0.062032297 0.052415408 0.59645462
-0.066315897 0.057968553 0.59728575
-0.063943937 0.057344455 0.59742862
-0.040072735 0.055211283 0.59500003
-0.036915734 0.056146666 0.59577781
-0.034043238 0.055882864 0.59625
0.034479953 0.057257611 0.59899998
0.037902117 0.057513405 0.59786958
0.042362455 0.058093958 0.5957334
0.047892574 0.058883101 0.59566671
0.052652821 0.057261769 0.59612507
0.057233322 0.056206521 0.59700006
0.061077278 0.055396862 0.597
-0.065696634 0.060859989 0.59600002
-0.064585477 0.060859989 0.59600002
-0.027155826 0.062044378 0.59671432
-0.023307264 0.063875757 0.59649998
0.033363208 0.063958272 0.59899998
0.037840515 0.062712036 0.59829992
0.042726293 0.062651753 0.59718752
0.047149953 0.061921395 0.59745461
0.032769043 0.067543186 0.59833324
0.03754003 0.067110538 0.59833324
0.042448003 0.06669496 0.59850001
0.033346351 0.072297238 0.5986923
0.036155071 0.071636118 0.59899998
-0.082502149 0.079883933 0.597
-0.081272542 0.082785569 0.59614283
-0.017054964 0.087936215 0.59500009
0.038891155 0.04326174 0.60160005
0.04039811 0.04028102 0.60399997
0.0385799 0.045759492 0.602
0.033063978 0.058691084 0.60033339
-0.026312867 0.061063897 0.60166669
-0.023314318 0.06228704 0.60144448
0.032742806 0.061808165 0.60023069
0.035656128 0.060709134 0.60000002
0.046842247 0.063505732 0.60000002
0.042765453 0.068950891 0.60033327
0.045837946 0.067591861 0.60149997
0.038095888 0.072951935 0.60024995
0.042377718 0.072224408 0.60161906
0.046028458 0.072374836 0.60399997
0.034164645 0.076183677 0.60000002
0.037439149 0.077143908 0.60166669
0.04208865 0.076498166 0.60338467
0.046028458 0.07519009 0.60399997
0.033920191 0.033234239 0.60900003
0.037683152 0.032963112 0.60866678
0.040531881 0.034200348 0.60600001
0.039175335 0.037734572 0.60833335
0.041198503 0.037681479 0.60750002
0.038012821 0.042558536 0.60637504
0.048294663 0.068187118 0.6054545
0.050982513 0.068942562 0.60600001
0.04836053 0.072494686 0.60500002
0.052341286 0.072806992 0.60666662
0.043169621 0.078606963 0.60537499
0.047765691 0.077282839 0.60549992
0.052509233 0.077302791 0.60731256
0.056060318 0.07694795 0.60900003
0.039467104 0.080090329 0.60699999
0.042635761 0.080995679 0.60699999
0.046862874 0.080156296 0.60750002
0.033434175 0.034453847 0.61049998
0.035681769 0.034994736 0.61000001
0.02961983 0.03522421 0.61400002
0.032427151 0.037452802 0.61300004
0.036613133 0.037877891 0.61064291
0.033249862 0.042394768 0.61339992
0.036081262 0.042229496 0.611
0.035798758 0.045378599 0.61199999
0.049328834 0.064564161 0.61000001
0.04908542 0.066040091 0.61049998
0.051118381 0.066378728 0.611
0.056152366 0.074231088 0.61000001
0.056152366 0.079348877 0.61000001
0.043642558 0.082760736 0.61000001
0.047428016 0.08285825 0.61199999
0.052476436 0.082574941 0.61215788
0.056394123 0.082547761 0.612625
0.047744449 0.085974492 0.61400002
0.052386895 0.086101696 0.61400002
0.055948224 0.086165287 0.61400002
0.028338181 0.037942149 0.61600006
0.030814646 0.039868008 0.61500001
0.023591289 0.0441439 0.616
0.027564136 0.042931743 0.61652637
0.031205187 0.043128777 0.61516666
0.023308441 0.047072902 0.61737502
0.027468016 0.047482729 0.61709988
0.032583695 0.04739362 0.61593753
0.036794674 0.047918186 0.61530006
0.027776755 0.051414229 0.61807692
0.032657947 0.051529467 0.61733335
0.035918701 0.050761953 0.61733329
0.048258234 0.088283852 0.61519998
0.052510984 0.088413008 0.6153
0.055160534 0.08960712 0.61799997
0.048823133 0.091335885 0.61800003
0.051935576 0.090989761 0.61799997
0.023010934 0.049519315 0.62099999
0.023041347 0.052484918 0.62183326
0.027151627 0.053832151 0.62114286
0.03285192 0.054150492 0.62099999
0.037701976 0.052550916 0.62199992
0.040507425 0.052582607 0.62300003
0.023317341 0.056996394 0.62300009
0.02712616 0.057177782 0.62243754
0.032259893 0.057148337 0.62310523
0.03622881 0.055844519 0.62266666
0.024246536 0.060132504 0.62300003
0.0275464 0.060536385 0.62316662
0.031963605 0.0604617 0.62400001
0.049159124 0.09428449 0.62224996
0.052768681 0.093758829 0.62190902
0.056220014 0.093484171 0.62175
0.043341473 0.099464364 0.62199998
0.048304364 0.098332845 0.62330776
0.05270309 0.097882003 0.62300009
0.057177488 0.097904444 0.62239993
0.036325209 0.10162005 0.62099999
0.041751329 0.10090211 0.62133336
0.047476377 0.10078581 0.62300003
0.053283837 0.10078581 0.62300003
0.05734906 0.10078581 0.62300003
0.034811359 0.059160296 0.625
0.028402645 0.062656045 0.625
0.031082651 0.062189944 0.625
0.047628786 0.095865719 0.625
0.028888322 0.083211996 0.64899999
0.033036776 0.082866289 0.64899999
0.036438797 0.083759755 0.64700001
0.038449191 0.085368119 0.64700001
0.02287369 0.083340205 0.64999998
0.027236274 0.082855478 0.64999998
0.031356495 0.082128353 0.64999998
-0.03377581 0.070876524 0.70700002
0.49779639 -0.097915538 0.93400002
0.501279 -0.097915538 0.93400002
0.48816657 -0.10424387 0.94400001
0.28435174 -0.11674967 0.95999998
0.28703642 -0.11674967 0.95999998
0.28256193 -0.11495984 0.95999998
0.28703642 -0.11495984 0.95999998
0.47252882 -0.11928037 0.96600002
0.46377337 -0.12597413 0.97600001
0.46777648 -0.12670198 0.97600001
0.47394758 -0.13041024 0.98199999
0.46479362 -0.12857941 0.98199999
0.46753982 -0.12857941 0.98199999
0.47394758 -0.12857941 0.98199999
0.46437719 -0.13080865 0.98500001
0.46805 -0.13172686 0.98500007
0.47172275 -0.13264509 0.98500001
0.4629651 -0.1363143 0.99299991
0.44772759 -0.14107545 0.99699998
0.45099416 -0.14155418 0.99599999
0.44851828 -0.13907826 0.99599999
0.45285106 -0.13876878 0.99599999
0.45718384 -0.13845927 0.99599999
0.46863467 -0.13784029 0.99599999
0.36404306 -0.14240691 1.002
0.36591113 -0.14240691 1.002
0.36794353 -0.14470701 1.005
0.43395838 -0.15686339 1.017
0.39350939 -0.15275519 1.017
0.39603746 -0.15307119 1.017
0.43395838 -0.15307119 1.017
0.43648645 -0.1533872 1.017
0.43238604 -0.1573261 1.02
0.39910737 -0.15447357 1.02
0.40218842 -0.15492791 1.023
0.43185636 -0.15462501 1.021
0.40814996 -0.16112088 1.026
0.41331458 -0.16188602 1.026
0.41675767 -0.16112088 1.026
0.40758857 -0.15936317 1.0270001
0.41293201 -0.159208 1.026
0.4183262 -0.15944076 1.0275
0.42277232 -0.15967353 1.029
0.4323644 -0.15967353 1.029
0.42689088 -0.16013904 1.0319999
