# .PCD v0.7 - Point Cloud Data file format
VERSION 0.7
FIELDS x y z
SIZE 4 4 4
TYPE F F F
COUNT 1 1 1
WIDTH 1379
HEIGHT 1
VIEWPOINT 0 0 0 1 0 0 0
POINTS 1379
DATA ascii
-0.23128669 0.19414903 0.47600001
-0.22995554 0.19414903 0.47600001
0.022998247 -0.040318299 0.55124998
0.02569253 -0.040519431 0.55400002
0.018876221 -0.035163585 0.551
0.022580877 -0.037168823 0.55154169
0.026490195 -0.036791388 0.55299997
0.01822632 -0.031859215 0.55274999
0.022221755 -0.032451428 0.55119997
0.01949542 -0.029157763 0.55400002
0.020528274 -0.029157763 0.55400002
0.12226416 -0.02089473 0.55400002
0.11968203 -0.018312532 0.55400002
0.12250636 -0.017756782 0.55275983
0.12704347 -0.016887635 0.55284613
0.12269156 -0.014170403 0.55359995
0.12693454 -0.014469655 0.55319995
0.027290981 -0.038523085 0.55500001
0.014357031 -0.030762509 0.55500001
0.015391748 -0.030762509 0.55500001
0.013425505 -0.027051402 0.55621421
0.017409805 -0.027108064 0.55612493
0.022197772 -0.026772944 0.55623525
0.11346698 -0.025252113 0.55900002
0.11555132 -0.025252115 0.55900002
0.12440981 -0.025252115 0.55900002
0.12597306 -0.025252115 0.55900002
0.013144121 -0.02225823 0.55776477
0.017526876 -0.02256945 0.55710006
0.022885231 -0.022256957 0.55778259
0.030614194 -0.020562209 0.55900002
0.10929828 -0.020562209 0.55900002
0.11257934 -0.021984652 0.55886954
0.11748257 -0.022291183 0.5576666
0.12249177 -0.023148892 0.55671436
0.12723404 -0.022476587 0.5570001
0.13014175 -0.02212551 0.55900002
0.013246344 -0.017300669 0.5585385
0.017525211 -0.017893746 0.5570401
0.022580789 -0.017613621 0.55713642
0.025901224 -0.017420011 0.55850005
0.11303462 -0.017871451 0.55884618
0.11740968 -0.017622851 0.55670834
0.1279134 -0.019459361 0.55514288
0.01287887 -0.012728508 0.55824995
0.017527953 -0.01270239 0.55712008
0.022508549 -0.012950731 0.55768186
0.025924414 -0.014830104 0.55900002
0.11450915 -0.014830104 0.55900002
0.11801869 -0.013057676 0.55754173
0.12214617 -0.011548704 0.55514282
0.12681566 -0.01221546 0.55645454
0.013761411 -0.0089214304 0.55883336
0.017482357 -0.0077662542 0.55868179
0.021408329 -0.008924298 0.55900002
0.11926033 -0.0087818969 0.55880004
0.12244216 -0.0075078066 0.5571599
0.12592109 -0.007865821 0.55800003
0.12300488 -0.0039422638 0.55866671
0.12597306 -0.0044080927 0.55900002
0.043988753 0.0042769169 0.55900002
0.04598625 0.0041900668 0.55900002
0.043939125 0.0069072335 0.55900002
0.046246797 0.0070561194 0.55900002
0.10771639 -0.025695458 0.56300002
0.11216164 -0.026317382 0.56225002
0.11775552 -0.026994348 0.56268746
0.12216193 -0.026872275 0.56205893
0.12770738 -0.026508933 0.56166667
0.13223988 -0.026392339 0.56309092
0.010757669 -0.02141933 0.56
0.027399031 -0.021029709 0.5600909
0.032815527 -0.020635776 0.56099999
0.037588969 -0.020148665 0.56199998
0.10714237 -0.022370586 0.56235725
0.11053784 -0.023731191 0.56
0.13244765 -0.022542963 0.5613125
0.0087441672 -0.015900699 0.56
0.010757669 -0.017690526 0.56
0.028058862 -0.017466798 0.56
0.032193534 -0.01758475 0.56115788
0.035937808 -0.018274736 0.56239998
0.10851609 -0.017761685 0.56228572
0.11151759 -0.016658897 0.56042856
0.0082472079 -0.012807679 0.56179994
0.010310223 -0.012768502 0.56
0.024578737 -0.011028393 0.56
0.027641052 -0.012667712 0.56042111
0.030961873 -0.013020516 0.56272727
0.11282042 -0.013278736 0.56271428
0.1157895 -0.011396109 0.56099999
0.12913647 -0.011041728 0.56066662
0.13060737 -0.011222407 0.56099999
0.0082688676 -0.0075914594 0.56326669
0.011967818 -0.007114266 0.56047368
0.018314512 -0.0058080661 0.56
0.023285205 -0.0071102069 0.56015795
0.027609775 -0.0075662276 0.56145
0.030888025 -0.0081278523 0.56400007
0.11421902 -0.0089164944 0.56400001
0.11723354 -0.0073189014 0.56167996
0.12838823 -0.0076592281 0.56127268
0.13104375 -0.0071435831 0.56249994
0.0085646408 -0.0028211758 0.56381828
0.012440937 -0.0023346697 0.56200004
0.017653648 -0.0023304892 0.56112009
0.022403596 -0.002334361 0.56214994
0.027236613 -0.0025804855 0.56359106
0.031413771 -0.0029753889 0.56400007
0.039021261 -0.00023971641 0.56
0.043135021 -0.0010040774 0.56227267
0.047473479 -0.0012924755 0.56325001
0.050866432 -0.00024142864 0.56400001
0.11787435 -0.0032503277 0.56313336
0.12203344 -0.0016926809 0.56138891
0.12698986 -0.0020928178 0.56207687
0.13002336 -0.0044396357 0.56300002
0.0093323728 0.00081009447 0.56400001
0.013091351 0.0015432758 0.56290001
0.017723856 0.0018597898 0.56333339
0.0221129 0.0011601234 0.56366664
0.037853781 0.0032619766 0.56050003
0.042279128 0.0024546862 0.560579
0.048078246 0.0027828806 0.56021059
0.051940687 0.0028331871 0.56233329
0.12277624 0.0018604138 0.56346166
0.12646186 0.0013351379 0.56350005
-0.02063524 0.0086965179 0.56400001
-0.01853225 0.0086965179 0.56400001
0.034568254 0.0086965179 0.56400001
0.037571132 0.0076151015 0.56174994
0.041958172 0.0079534408 0.56007689
0.048471052 0.0077137602 0.56015384
0.052736495 0.0074213287 0.56178945
0.055598158 0.0081707565 0.56400001
0.12709983 0.0055419486 0.56400007
-0.020459993 0.011675834 0.56400007
-0.01811165 0.012061393 0.56400007
0.034568254 0.010273802 0.56400001
0.037886806 0.012115368 0.56290907
0.042738739 0.012308473 0.56083995
0.047376171 0.012201798 0.56099993
0.051152114 0.011463233 0.56136358
-0.020109493 0.015531418 0.56400001
-0.018006502 0.015531418 0.56400001
0.039285868 0.017628212 0.56380004
0.042560197 0.017215222 0.56176186
0.046293091 0.015816428 0.56166667
0.038241427 0.021836873 0.56390005
0.041256152 0.020715313 0.56199998
0.10287131 -0.031316407 0.56737494
0.10772879 -0.031449288 0.56844449
0.11246655 -0.031434208 0.56709993
0.11762345 -0.031536885 0.56788892
0.12242398 -0.031412959 0.56777787
0.12730177 -0.031573217 0.56855559
0.13216648 -0.031466909 0.56769997
0.13722575 -0.031371836 0.56837499
0.098901093 -0.027032504 0.56569999
0.10232173 -0.027794065 0.56552166
0.10718792 -0.028346606 0.56527776
0.11242766 -0.028758556 0.565
0.11739351 -0.029435741 0.565
0.12294503 -0.029536556 0.56519997
0.1275062 -0.029251933 0.56580001
0.13295311 -0.028968593 0.56541663
0.13762154 -0.027818006 0.56652629
0.098575398 -0.022561071 0.56763631
0.10216573 -0.022388868 0.56567991
0.1361192 -0.022500163 0.56555557
0.034629546 -0.016042668 0.565
0.037672587 -0.016861968 0.565
0.10296972 -0.017382193 0.56750005
0.10614464 -0.01692949 0.56533331
0.13364878 -0.017690834 0.56725001
0.13638583 -0.017368712 0.56763631
0.0061888406 -0.011302426 0.565
0.033673186 -0.012738968 0.56535715
0.036904521 -0.013364402 0.56642854
0.043891653 -0.01085202 0.56900001
0.047149878 -0.01115512 0.56900001
0.050786965 -0.01085202 0.56900001
0.10415673 -0.012832088 0.56862503
0.10766125 -0.012722977 0.56613034
0.11117367 -0.011477989 0.565
0.0061888406 -0.007615569 0.565
0.033077072 -0.0075642327 0.56671435
0.04345911 -0.0074154208 0.5681538
0.047406178 -0.0076409574 0.5666399
0.052431714 -0.0072871312 0.56657147
0.056446843 -0.0065978244 0.56800002
0.10837384 -0.008502569 0.56800002
0.11222369 -0.0072874529 0.56563634
0.0061888406 -0.0039287135 0.565
0.026904911 -0.00059298583 0.565
0.032250945 -0.0030614045 0.56633335
0.043105986 -0.0039333482 0.56566668
0.047269858 -0.0037850691 0.565
0.052674055 -0.0025318295 0.56499988
0.056899026 -0.0023559714 0.56646663
0.11291356 -0.0028853274 0.56718183
0.11713208 -0.00091267494 0.56572729
-0.0053981137 0.0029183058 0.565
-0.0025905066 0.0027104111 0.5654667
0.018839641 0.0039740363 0.56533331
0.022726584 0.0031289835 0.565
0.026694242 0.0021458217 0.565
0.030416107 0.0008115308 0.565
0.054222036 0.0016542409 0.565
0.057336126 0.0025044691 0.56660002
0.11443598 0.00081727619 0.56900001
0.11802297 0.0021085939 0.56727773
0.1216676 0.0033714995 0.56528574
0.12777662 0.002843064 0.565
0.13048525 0.0008115308 0.565
-0.022251865 0.0092386305 0.565
-0.017046399 0.0074462132 0.56709081
-0.013909479 0.0082341069 0.56844449
-0.0054219989 0.0069019301 0.5675
-0.0022456036 0.0071510766 0.56643999
0.0019005453 0.0072835088 0.56507146
0.019432681 0.0055745821 0.56725001
0.022574756 0.0055674459 0.56650001
0.033576187 0.0092386305 0.565
0.057259928 0.0060996553 0.56689996
0.11901939 0.0067538917 0.56860006
0.12224722 0.0071446788 0.56587994
0.12655407 0.0077077257 0.56553847
-0.02183052 0.012820149 0.565
-0.016885372 0.012718452 0.56519997
-0.012894765 0.012524997 0.56670827
-0.0073299641 0.013469809 0.56892866
-0.0022514381 0.012467932 0.56811994
0.0023953237 0.012222652 0.56755561
0.0051445705 0.01083786 0.56599998
0.029114326 0.014204542 0.56699997
0.032882046 0.012853798 0.56547368
0.036034022 0.014154439 0.565
0.12273291 0.011806673 0.56812501
0.12546375 0.011946576 0.56850004
-0.015931709 0.015558956 0.565
-0.012826279 0.016157478 0.5675
-0.0071090967 0.017338131 0.56878966
-0.0024371846 0.017646357 0.56878269
0.0013528977 0.016517784 0.56900001
0.023001112 0.019536166 0.56833333
0.027610561 0.01808537 0.5671429
0.032577343 0.017695896 0.56595999
0.036736269 0.017665733 0.565
0.022664774 0.022555035 0.56875008
0.027387574 0.022515731 0.56774998
0.032630891 0.022482444 0.56690001
0.036076751 0.022434277 0.56566662
0.023205725 0.026012346 0.56900001
0.027609093 0.026616089 0.5686667
0.032588098 0.026384767 0.56843746
0.035893425 0.026247391 0.56833339
0.11330128 -0.035561223 0.574
0.11777393 -0.036023084 0.57377774
0.12204076 -0.035917941 0.57399994
0.12721309 -0.035561223 0.574
0.13470407 -0.035561223 0.574
0.13577421 -0.035561223 0.574
0.10428399 -0.033809483 0.5715
0.10733769 -0.033779863 0.57200003
0.11211867 -0.033910885 0.57222229
0.11727458 -0.033867709 0.57249999
0.12261128 -0.033867709 0.57249999
0.12752333 -0.033759419 0.57166666
0.1322865 -0.033885002 0.57177782
0.13758348 -0.033682838 0.57181823
0.1418739 -0.032064911 0.57269996
0.1423995 -0.028004235 0.57266665
0.096928976 -0.02131219 0.57212502
0.097512878 -0.017320355 0.57243347
0.10103478 -0.016397182 0.56999999
0.13441403 -0.015135195 0.57050002
0.13806573 -0.016414674 0.57166666
0.038666844 -0.01193698 0.57016665
0.042197347 -0.012601161 0.5718236
0.047732923 -0.012701835 0.57266665
0.052119654 -0.011336932 0.57199997
0.055513803 -0.010947381 0.574
0.097990826 -0.012997582 0.57342851
0.10170683 -0.012166907 0.57100004
0.13405213 -0.013610465 0.57349998
0.13680667 -0.012655672 0.57315385
0.034976862 -0.0066273757 0.57066661
0.037659403 -0.0076948567 0.57099998
0.041105885 -0.007960028 0.57083338
0.053532928 -0.009808383 0.56999999
0.057904482 -0.0077166613 0.57249999
0.10312045 -0.0082535101 0.57281244
0.10659795 -0.0069337073 0.57085717
0.034494735 -0.0039734445 0.5715
0.037368581 -0.0028299324 0.57300001
0.041085474 -0.0028480857 0.57177776
0.05939851 -0.0023709931 0.57019997
0.062034454 -0.0020640716 0.57200003
0.10474018 -0.0045263781 0.574
0.10803668 -0.002697374 0.5722
0.11135258 -0.0010034639 0.57028568
0.059377674 0.00081871252 0.56999999
0.062247049 0.0024210366 0.57193756
0.065145053 0.0029647921 0.574
0.1090546 0.0020122726 0.57355553
0.11262753 0.002582348 0.57194996
0.11596546 0.0032098088 0.56999999
-0.011315159 0.0088080745 0.57124996
-0.0077681094 0.0083666062 0.57141674
0.058872998 0.0082737654 0.57099998
0.06231324 0.0072281831 0.57255
0.06505993 0.0067009102 0.57325006
0.10902074 0.0051051262 0.574
0.11284176 0.0068003731 0.57358819
0.1165782 0.0074272119 0.57145
-0.010759291 0.010383098 0.56999999
-0.0078662382 0.011259213 0.57036364
0.003586906 0.014633936 0.56999999
0.0063728709 0.013829169 0.57088888
0.058460295 0.010796882 0.57316667
0.060758464 0.010971898 0.57300001
0.11437143 0.010991046 0.574
0.11766949 0.012351592 0.57291681
0.12137302 0.013481623 0.57070005
0.12779008 0.012929641 0.57178575
0.13095859 0.014201546 0.574
-0.015685983 0.018079499 0.57139999
-0.01219839 0.018563461 0.57099998
-0.0089909909 0.019244842 0.57016665
-0.00013247842 0.019416127 0.56999999
0.0029143563 0.018249482 0.57006669
0.00722194 0.017453559 0.57119054
0.012846767 0.018002674 0.57335711
0.01750749 0.017963381 0.57233334
0.020883266 0.019175299 0.57075
0.11858246 0.015797619 0.57366669
0.12274024 0.017235063 0.57200003
0.12727796 0.016940126 0.57308334
0.13042352 0.016876964 0.574
-0.015539568 0.021918083 0.57211113
-0.012484613 0.022269506 0.57215804
-0.0075871861 0.022653334 0.57120001
-0.0022638289 0.022674004 0.57169998
0.0024292844 0.022602649 0.57260007
0.0073495144 0.021347839 0.57333338
0.012678714 0.022179112 0.57276005
0.017307628 0.022340707 0.57083344
0.020058466 0.022604257 0.56999999
0.12400268 0.020087466 0.574
0.12507281 0.020087466 0.574
-0.011884194 0.025393985 0.57300001
-0.007613007 0.02540285 0.57319999
-0.0033438241 0.025438301 0.574
0.012914059 0.025854014 0.57266665
0.017706243 0.027236091 0.57076478
0.021692237 0.028023534 0.57023531
0.027054783 0.02922303 0.57028568
0.032825261 0.028993459 0.57024997
0.017432291 0.030628217 0.57099998
0.022734161 0.030601397 0.57050002
0.027765337 0.031083481 0.57066667
0.031244466 0.030601397 0.57050002
0.10924166 -0.040658351 0.57800001
0.11185946 -0.040458817 0.579
0.10751481 -0.037147533 0.57644445
0.11231659 -0.037542004 0.57700002
0.11663797 -0.037736744 0.57780004
0.12378979 -0.036727116 0.57550001
0.12766333 -0.037309706 0.57711112
0.13228562 -0.037103709 0.57746154
0.13795085 -0.037155397 0.57735717
0.14236262 -0.037423003 0.5779376
0.14694454 -0.036324777 0.57885712
0.14408195 -0.032890681 0.57542855
0.14690635 -0.032951761 0.57730776
0.14304627 -0.026734134 0.57600003
0.14594233 -0.027736748 0.57824999
0.095274627 -0.020614736 0.57499999
0.13971102 -0.02122432 0.57700002
0.14238709 -0.022835143 0.57694435
0.042880479 -0.01704336 0.57800001
0.047362253 -0.016141107 0.57791668
0.052038886 -0.015845519 0.57700008
0.055610515 -0.015254579 0.57499999
0.14206862 -0.019100191 0.57783335
0.044968553 -0.014207212 0.57599998
0.047653224 -0.014207212 0.57599998
0.052704256 -0.013292377 0.57569224
0.057466213 -0.012712879 0.57639998
0.060750775 -0.011562482 0.57800001
0.097418636 -0.010966453 0.57499999
0.13493875 -0.011502469 0.57499999
0.13922675 -0.012574499 0.57499999
0.14029875 -0.012038484 0.57499999
0.058048099 -0.0096307155 0.57524997
0.061182182 -0.0077885576 0.57799995
0.097981125 -0.0076233284 0.57659078
0.10156608 -0.0068032723 0.57555556
0.13672227 -0.0093807979 0.5765
0.065372035 -0.0013204613 0.57599998
0.09810479 -0.0042506219 0.57814282
0.10270469 -0.0025849666 0.57721746
0.10612553 -0.0010127125 0.57571423
0.065852225 0.002437456 0.57550001
0.10379324 0.0015505095 0.57866669
0.10665578 0.0025959851 0.57692862
0.066445895 0.005122914 0.57599998
0.10809798 0.0069776536 0.57782358
0.11107278 0.0082058646 0.575625
0.054147281 0.012842169 0.57539999
0.056759153 0.012987131 0.57661539
0.1099704 0.010547042 0.579
0.11291319 0.012541297 0.57663167
0.11564268 0.014226288 0.57499999
0.13100806 0.012260896 0.57499999
0.010586389 0.016906368 0.57499999
0.11413926 0.016193707 0.57824999
0.11733564 0.017657271 0.57682353
0.1206236 0.018538795 0.57574999
0.12865572 0.018715173 0.57566667
0.1305951 0.018022574 0.57633334
0.0041543716 0.024410587 0.57499999
0.0076086023 0.02393413 0.57499999
0.11839616 0.021590771 0.57841665
0.12222264 0.02240137 0.57612497
0.1266486 0.022055738 0.57592303
0.13025479 0.020227449 0.57800001
-0.012497297 0.027927442 0.57826668
-0.0075954921 0.028125547 0.57594734
-0.0021314642 0.027919054 0.57499987
0.0024396484 0.026986666 0.57506657
0.0072199842 0.026488243 0.57521427
0.010586389 0.02655465 0.57499999
0.12280796 0.0265186 0.57845455
0.12590283 0.026514616 0.57880002
-0.050869212 0.069918945 0.579
-0.04787071 0.069439165 0.579
-0.04313308 0.069559112 0.579
-0.056536376 0.07342729 0.579
-0.052460596 0.072577953 0.57868755
-0.04757306 0.07252913 0.5783
-0.042211179 0.072579384 0.57870018
-0.037555862 0.073517241 0.579
-0.034677301 0.0742369 0.579
-0.061880432 0.078263722 0.57869232
-0.057290878 0.077399395 0.57844007
-0.05239775 0.077341571 0.57800001
-0.047479611 0.07722827 0.57715988
-0.042203858 0.077166788 0.57737505
-0.037448246 0.077462241 0.57814288
-0.034137573 0.077475362 0.579
-0.061518904 0.082626447 0.57835716
-0.057227198 0.082700461 0.57779998
-0.052357662 0.08266528 0.57755005
-0.047401235 0.082472041 0.57620007
-0.042544246 0.082428731 0.57590014
-0.037790712 0.082601935 0.57712007
-0.033658318 0.08316014 0.57850003
-0.062666871 0.087514654 0.57876194
-0.057517536 0.087649852 0.57650012
-0.052912962 0.087497726 0.57661903
-0.04737132 0.087788954 0.57584012
-0.042536858 0.087782964 0.57580006
-0.037865669 0.087520026 0.57600015
-0.03287651 0.087270886 0.57794452
-0.061810546 0.092037305 0.57892853
-0.05773218 0.092727408 0.57773691
-0.052661538 0.09227591 0.57704347
-0.047441803 0.092758775 0.57669991
-0.042341869 0.092962667 0.57722223
-0.037474878 0.09244287 0.57776177
-0.033662252 0.092400394 0.57878572
-0.060584355 0.096366428 0.579
-0.057191722 0.097290128 0.57857895
-0.05239775 0.09781643 0.57800001
-0.047535252 0.097789213 0.57784003
-0.042322606 0.097680524 0.57830447
-0.037607271 0.097291708 0.579
-0.034677301 0.095826685 0.579
-0.055906687 0.10086429 0.579
-0.052263726 0.10207023 0.57889998
-0.047585025 0.1025656 0.57844448
-0.042395994 0.10245565 0.57889479
-0.038455416 0.10014464 0.579
0.11379728 -0.042379498 0.58090001
0.11791892 -0.041379478 0.58360004
0.12259927 -0.04149681 0.58475
0.12725084 -0.041081339 0.58400005
0.13265136 -0.040522121 0.58380002
0.13789584 -0.041022997 0.58428574
0.14193279 -0.041309614 0.5837273
0.14605495 -0.040466592 0.583
0.11793295 -0.039028279 0.58099997
0.12269226 -0.03882378 0.58188891
0.12724602 -0.03904181 0.5806666
0.13369656 -0.038720295 0.58125001
0.137124 -0.039312098 0.58200002
0.14730638 -0.038493425 0.5805555
0.15042825 -0.036536507 0.58099997
0.15042825 -0.034911677 0.58099997
0.1477166 -0.026736367 0.58122218
0.14753902 -0.022409024 0.58307695
0.15037325 -0.022609267 0.58499998
0.042087831 -0.018034717 0.58071423
0.045713373 -0.018415015 0.57999998
0.14301108 -0.017600365 0.58166665
0.14701812 -0.018781194 0.58466667
0.062582038 -0.011061814 0.57999998
0.063159287 -0.0089039095 0.58033329
0.095349446 -0.0056745461 0.58200002
0.13875383 -0.0070739537 0.58109987
0.14176668 -0.0073033879 0.58212495
0.097910091 -0.0018338101 0.58184612
0.10078884 -0.00060872885 0.57999998
0.13360949 -0.0018748775 0.58087498
0.13718724 -0.0025217186 0.58171415
0.14035851 -0.0035077736 0.5826667
0.098696738 0.002345456 0.58353847
0.1020975 0.0028449933 0.58071429
0.13747881 0.00083810301 0.58350003
0.066767633 0.0095411353 0.58350003
0.098567545 0.0073843105 0.58499998
0.10234279 0.0072420994 0.58278573
0.10621662 0.0085347975 0.5807777
0.053153228 0.014976251 0.58333331
0.058307886 0.014092027 0.58050001
0.062601335 0.013195477 0.5826875
0.066408448 0.012854608 0.5828824
0.10341061 0.011938524 0.58463639
0.10731228 0.012776708 0.58216006
0.11093135 0.013686286 0.58049995
0.052527789 0.016457975 0.58444446
0.057538658 0.016619254 0.58370006
0.062496684 0.016089061 0.58425003
0.065191202 0.016082177 0.58399999
0.1045661 0.015019039 0.58499998
0.10816924 0.017174112 0.58407694
0.11231133 0.017971069 0.58244443
0.11556695 0.019216085 0.57999998
0.11336277 0.021865664 0.58407694
0.11654694 0.023216598 0.58141178
0.12876448 0.02412463 0.58099997
0.11438192 0.026471132 0.58499998
0.11733632 0.027375698 0.5826667
0.12144906 0.028254472 0.5805555
0.12792526 0.027967254 0.58210003
0.11789323 0.032050561 0.58429998
0.12247532 0.032305125 0.58200002
0.12755688 0.032354034 0.58289999
0.12256176 0.036287211 0.58499998
0.12637903 0.036832545 0.58499998
-0.060666848 0.064099438 0.58499998
-0.057119548 0.06358505 0.58457142
-0.052125312 0.063820772 0.5842728
-0.047471266 0.06395179 0.58366674
-0.04270168 0.063987516 0.58328569
-0.039264545 0.064967245 0.583
-0.061709154 0.06756819 0.58419997
-0.057459891 0.067302853 0.58313632
-0.052571148 0.067063488 0.58190471
-0.047308028 0.067108825 0.58071423
-0.042190466 0.067257933 0.58088893
-0.037634108 0.067468822 0.58252949
-0.033199422 0.068057701 0.583875
-0.029038098 0.069552816 0.58499998
-0.066733696 0.073606931 0.58400005
-0.0625166 0.072437555 0.5819
-0.057856005 0.07160195 0.58029413
-0.053119715 0.070039697 0.57999998
-0.040143818 0.070039697 0.57999998
-0.037321463 0.071077973 0.58045447
-0.032598257 0.072370179 0.58208328
-0.028711431 0.072779782 0.58391672
-0.071581565 0.078200951 0.58442861
-0.067374714 0.077461563 0.58208692
-0.062867381 0.076082967 0.58014286
-0.031667717 0.077501461 0.58169228
-0.027344855 0.077444538 0.58380955
-0.023685681 0.078469224 0.58479995
-0.072159007 0.08258345 0.58323526
-0.067450367 0.08228194 0.5811305
-0.063932963 0.082475267 0.57999998
-0.031465992 0.081736922 0.58116657
-0.027291743 0.082311764 0.58268005
-0.023914041 0.082886763 0.58416671
-0.075903684 0.088056184 0.58475
-0.07236173 0.087724522 0.58254999
-0.067530856 0.08726868 0.58050001
-0.030422384 0.087372221 0.58020002
-0.027366869 0.087608814 0.58237499
-0.023739142 0.086177982 0.5843333
-0.075697221 0.090992384 0.58399999
-0.072259285 0.0925126 0.5826
-0.067352794 0.092377178 0.58052629
-0.063500427 0.092964388 0.57999998
-0.031100012 0.092944734 0.57999998
-0.027457556 0.092224762 0.58238882
-0.075132832 0.095401749 0.583
-0.071734682 0.096202321 0.58314288
-0.067318782 0.097198077 0.58249992
-0.062785394 0.097621948 0.58125001
-0.059607666 0.099236242 0.57999998
-0.035818521 0.098695569 0.57999998
-0.032514922 0.097869121 0.58099997
-0.02864572 0.096932128 0.58370006
-0.07139153 0.10045529 0.58499998
-0.067801654 0.10213997 0.58489472
-0.062628016 0.10245737 0.58293748
-0.057971355 0.10264646 0.58093333
-0.052939493 0.10428256 0.57999998
-0.047713093 0.10464302 0.57999998
-0.040143818 0.10356166 0.57999998
-0.037377149 0.10275154 0.58152938
-0.033352088 0.1015818 0.58311111
-0.029583421 0.10009173 0.58499998
-0.067672156 0.10680359 0.58499998
-0.062276661 0.10631802 0.58475
-0.057398986 0.10768767 0.58415788
-0.05262718 0.1078045 0.58229405
-0.047680948 0.1070059 0.58149999
-0.042284202 0.10749628 0.58126318
-0.037354209 0.10758 0.58357888
-0.033946007 0.10718112 0.58499998
-0.056400467 0.11097714 0.5826
-0.054026261 0.11079096 0.58200002
-0.045864582 0.11080875 0.58399999
-0.04261208 0.1108467 0.58420002
-0.037730992 0.11090362 0.58449996
0.11935346 -0.04519872 0.588
0.12280866 -0.045260213 0.58880001
0.1283883 -0.046190932 0.58977777
0.13238135 -0.04589285 0.58987498
0.13783032 -0.045666743 0.58999997
0.14230877 -0.045902457 0.58999997
0.14545922 -0.04561663 0.58866668
0.11819416 -0.043560434 0.58660001
0.122763 -0.043832857 0.5868333
0.1277343 -0.043323472 0.58733332
0.13269725 -0.043096401 0.58814281
0.13742639 -0.043186404 0.58772725
0.14277433 -0.043768872 0.58771431
0.14516777 -0.043406177 0.58600003
0.15063033 -0.021009106 0.58600003
0.1443211 -0.016120138 0.58700001
0.14752844 -0.016766772 0.58670002
0.14334774 -0.011976022 0.58627272
0.14625478 -0.013091249 0.58785713
0.143529 -0.008991166 0.58600003
0.14541548 -0.0084593073 0.58700001
0.14103799 -0.00025127415 0.58700001
0.014162461 0.0041474318 0.58999997
0.01526243 0.0041474318 0.58999997
0.096824154 0.0032999089 0.58600003
0.13770524 0.0031216207 0.58823073
0.14169808 0.0029172727 0.58822221
0.0090662511 0.0089504151 0.58759999
0.012385065 0.0080947429 0.58913326
0.015537421 0.0088224206 0.58999997
0.096915193 0.0070327544 0.58600003
0.13421297 0.0077710827 0.58666664
0.13771777 0.0074079842 0.58683997
0.14127824 0.0057777762 0.588
0.0083581368 0.012027086 0.58638459
0.012461572 0.012345439 0.58756244
0.016242908 0.012530944 0.58927274
0.09803962 0.012461027 0.58773333
0.1012626 0.012743531 0.58622223
0.13438085 0.010729201 0.58899999
0.13751301 0.012345529 0.58899999
0.140182 0.01125912 0.588
0.0097129485 0.015070387 0.58700001
0.012454887 0.015624242 0.58724999
0.016109871 0.015555853 0.58880001
0.049361445 0.017347401 0.58999997
0.052109521 0.018565906 0.58791661
0.05734222 0.018909553 0.58724999
0.06160564 0.018271515 0.58875
0.098821349 0.016749172 0.5897693
0.10276966 0.01729933 0.5883044
0.10638245 0.018804763 0.58642858
0.052951019 0.021643503 0.58946145
0.057562586 0.022043778 0.58950001
0.060361125 0.021197394 0.58999997
0.10322057 0.021617187 0.58977777
0.10745791 0.022366023 0.58833331
0.11135793 0.023293415 0.58630764
0.13262147 0.022971397 0.58849996
0.048994791 0.029080709 0.58999997
0.052884817 0.027593011 0.58957148
0.057562388 0.027223174 0.58950001
0.061593998 0.027680725 0.5898667
0.1081861 0.026881007 0.58949995
0.11236017 0.027783394 0.58711118
0.13233471 0.027272951 0.58819997
0.048794724 0.032736082 0.5898
0.052572098 0.032691866 0.58899981
0.057528533 0.03270065 0.58914983
0.061535552 0.031913739 0.58983332
0.10930972 0.030547375 0.58999997
0.11320298 0.032046448 0.58833337
0.11623058 0.034223396 0.58700001
0.1323159 0.031390578 0.58775002
0.053069014 0.036318004 0.58928573
0.055913828 0.036566809 0.58949995
0.11849422 0.037296522 0.58918184
0.12189499 0.038180795 0.58616668
0.12659508 0.039080594 0.58600003
0.11975942 0.042647343 0.58999997
0.12245438 0.042380705 0.5875417
0.12623151 0.042671952 0.58754539
0.11975941 0.045947336 0.58999997
0.12275733 0.047283214 0.5897693
0.126118 0.047369547 0.58990002
-0.056785494 0.05914731 0.58999997
-0.052020859 0.058887206 0.58959997
-0.047014456 0.05837575 0.58876473
-0.042961884 0.058889117 0.58900005
-0.066552795 0.063745379 0.58979994
-0.062497657 0.062272318 0.58784997
-0.057547133 0.06114855 0.5873571
-0.052544575 0.061280616 0.58726662
-0.047928847 0.061211538 0.58659995
-0.042409919 0.061324317 0.58678567
-0.037524883 0.062368512 0.5884167
-0.032882482 0.063591741 0.58939999
-0.029286288 0.064647295 0.58999997
-0.076034941 0.068497285 0.58999997
-0.072292417 0.068605527 0.58974999
-0.067506805 0.067635179 0.58831584
-0.063952632 0.066572681 0.586375
-0.036189061 0.065301552 0.58600003
-0.03183236 0.066148818 0.58625001
-0.027524302 0.067784972 0.58765
-0.024253933 0.069909498 0.588
-0.077454478 0.072805189 0.58981252
-0.07256379 0.072173215 0.58859998
-0.068071514 0.071451098 0.58666664
-0.02615108 0.072220966 0.58630002
-0.022701705 0.072636418 0.58759999
-0.019925291 0.073040359 0.58966666
-0.076659746 0.077183895 0.58774996
-0.073382989 0.076781087 0.58638459
-0.025810204 0.075134419 0.58600003
-0.022175241 0.077039942 0.58719999
-0.019460311 0.078142174 0.5898571
-0.076156028 0.083276771 0.5872857
-0.074426942 0.081689656 0.58600003
-0.022016749 0.082352869 0.5868333
-0.018924296 0.081896231 0.58963639
-0.077131413 0.086289786 0.58757144
-0.022211131 0.087909125 0.58813339
-0.019515619 0.087298259 0.58974999
-0.07558389 0.094334751 0.58650005
-0.074553944 0.094961911 0.58700001
-0.02564249 0.09448988 0.58633333
-0.022631509 0.092481427 0.58862501
-0.019936554 0.091597229 0.58999997
-0.072001033 0.098973483 0.58699995
-0.026164198 0.097850218 0.58659995
-0.02280239 0.097422667 0.58827776
-0.070421062 0.10426882 0.58600003
-0.06677936 0.10408673 0.58600003
-0.035096548 0.104633 0.58600003
-0.031830873 0.10370153 0.58622223
-0.027541988 0.1025157 0.58695453
-0.023326084 0.10143803 0.58828574
-0.070603147 0.10681807 0.58600003
-0.067238785 0.10838483 0.5862
-0.062463038 0.10868646 0.58649999
-0.035460718 0.10791061 0.58600003
-0.032405525 0.10668094 0.58674997
-0.029352864 0.10639104 0.58766669
-0.061143536 0.1111719 0.58783334
-0.058767617 0.11191659 0.58600003
-0.0503917 0.11009569 0.58600003
-0.047660422 0.11009569 0.58600003
-0.041942045 0.11205601 0.58625007
-0.038117789 0.112056 0.58625001
0.12304958 -0.047542382 0.59259999
0.1263144 -0.047883466 0.59237498
0.13263348 -0.048000339 0.59100002
0.1368047 -0.04716083 0.59100002
0.1440402 -0.0013610095 0.59357136
0.14659585 -0.00025427059 0.59399998
0.013106774 0.0041614911 0.59200001
0.016941048 0.0041544614 0.59100002
0.14390801 0.0017312269 0.59160006
0.14604183 0.0017328346 0.59219998
0.013360091 0.0055317893 0.59100002
0.017677825 0.0073488113 0.59136838
0.02111784 0.0083036209 0.59224999
0.018968482 0.012239452 0.59122223
0.020809194 0.011873568 0.59133333
0.019161377 0.015185919 0.59150004
0.048579633 0.019146411 0.59120005
0.064076371 0.018724052 0.59180003
0.067332372 0.018650744 0.59327269
0.096624106 0.018522678 0.59238458
0.13759172 0.015173082 0.59100002
0.047901686 0.02238773 0.59237498
0.052120991 0.023515752 0.59100002
0.057708859 0.023987977 0.59100002
0.062598951 0.022619937 0.59173334
0.066939004 0.022262292 0.59328568
0.09797959 0.022201251 0.59371424
0.10166448 0.022939939 0.5923636
0.13538806 0.022335187 0.59100002
0.044158977 0.028539563 0.59399998
0.047104672 0.02710904 0.59245455
0.051373322 0.025365306 0.59100002
0.064086556 0.026589153 0.5916667
0.067010395 0.027475992 0.59321421
0.10352881 0.025871746 0.59312493
0.10621844 0.028242132 0.59239995
0.044158973 0.032415658 0.59399998
0.046242464 0.032324705 0.59233332
0.064025126 0.032839876 0.5916667
0.06649176 0.032200452 0.59344441
0.10824789 0.032275822 0.59255558
0.11087388 0.033198535 0.59150004
0.04373439 0.037806164 0.59387493
0.047182508 0.037470225 0.59208697
0.05249634 0.038481705 0.59100002
0.057980303 0.037942212 0.59135723
0.062576346 0.037128519 0.5919565
0.065974079 0.036948279 0.59266663
0.10906651 0.0355337 0.59366667
0.11284979 0.037199743 0.59333336
0.1165209 0.038226184 0.5915556
0.043586671 0.04236538 0.59374994
0.047391821 0.042682257 0.59174997
0.052299231 0.042536147 0.59149998
0.057412934 0.042357817 0.59242105
0.061700758 0.041664653 0.59362495
0.065200053 0.040721569 0.59399998
0.11392679 0.040721569 0.59399998
0.11730488 0.042059146 0.59264708
0.042948108 0.047629479 0.59359998
0.047253534 0.047666062 0.59247619
0.05246941 0.047672957 0.59294122
0.056197379 0.046525646 0.59354538
0.11902009 0.046834856 0.59289992
0.12111498 0.049076207 0.59125006
-0.051079638 0.054011032 0.59399998
-0.047736529 0.054157067 0.59258336
-0.043327659 0.054011032 0.59399998
0.042852718 0.052188393 0.59361529
0.047401316 0.052261721 0.59300011
0.05186782 0.051752709 0.59349996
0.11946392 0.051242396 0.59399998
0.12258285 0.051944952 0.59270585
0.12679857 0.052377023 0.5928461
-0.05734925 0.056650776 0.59266669
-0.052703105 0.05650831 0.59233338
-0.047897469 0.056141395 0.59116668
-0.042180963 0.056428179 0.59249997
-0.037680887 0.058824904 0.5923
-0.032556705 0.05836248 0.5921818
-0.029122641 0.059045922 0.5934
0.043189973 0.056087516 0.59399992
0.047207668 0.056034155 0.59376913
0.050803527 0.055118486 0.59399998
0.1276886 0.055637423 0.59362495
-0.067250371 0.062343173 0.59110004
-0.064043656 0.060349423 0.59100002
-0.035396006 0.060349423 0.59100002
-0.032337651 0.061392345 0.59150004
-0.028615475 0.062909059 0.59276921
-0.075315997 0.067187198 0.59299999
-0.072300211 0.066868462 0.59157145
-0.026382264 0.065776885 0.59274995
-0.022809811 0.067975841 0.59324998
-0.018501237 0.074306339 0.59100002
-0.017378496 0.07753852 0.59145457
-0.016571026 0.082360864 0.59160006
-0.016833952 0.08709462 0.59212494
-0.018042142 0.092165686 0.59099996
-0.020473395 0.097226903 0.59280002
-0.018921725 0.096984215 0.59266669
-0.023643123 0.10405662 0.59100002
0.14900577 -0.0002555548 0.597
0.14900577 0.00085749361 0.597
0.068083048 0.016385097 0.59500003
0.043418735 0.02374645 0.59600002
0.045342606 0.022486353 0.59500003
0.068637699 0.021931695 0.59500003
0.094467841 0.02423151 0.597
0.095895357 0.023060376 0.59549999
0.039203037 0.027973194 0.59610003
0.042320773 0.027312193 0.59564716
0.069497034 0.027345674 0.5955714
0.070975363 0.027524475 0.59600002
0.094467841 0.025901083 0.597
0.097661987 0.027229462 0.59679997
0.10185536 0.02825327 0.59617656
0.10524428 0.029696932 0.59500003
0.038316615 0.031992029 0.59641677
0.042066921 0.032511085 0.59575003
0.068360373 0.031915572 0.59500003
0.098372325 0.031279601 0.59875
0.10272706 0.032395925 0.59782356
0.1062559 0.032731317 0.59570003
0.039996807 0.036536142 0.59799999
0.041835587 0.037274655 0.59641671
0.10440446 0.035832971 0.59866667
0.1076194 0.037732556 0.59676182
0.11122256 0.039333265 0.59533334
0.04104634 0.042602833 0.59708339
0.063283399 0.043184038 0.59549999
0.065364711 0.042490251 0.59549999
0.1084362 0.041762847 0.5983333
0.11206784 0.042651918 0.59652632
0.11559766 0.043748315 0.59500003
0.038907234 0.047952697 0.59707695
0.041168556 0.046605311 0.59560001
0.058530957 0.048109494 0.59535724
0.062469117 0.047472607 0.59611106
0.11332717 0.047493868 0.59805876
0.11692731 0.047881301 0.59635299
-0.056530505 0.05327782 0.59642857
-0.052941456 0.053288225 0.5955556
-0.048392408 0.051883325 0.59500003
-0.041097842 0.053615987 0.597
-0.037836436 0.053973421 0.59766668
0.038072675 0.052681681 0.59664708
0.040905446 0.052992642 0.59500003
0.053492587 0.053377569 0.59516668
0.057681035 0.052562397 0.59639996
0.062425919 0.05238685 0.59621435
0.11451352 0.051487595 0.59899998
0.11785924 0.0524204 0.59750003
0.12097607 0.054192889 0.59600002
-0.040207431 0.055396862 0.597
-0.037413191 0.056492422 0.59683341
-0.03466168 0.05653898 0.59733337
0.034479953 0.057257615 0.59899998
0.037910953 0.057407066 0.59790903
0.042154092 0.058328126 0.59566671
0.047873061 0.058858033 0.59541678
0.052566029 0.057195283 0.59640008
0.05705056 0.056191068 0.59755564
0.060622141 0.055489656 0.59799999
0.1189473 0.057242144 0.59883332
0.12225041 0.057605151 0.59680003
0.12692651 0.058277905 0.59635729
-0.02657805 0.062139198 0.59644443
-0.0230204 0.063694231 0.59711117
0.034107704 0.064144403 0.59899998
0.038027652 0.062751032 0.59842104
0.042725828 0.062652454 0.59718752
0.04712088 0.061883423 0.59709096
0.12257898 0.061105065 0.5984
0.12661162 0.061166331 0.59899998
-0.021369334 0.066156186 0.59588897
-0.018799905 0.068169281 0.59580004
0.033464726 0.067460887 0.59899998
0.037325595 0.067071818 0.59874994
0.041973356 0.066618808 0.59872729
-0.021769445 0.070741758 0.59500003
-0.01899622 0.070741758 0.59500003
0.033611372 0.071341418 0.59899998
0.036155071 0.071217321 0.59899998
0.14975454 0.0019804442 0.60000002
0.095484942 0.0290804 0.60060006
0.097376205 0.033077549 0.60171431
0.10096435 0.034067292 0.60033333
0.04033123 0.039090093 0.60299999
0.094449438 0.039154921 0.60399997
0.097905435 0.037557121 0.6031875
0.10218709 0.037522312 0.60150003
0.10501006 0.038336299 0.60000002
0.038614288 0.042609256 0.60155559
0.040264346 0.04014764 0.602
0.094136685 0.04127001 0.602
0.096221693 0.040623266 0.60239995
0.10278635 0.041880261 0.60317653
0.10663232 0.042873763 0.60087502
0.037354786 0.046751451 0.60033327
0.10458405 0.046474561 0.60399997
0.10773917 0.047363721 0.60210532
0.11103743 0.047685202 0.60033333
0.10855938 0.050802331 0.60285711
0.11215133 0.05284952 0.602
0.11604955 0.054145515 0.60039997
0.033046037 0.058658287 0.60000002
0.11363811 0.056211472 0.60275
0.11693911 0.057378896 0.60161537
-0.023669684 0.062491074 0.60100001
0.028698364 0.064536847 0.60266668
0.032219049 0.062394112 0.6006
0.035935782 0.060988791 0.60000002
0.047401555 0.063505732 0.60000002
0.11833277 0.062466934 0.6018948
0.12241652 0.063541628 0.60033327
0.1274008 0.06331531 0.60121429
0.027884485 0.067559034 0.60315388
0.030864894 0.067358986 0.60111111
0.039011963 0.069098942 0.60000002
0.04310387 0.068596974 0.60049999
0.046569381 0.067433409 0.60288882
0.11861406 0.066881359 0.60320008
0.12248918 0.067796953 0.6022222
0.12741858 0.067737766 0.60281247
0.13048366 0.067307398 0.60399997
0.028527077 0.070568666 0.60299999
0.032106016 0.072882921 0.60018176
0.037831631 0.07296972 0.60028565
0.042315949 0.072320372 0.60140902
0.047459934 0.072510242 0.60378581
0.12245815 0.071166269 0.60330003
0.12724681 0.071067207 0.6031428
0.033978209 0.076370113 0.60000002
0.037166789 0.076820917 0.60089999
0.042594001 0.076212816 0.60318184
0.046873011 0.07547161 0.60399997
0.039597146 0.034937371 0.60900003
0.039197009 0.038132783 0.60866666
0.037229247 0.042611655 0.60742861
0.094683997 0.043203764 0.60549998
0.097909197 0.043123599 0.60550004
0.10125314 0.043881863 0.60512501
0.036190972 0.045156159 0.60900003
0.098366596 0.046731979 0.60733336
0.10244608 0.047897939 0.6061666
0.10588515 0.049371421 0.60500002
0.10368787 0.05097688 0.60800004
0.10708217 0.052790001 0.60638463
0.10872994 0.056446351 0.60830003
0.11240453 0.058111016 0.6061765
0.11603655 0.059523094 0.60500002
0.1133047 0.062129393 0.60750002
0.11563455 0.062629275 0.60542858
0.13107567 0.063658953 0.60500002
0.048956845 0.067462295 0.60539997
0.051006321 0.06837707 0.60516667
0.11453295 0.066161454 0.60900003
0.11664788 0.067832425 0.60638463
0.13160202 0.066967659 0.60500002
0.049488466 0.071366712 0.60500002
0.052116539 0.072724283 0.60557139
0.056060314 0.07467711 0.60900003
0.11809334 0.07262446 0.60725003
0.12236682 0.073699281 0.60562497
0.1255738 0.073516399 0.6056667
0.039597146 0.079218797 0.60900003
0.042955309 0.078409217 0.60566664
0.047906868 0.077680148 0.60584617
0.052520156 0.077319056 0.60743755
0.056628007 0.076947957 0.60900003
0.11907452 0.075812533 0.60900003
0.12223749 0.076230109 0.60780001
0.12588686 0.075812533 0.60900003
0.039597146 0.080354214 0.60900003
0.042435624 0.080354214 0.60900003
0.047544882 0.080354214 0.60900003
0.033462025 0.033912953 0.611
0.036629483 0.034236543 0.61000007
0.02961983 0.03522421 0.61400002
0.032611746 0.037256259 0.61288881
0.036608756 0.037710927 0.61057144
0.033585012 0.042613391 0.61324996
0.03563343 0.042183094 0.61057144
0.094868459 0.048961129 0.61400002
0.09712138 0.048195023 0.61062497
0.094868459 0.05010587 0.61400002
0.097778484 0.05266121 0.61328566
0.10197996 0.053043813 0.61074996
0.10562298 0.054328594 0.61000001
0.09944731 0.055829588 0.61400002
0.10299799 0.057190388 0.61270589
0.10681236 0.05776922 0.61030006
0.10415232 0.060807057 0.61340004
0.10756807 0.062510356 0.61214286
0.1110405 0.06301374 0.61040008
0.109249 0.067395069 0.61333334
0.11242685 0.067675918 0.61127782
0.11585827 0.069113307 0.61000001
0.11317645 0.071861245 0.61264282
0.11583041 0.073097758 0.61071432
0.12864991 0.074202552 0.61133331
0.056152366 0.079348877 0.61000001
0.11447371 0.076627791 0.61325002
0.11714593 0.077854984 0.61142099
0.12216322 0.078812756 0.61025006
0.1274415 0.077747136 0.61184615
0.13035455 0.079869196 0.61400002
0.042748999 0.082110859 0.61000007
0.047177311 0.082976781 0.61158335
0.052462835 0.082553916 0.61199999
0.056394123 0.082547769 0.612625
0.11824991 0.082207792 0.61314285
0.12243883 0.082412094 0.61162496
0.12675835 0.08227776 0.61274999
0.13035455 0.081013948 0.61400002
0.047935233 0.086165287 0.61400002
0.052023493 0.085919984 0.61400002
0.11890743 0.086165287 0.61400002
0.12248114 0.086899787 0.61362499
0.12731807 0.086620919 0.61390907
0.028643779 0.037802313 0.61558336
0.030814646 0.039294705 0.61500001
0.028402727 0.042599496 0.61778563
0.031406719 0.042760931 0.61537504
0.024071399 0.047589798 0.61849999
0.027626213 0.047638454 0.61794734
0.032596339 0.047413323 0.61618751
0.035976175 0.047678445 0.61642855
0.028022217 0.051455226 0.61874998
0.032697391 0.051592544 0.6180833
0.035976887 0.050844181 0.61833334
0.093876392 0.05076078 0.61500001
0.0958829 0.053340651 0.61500001
0.094486974 0.058015324 0.61900002
0.097664446 0.057849329 0.61722219
0.10113805 0.058978137 0.61500001
0.13718624 0.059746426 0.61900002
0.098152868 0.062387951 0.61821425
0.10201168 0.062763505 0.61613339
0.10534216 0.063946769 0.61500001
0.13741705 0.06136211 0.61900002
0.09852609 0.065516755 0.61900002
0.10262638 0.066994272 0.61783338
0.10696068 0.067727759 0.61569226
0.10396539 0.070393205 0.61875004
0.10774156 0.072250664 0.6179412
0.11090092 0.073385872 0.61585712
0.10911246 0.07670711 0.61849999
0.11228803 0.077548057 0.61677778
0.12942028 0.078279361 0.61500001
0.13109122 0.078555942 0.61566663
0.11339691 0.082187809 0.6176666
0.11651978 0.08388976 0.61549997
0.12884699 0.083439097 0.61500001
0.13076028 0.083022483 0.61699998
0.048586592 0.088598832 0.61500001
0.052752797 0.088217281 0.61566669
0.055746406 0.087406121 0.616
0.11372087 0.086674608 0.61900002
0.11699268 0.087912768 0.61733329
0.12168089 0.088885486 0.61500001
0.12712713 0.089172132 0.61500001
0.049032636 0.091477081 0.61699998
0.052089121 0.091528289 0.61799997
0.055249795 0.090906188 0.61900002
0.11861658 0.092189476 0.61845452
0.12249696 0.092212185 0.61682355
0.12662625 0.092145853 0.61599994
0.11929871 0.095522441 0.61900002
0.12302554 0.096907221 0.61876923
0.12660174 0.097025685 0.61854547
0.024207614 0.04438059 0.62199998
0.025918936 0.043754131 0.62133336
0.023589814 0.048361521 0.62099999
0.025326459 0.046045933 0.62099999
0.023146499 0.052536074 0.62181813
0.026923481 0.053582497 0.62112498
0.032851923 0.054150492 0.62099999
0.036760651 0.05306381 0.62183332
0.13936614 0.054150492 0.62099999
0.14110279 0.054150492 0.62099999
0.023350971 0.056797609 0.62322223
0.027136702 0.057201214 0.62268752
0.032353781 0.057188999 0.62255001
0.036190432 0.055783898 0.62199998
0.094792254 0.059939459 0.62099999
0.095950022 0.059939459 0.62099999
0.13834196 0.057267629 0.62099993
0.14165339 0.057407193 0.62239999
0.024246536 0.060132504 0.62300003
0.027172988 0.060180761 0.62349999
0.031847272 0.060616821 0.62400001
0.094792254 0.06283395 0.62099999
0.095950022 0.062833942 0.62099999
0.13755231 0.063258477 0.62099999
0.14165126 0.061869141 0.62149996
0.097694121 0.067643665 0.62264287
0.10058106 0.068622917 0.62099999
0.13853179 0.067496382 0.62357146
0.14056474 0.06776458 0.62375003
0.099612787 0.07157205 0.62400001
0.10239754 0.072519943 0.6225
0.10608044 0.074122436 0.62099999
0.13441652 0.073801883 0.62400001
0.13829437 0.070699513 0.62400001
0.14062108 0.070699513 0.62400001
0.10357794 0.076591834 0.6235556
0.10725904 0.077834509 0.62213331
0.10769811 0.081902079 0.6236667
0.11121414 0.083256468 0.62219995
0.11231115 0.087272115 0.62284619
0.049178645 0.094901964 0.6225
0.052830331 0.094264202 0.62157142
0.056353811 0.09346582 0.62162501
0.11350174 0.092120342 0.62300009
0.11665702 0.09348765 0.62166667
0.042993583 0.099000506 0.62199998
0.047911234 0.098244302 0.62259996
0.052661721 0.097803451 0.6225
0.057061512 0.097981013 0.62257141
0.11386389 0.095130645 0.62400001
0.11752428 0.097575314 0.62326658
0.12113204 0.098612241 0.62149996
0.038123146 0.10062402 0.62199998
0.042181842 0.10062402 0.62199998
0.047447011 0.1007211 0.62259996
0.05270309 0.10078581 0.62300003
0.056187566 0.10078581 0.62300003
0.11948889 0.10078581 0.62300003
0.12273462 0.10059167 0.62180001
0.12663074 0.10046225 0.62099999
0.1481189 0.048057582 0.62663627
0.15094098 0.047952045 0.62699997
0.14421952 0.054673683 0.62699997
0.14796478 0.052415464 0.62800002
0.15171562 0.050157245 0.62900001
0.14439985 0.057436083 0.62524998
0.14556554 0.057436083 0.62524998
0.028172299 0.062533081 0.62542856
0.030859256 0.062676467 0.62519997
0.14480399 0.060518589 0.62699997
0.096290737 0.069284081 0.62699997
0.13804993 0.068249255 0.625
0.097190946 0.072683133 0.62668747
0.10006372 0.074308559 0.625
0.13760027 0.0729803 0.62559998
0.097821869 0.077390857 0.62771428
0.10136078 0.077694982 0.62581819
0.13404965 0.077585705 0.62699997
0.13731548 0.077529877 0.62749994
0.14096607 0.079084076 0.62900001
0.098651938 0.080940872 0.62900001
0.10289504 0.081935868 0.62723529
0.10658506 0.083914302 0.62566662
0.13736524 0.081455484 0.62699997
0.14066808 0.080866389 0.62766665
0.10392899 0.086218059 0.62900001
0.10733505 0.087473616 0.62664998
0.11099807 0.089116126 0.62533331
0.10830452 0.091086075 0.62819993
0.11097316 0.092843242 0.62740004
0.11270101 0.096871145 0.62636364
0.11566144 0.098443113 0.62533331
0.14742035 0.05252808 0.63119996
0.15144965 0.052614577 0.63033336
0.14873499 0.057637412 0.63099998
0.15144858 0.056742799 0.6318
0.14667138 0.060808152 0.63
0.094407044 0.068783492 0.63133335
0.095654175 0.067909442 0.63049996
0.14405663 0.067695409 0.634
0.14523862 0.067695409 0.634
0.094502591 0.072317839 0.63022226
0.14271989 0.072783284 0.63200003
0.1457963 0.072374873 0.63299996
0.095483549 0.078313358 0.63066667
0.14229058 0.076481387 0.63139999
0.14523862 0.075378612 0.634
0.09782768 0.083192877 0.63124996
0.10086422 0.083712339 0.63
0.13683285 0.084001996 0.63028574
0.14124565 0.083979025 0.63199997
0.097752474 0.087606102 0.63266665
0.10170445 0.087612897 0.63112497
0.13424678 0.088149242 0.63233334
0.13715464 0.087321348 0.63135296
0.14021514 0.088195704 0.63266665
0.10294733 0.091794513 0.63249999
0.1070732 0.092842676 0.63072729
0.13359319 0.092205517 0.63242859
0.1371177 0.091128655 0.63314283
0.14051063 0.090745017 0.634
0.10757928 0.09509667 0.63150001
0.11026056 0.09604536 0.63
0.14847019 0.063011006 0.63700008
0.15142868 0.062737636 0.63766664
0.14451106 0.069687597 0.63599998
0.14775783 0.06718798 0.63676476
0.15075511 0.066268332 0.63733333
0.14830106 0.074547671 0.63700002
0.14473829 0.079298161 0.63700002
0.14798225 0.077717736 0.6376667
0.14473829 0.081079602 0.63700002
0.14788188 0.081175074 0.63775003
0.099058129 0.091426529 0.63599998
0.1006391 0.092217036 0.63599998
0.13976815 0.092217036 0.63599998
0.14095388 0.092217036 0.63599998
0.032689951 0.083535098 0.6480909
0.036583208 0.084031761 0.64600003
0.040798511 0.084031761 0.64600003
0.034227364 0.085368112 0.64700001
0.037787579 0.085236169 0.64600003
0.040861666 0.085368112 0.64700001
0.023479603 0.083340213 0.64999998
0.027519034 0.082936257 0.65000004
0.030144665 0.082128353 0.64999998
-0.31513771 0.059006397 0.68400002
-0.3114734 0.058433786 0.68311113
-0.31513771 0.06091927 0.68400002
-0.31258726 0.06091927 0.68400002
-0.3104901 0.059731219 0.685
-0.30827099 0.058518101 0.68575001
-0.3104901 0.061008334 0.685
-0.30793595 0.061008334 0.685
0.19829178 -0.097915538 0.93400002
0.20003308 -0.097915538 0.93400002
0.20742384 -0.095968232 0.93199998
0.49378356 -0.096941888 0.93299997
0.4960551 -0.097915538 0.93400002
0.48820686 -0.10019038 0.93899995
0.47734514 -0.12070534 0.963
0.47375441 -0.11621679 0.963
0.47734511 -0.11711451 0.963
0.48153436 -0.11651603 0.963
0.47256589 -0.1189536 0.96700001
0.47523028 -0.11928037 0.96600002
0.4833346 -0.11928037 0.96600002
0.48723674 -0.1180797 0.96600002
0.47735 -0.12390005 0.97399998
0.31096935 -0.13001183 0.97899997
0.4724997 -0.13001183 0.97899991
0.30275592 -0.12636133 0.97899997
0.31188193 -0.12727395 0.97900003
0.31553236 -0.12636133 0.97899997
0.46357352 -0.12616773 0.97749996
0.46650276 -0.12597413 0.97600001
0.47158709 -0.12727395 0.97899997
0.47706267 -0.12727395 0.97899997
0.46286356 -0.12415446 0.97600001
0.46741256 -0.12415447 0.97600001
0.46753982 -0.12857941 0.98199999
0.47028598 -0.12857941 0.98199999
0.44092476 -0.14133821 0.98799998
0.46302855 -0.13120703 0.98799998
0.4680019 -0.13194385 0.98800004
0.44503498 -0.14084357 0.991
0.44270897 -0.1391362 0.99199998
0.44503498 -0.13899595 0.991
0.46720588 -0.13345307 0.991
0.44304013 -0.1410493 0.99900001
0.45142132 -0.14011802 0.99900001
0.4695631 -0.14155418 0.99599999
0.44769636 -0.13825548 0.99900001
0.45235261 -0.13825548 0.99900001
0.45607755 -0.13825548 0.99900001
0.47142002 -0.13784029 0.99599999
0.36217496 -0.14614317 1.002
0.35470265 -0.14053878 1.002
0.35750479 -0.14053878 1.002
0.36217499 -0.14100581 1.002
0.38768551 -0.15810214 1.0140001
0.39319339 -0.16160361 1.017
0.39603746 -0.16160361 1.017
0.38466117 -0.15591533 1.017
0.38750523 -0.15591533 1.017
0.39262456 -0.15819065 1.017
0.39603746 -0.15875947 1.017
0.38731563 -0.15174392 1.017
0.39034933 -0.15117508 1.017
0.39340243 -0.15637526 1.02
0.39768112 -0.15685068 1.02
0.38389423 -0.15257189 1.02
0.38769752 -0.15352273 1.02
0.39276853 -0.15383968 1.02
0.39683762 -0.1537499 1.0215
0.40028122 -0.15492791 1.023
0.4403331 -0.15492791 1.023
0.41413942 -0.16159201 1.029
0.41605785 -0.16159201 1.029
0.40336788 -0.15825155 1.026
0.40646577 -0.15871429 1.029
0.41413942 -0.15967353 1.029
0.41605785 -0.15967353 1.029
0.40957475 -0.16013904 1.0319999
0.41278139 -0.16078039 1.0319999
0.41919482 -0.16013904 1.0319999
0.42111883 -0.16013904 1.0319999
0.43255457 -0.16347645 1.041
