# .PCD v0.7 - Point Cloud Data file format
VERSION 0.7
FIELDS x y z
SIZE 4 4 4
TYPE F F F
COUNT 1 1 1
WIDTH 1190
HEIGHT 1
VIEWPOINT 0 0 0 1 0 0 0
POINTS 1190
DATA ascii
0.033927679 0.10399708 0.60417861
0.021972619 0.090950675 0.63252735
0.032822762 0.10724749 0.59451008
0.031937271 0.10674381 0.59517789
0.032276504 0.10412257 0.60310018
0.019726623 0.090482987 0.63247937
0.014815331 0.087381952 0.6374349
0.014298856 0.087036572 0.63849151
0.026698489 0.10540672 0.59639114
0.02521392 0.10393567 0.59890622
0.023372933 0.10221401 0.60360569
0.013999205 0.091869846 0.62577236
0.011570416 0.089205585 0.6309762
0.012020305 0.088258497 0.63387656
0.013456501 0.087123483 0.63774341
0.025142774 0.10522752 0.5958665
0.023960374 0.10356046 0.59911323
0.021898687 0.10214765 0.60247213
0.012381531 0.091701798 0.62528199
0.011035338 0.089632265 0.62907463
0.0098244771 0.088527545 0.63200557
0.052471995 0.10049511 0.61157984
0.051431924 0.099618241 0.61446369
0.042166241 0.089453287 0.6360389
0.041133337 0.088183768 0.63817316
0.049761727 0.10248496 0.6098395
0.04873937 0.1008276 0.61423218
0.046647616 0.098357014 0.61582243
0.04006733 0.090710759 0.63159096
0.040051259 0.090868779 0.63497746
0.037746504 0.089003421 0.63878226
0.045149714 0.10205308 0.60405505
0.045777537 0.1029318 0.60686779
0.043089375 0.10068645 0.61203694
0.043531869 0.09816993 0.61406487
0.037616979 0.090340823 0.63047332
0.034883913 0.091009103 0.63282984
0.032745339 0.088523835 0.63801879
0.030437663 0.085961916 0.63793999
0.042702958 0.10272498 0.60271043
0.040604934 0.10334691 0.60591435
0.039135389 0.099204704 0.61012965
0.030870616 0.089859299 0.63048726
0.028506957 0.08946532 0.63589859
0.027485408 0.086519122 0.6375612
0.037705056 0.10364318 0.59960544
0.036267206 0.10403885 0.60405111
0.033962488 0.099073417 0.60870087
0.025930956 0.090176307 0.62789518
0.02375976 0.090096883 0.63424641
0.022443481 0.086420238 0.63651365
0.033986367 0.10516388 0.59374231
0.032850645 0.10404193 0.59653974
0.030453134 0.10345622 0.60150093
0.029808462 0.099333018 0.60699272
0.021739922 0.09048526 0.62625432
0.018054888 0.089640014 0.63265389
0.016838752 0.085875042 0.63566154
0.015234292 0.084789194 0.63804513
0.031924859 0.10574452 0.59341204
0.029121749 0.10337767 0.59498662
0.027260508 0.10117266 0.599594
0.024968307 0.098935507 0.6039139
0.016318742 0.089508913 0.62426996
0.014883958 0.087783217 0.62885284
0.013308786 0.085635833 0.63367814
0.01337732 0.085401669 0.63727486
0.025058404 0.10356878 0.594356
0.023614831 0.10153038 0.59867406
0.02145604 0.099790134 0.60154009
0.012050048 0.089428827 0.62380087
0.011386156 0.088069879 0.62754577
0.0093145818 0.086464889 0.63131571
0.053267203 0.097848035 0.61050987
0.052378863 0.09662009 0.61341602
0.042994857 0.086536773 0.63505727
0.0417988 0.085963987 0.63753891
0.051461343 0.098241895 0.60790914
0.050723363 0.094983622 0.61474866
0.047748111 0.095257826 0.61525303
0.041089952 0.088170707 0.63064253
0.043095782 0.086588167 0.63246065
0.03927869 0.084364302 0.63760263
0.045182101 0.10059719 0.60349512
0.047292255 0.098639779 0.60456473
0.04230769 0.094539545 0.61112905
0.043923896 0.094945751 0.61305869
0.037771713 0.087498643 0.62913913
0.035392236 0.08702971 0.62880003
0.033664823 0.083577856 0.63683915
0.030599736 0.085103862 0.63749087
0.042742141 0.099036165 0.60120708
0.042715061 0.097454064 0.60212314
0.039256617 0.095544338 0.60933864
0.031371895 0.086772107 0.62825865
0.029294636 0.082820848 0.63519078
0.027833566 0.083248422 0.63588464
0.038590726 0.099844947 0.59854883
0.037589483 0.096544437 0.6014142
0.03568013 0.095732443 0.60628712
0.027101796 0.085933693 0.62757045
0.025130145 0.082751185 0.63116038
0.023601405 0.082938045 0.63510454
0.034566492 0.10046291 0.59655541
0.03267929 0.097776055 0.59971917
0.030833937 0.096117534 0.60380709
0.021692432 0.085869312 0.62601709
0.020122342 0.083882309 0.6298334
0.019093595 0.083248109 0.63407236
0.029866666 0.10000102 0.59571213
0.030022334 0.098649561 0.59782612
0.02716887 0.096649416 0.6023078
0.017683424 0.086318351 0.62474662
0.016491577 0.084263548 0.62916136
0.015097305 0.083589986 0.63110036
0.05326914 0.094970569 0.61004311
0.052803397 0.094325185 0.61164874
0.051593412 0.093894668 0.6060946
0.050926484 0.091261029 0.61114776
0.047734916 0.091552891 0.61274427
0.040565223 0.084289849 0.62915552
0.042085119 0.08211758 0.63151073
0.03937215 0.080181301 0.63535208
0.047513016 0.093571968 0.60371661
0.044129692 0.090474032 0.60826463
0.045219842 0.090181403 0.61151451
0.038492873 0.083013766 0.6272282
0.035928015 0.081038922 0.6279251
0.034928463 0.079521261 0.6343866
0.043088067 0.094190039 0.60337931
0.042443659 0.092092663 0.60686874
0.032947093 0.081969738 0.62876976
0.031078134 0.080908068 0.63209832
0.051179927 0.089019917 0.60556817
0.051079512 0.087380052 0.60854518
0.041796543 0.07737162 0.6300751
0.039690942 0.077178061 0.63272238
0.048539534 0.088719472 0.60394686
0.046333306 0.086908184 0.60729754
0.046215441 0.087611116 0.61003262
0.03924875 0.080060646 0.6267401
0.037833724 0.077794589 0.62741381
0.036955953 0.076063544 0.63151336
0.04553749 0.085775189 0.60363346
0.035484292 0.075267635 0.62735277
0.034908988 0.074223444 0.62840176
0.051139064 0.08430218 0.60427493
0.051342297 0.082987547 0.60627669
0.041990004 0.072845541 0.6283865
0.049494632 0.083737619 0.60179263
0.047977619 0.081635199 0.6062485
0.039967503 0.07276646 0.62544537
0.038020357 0.070922583 0.6297043
0.04592555 0.083230361 0.60024726
0.044619754 0.082023926 0.60303414
0.035265312 0.071603246 0.62443644
0.034225337 0.070605338 0.62789631
0.051679388 0.078765579 0.60460806
0.042364448 0.069221906 0.62648815
0.050673742 0.07935524 0.59969956
0.049934648 0.077266 0.60447621
0.047275119 0.07566011 0.60537833
0.040649191 0.068166099 0.62123853
0.041556612 0.067889333 0.62488359
0.038657125 0.066011012 0.62825811
0.046042413 0.079273902 0.59733939
0.04350318 0.077755176 0.60205889
0.04462922 0.075370774 0.60420984
0.037593398 0.068125963 0.61990798
0.03483016 0.068772748 0.62195462
0.033872709 0.065757237 0.62682635
0.043351687 0.077092506 0.596425
0.04217615 0.075972505 0.5992049
0.032838173 0.065924123 0.62088281
0.03170985 0.064852901 0.62402391
0.051920868 0.075083144 0.59764361
0.051722862 0.073171601 0.60275751
0.048406936 0.071521282 0.6046285
0.042019948 0.064785376 0.61956483
0.04277638 0.063562073 0.623519
0.039535422 0.061320722 0.62702119
0.04767102 0.075374782 0.59426677
0.044450291 0.071247436 0.60351652
0.03847345 0.064952441 0.61743701
0.034181893 0.060558423 0.62636703
0.04287662 0.074016966 0.5937947
0.040527843 0.072529532 0.59736454
0.040612772 0.070119523 0.60056633
0.034194723 0.063738167 0.61609411
0.031224586 0.062725887 0.61893755
0.030613627 0.060589902 0.62290299
0.039739102 0.071190335 0.59348333
0.039495308 0.070722453 0.59451377
0.031410102 0.061363049 0.61477
0.029614195 0.060232423 0.61767459
0.028804123 0.05909802 0.62009245
0.0524089 0.070395246 0.59625906
0.051751629 0.068553492 0.60064125
0.048866726 0.067266516 0.60283446
0.042531218 0.060436152 0.61799401
0.042757813 0.058981247 0.62142503
0.040193532 0.057169572 0.62485695
0.04905457 0.071110412 0.59229887
0.045233335 0.066193923 0.60196292
0.03964939 0.060157754 0.61525089
0.035479978 0.055540539 0.62498981
0.044339702 0.070459031 0.59057879
0.039285373 0.069894776 0.59597862
0.041057069 0.06603951 0.59984809
0.035233378 0.059844695 0.61349237
0.03064749 0.055841364 0.62269789
0.039456066 0.069172181 0.59048343
0.037226051 0.067357428 0.59384578
0.037863471 0.065758742 0.59699219
0.031097762 0.058693975 0.61273372
0.028324805 0.057736516 0.61461425
0.02744139 0.055752233 0.61909217
0.03599821 0.067024894 0.58909339
0.034907106 0.066274703 0.59103179
0.025308222 0.055905223 0.61392838
0.024638034 0.054484732 0.61625361
0.051530749 0.066857435 0.59525883
0.050642636 0.065345258 0.59839594
0.048756108 0.064454608 0.60073757
0.041471899 0.055556692 0.61956143
0.040148474 0.054604568 0.62251168
0.049043775 0.065861508 0.5924738
0.048103277 0.062865719 0.59638852
0.046031594 0.063019738 0.59966886
0.039879464 0.05627428 0.61490554
0.039105624 0.053220235 0.61758918
0.03694059 0.052648775 0.62169349
0.04559299 0.065401278 0.58953089
0.045197699 0.061221592 0.59475034
0.041926123 0.062100261 0.59788603
0.035931394 0.05526121 0.61236089
0.036091633 0.051527604 0.61564249
0.03261783 0.051138937 0.62034786
0.040467612 0.065445773 0.58733529
0.036509797 0.063327968 0.59401315
0.037834626 0.061262161 0.5948081
0.030821696 0.054082915 0.6106264
0.029296122 0.055602193 0.61182934
0.027559657 0.051028401 0.6185872
0.035821147 0.06420584 0.58663005
0.033329278 0.062769003 0.59007186
0.034717053 0.060655795 0.59283155
0.027701758 0.053321265 0.60933757
0.024531636 0.053459644 0.61100948
0.023927338 0.051023692 0.61528462
0.032703854 0.061308503 0.5872606
0.022507276 0.050916828 0.61114717
0.022195399 0.050418437 0.61222887
0.044351041 0.060400479 0.58903396
0.043526918 0.059195682 0.59243852
0.04185769 0.057522327 0.59490812
0.035410412 0.050074197 0.61064273
0.034419298 0.049303278 0.61388463
0.032578677 0.047703028 0.61657351
0.041316647 0.060606621 0.58579159
0.042167697 0.059424341 0.59099102
0.038338363 0.057237789 0.59374446
0.032132506 0.050364442 0.6087594
0.032586958 0.048846766 0.61363494
0.028856505 0.046528377 0.61649638
0.036690593 0.05997663 0.58512735
0.033790804 0.057993628 0.5884617
0.035263594 0.057010822 0.59191972
0.028346993 0.049898349 0.60752738
0.0250386 0.048089609 0.60892385
0.024882153 0.04679703 0.61368859
0.032931544 0.060125664 0.58688277
0.023239151 0.049502969 0.60979342
0.022482842 0.048945546 0.61213309
0.061418235 0.053243861 0.59969312
0.061004121 0.052350961 0.60277385
0.059660941 0.0503226 0.60711861
0.057935238 0.048674442 0.61129111
0.05509771 0.046689771 0.61500752
0.053989239 0.044463672 0.61673653
0.059463732 0.053305507 0.59646362
0.053486712 0.045984134 0.61563545
0.050418489 0.044290155 0.61788028
0.047609933 0.042327151 0.61930585
0.057632625 0.053599872 0.59345394
0.047178075 0.04255449 0.61811757
0.045844033 0.041685648 0.6190232
0.049622536 0.053874522 0.58939534
0.049340673 0.05407016 0.59228557
0.04745435 0.051828973 0.59594947
0.041262712 0.045497261 0.6099568
0.040234271 0.043661177 0.61403143
0.03858158 0.041872174 0.61523861
0.046623927 0.055542082 0.58765703
0.046790726 0.055948392 0.59220994
0.043372642 0.051848195 0.59584934
0.038435906 0.046584278 0.6070751
0.037602525 0.045681901 0.61384887
0.034789216 0.042682633 0.61530823
0.042436708 0.055844992 0.58450359
0.038870178 0.052122973 0.5932402
0.033960074 0.046047799 0.60569352
0.030039091 0.041840822 0.61449224
0.038923111 0.055541985 0.58467209
0.036925368 0.05371926 0.5872227
0.036521327 0.051980056 0.59033287
0.029803358 0.045059025 0.60564375
0.027700316 0.043932945 0.60851842
0.027294382 0.042650923 0.61223161
0.063071765 0.050085269 0.59750265
0.062728904 0.04903286 0.60174453
0.061469946 0.046944253 0.60633868
0.059213106 0.045298845 0.61018521
0.057077553 0.04294645 0.61439192
0.055177648 0.041098893 0.61617482
0.059207961 0.05161196 0.59250313
0.060555685 0.051041543 0.59559995
0.0598347 0.04835593 0.59912771
0.058463886 0.04551965 0.60460579
0.056706998 0.043809138 0.60857481
0.052898221 0.042524166 0.61239678
0.051567096 0.041196719 0.61715114
0.048421048 0.039088748 0.61841726
0.056779008 0.052170545 0.59088641
0.055211153 0.049918905 0.5935089
0.053188689 0.04728061 0.59665656
0.051887602 0.04493282 0.5985226
0.047855698 0.040979415 0.61013019
0.046539109 0.040675081 0.61426622
0.045233525 0.038919292 0.61831236
0.052172631 0.051110215 0.5877955
0.052408576 0.051454924 0.59195071
0.049498007 0.04907801 0.5967648
0.04757078 0.046197422 0.59795761
0.044632453 0.042843893 0.60537905
0.044418022 0.0433762 0.60875118
0.042862177 0.040746391 0.61451143
0.040008664 0.038360506 0.61620736
0.04879085 0.050894178 0.5853008
0.042697411 0.047024883 0.59471852
0.044630591 0.04668884 0.59648919
0.041259013 0.04281465 0.60434371
0.038712852 0.042507738 0.60409498
0.036174413 0.037235372 0.61468846
0.043158825 0.051030509 0.58385009
0.040781677 0.048473611 0.58589602
0.040063709 0.047524713 0.59135413
0.034820445 0.041450068 0.60427481
0.03144379 0.038104124 0.60791761
0.031195235 0.038007185 0.61205584
0.038344078 0.04986418 0.58713758
0.037655309 0.04948394 0.589405
0.031067215 0.041332483 0.6050238
0.029890042 0.040584594 0.60694754
0.029049084 0.03975492 0.61062074
0.0642666 0.045946561 0.59595311
0.064902551 0.044379897 0.60044712
0.063807204 0.042322606 0.60505414
0.061645322 0.040786803 0.60901928
0.059189357 0.038801178 0.61306566
0.055849418 0.036713958 0.61569107
0.061937854 0.046728723 0.59069556
0.06315545 0.046802014 0.59304708
0.05831081 0.043984801 0.59812552
0.05811077 0.041588202 0.60186958
0.056085661 0.040119141 0.60669786
0.053025696 0.038122416 0.60877812
0.052711353 0.035817593 0.61674166
0.050029702 0.034428328 0.61732495
0.058182701 0.046742901 0.58774227
0.057055611 0.046895139 0.59551233
0.055535179 0.044566765 0.59756392
0.052715436 0.04230427 0.59888846
0.049769647 0.039322793 0.60530931
0.050469071 0.039168268 0.6094138
0.046524528 0.033870704 0.61700135
0.053761039 0.047491759 0.58516443
0.048998766 0.04241351 0.5976724
0.046123698 0.039360642 0.60358739
0.041298989 0.03291364 0.61578125
0.048808366 0.04774563 0.58317327
0.044498309 0.042068698 0.59297383
0.043502513 0.041007049 0.59516108
0.041581977 0.038834102 0.59982204
0.040109027 0.037502758 0.60296726
0.0365679 0.032993838 0.61369902
0.044733793 0.046609752 0.58258444
0.042669103 0.044781454 0.58549863
0.041346539 0.043427058 0.59029043
0.039623231 0.041316353 0.59457165
0.038637526 0.039253585 0.5991075
0.035618536 0.036928333 0.60310626
0.033397537 0.03472206 0.60688412
0.033577427 0.034073204 0.61108446
0.065505818 0.037654579 0.60436285
0.064474404 0.034863867 0.606969
0.065467618 0.041173615 0.59442455
0.066205531 0.039546847 0.59890431
0.065247878 0.038099498 0.60311335
0.06315583 0.036609486 0.60766858
0.060752727 0.03317669 0.612046
0.057186291 0.031927206 0.61474186
0.062600374 0.04249882 0.58920681
0.064156711 0.041845597 0.59119785
0.057834037 0.040265307 0.59835297
0.057275768 0.037179731 0.60006422
0.055473372 0.035573579 0.60408813
0.054207437 0.031153684 0.61574411
0.051656388 0.029754205 0.61593682
0.05935416 0.04288727 0.58686328
0.054217059 0.037194774 0.59821433
0.052480016 0.034733988 0.60326266
0.047222212 0.029168123 0.61548972
0.054669637 0.042281032 0.58404535
0.050275959 0.036781326 0.5952335
0.04756688 0.034130223 0.60205758
0.045456953 0.031824335 0.60142976
0.041931272 0.028739551 0.61401355
0.050274804 0.042441733 0.58256555
0.047369171 0.039116375 0.58409023
0.046923943 0.038105689 0.59183937
0.044752471 0.03614717 0.59488547
0.042362191 0.034423918 0.59854215
0.04273545 0.033495218 0.6019268
0.038048662 0.02836181 0.60794461
0.038209151 0.028978569 0.61143976
0.046383634 0.042606831 0.58296132
0.045296133 0.040891759 0.58523113
0.043576661 0.038574725 0.58930999
0.042298261 0.036982156 0.59290373
0.040742617 0.035036102 0.59761882
0.037924483 0.032646485 0.60161632
0.036915254 0.030881969 0.60568947
0.035334945 0.03098095 0.60885376
0.068605281 0.032501169 0.59886885
0.067012362 0.032677166 0.60217881
0.065675899 0.031188099 0.60525018
0.064300291 0.02839529 0.60826331
0.066770986 0.03624171 0.59303832
0.067203276 0.035558432 0.59694302
0.066305481 0.033238716 0.60190159
0.06419877 0.030205978 0.60693932
0.062037863 0.029345969 0.61023444
0.058247987 0.027416984 0.61305207
0.062976658 0.037700064 0.58734655
0.064761735 0.037043191 0.58943295
0.055274241 0.025954621 0.61388332
0.052403118 0.025655875 0.61404657
0.059851371 0.037670024 0.5855484
0.054210085 0.032779142 0.59769374
0.052856654 0.03148789 0.60051405
0.048340414 0.024850165 0.61310345
0.055606365 0.03721901 0.58362788
0.053156875 0.035284981 0.58311123
0.050473243 0.032775283 0.59491128
0.048804305 0.030691257 0.59952444
0.043753263 0.0243007 0.61091954
0.051490478 0.038125448 0.58274186
0.049440764 0.035755165 0.58390337
0.046230361 0.033787601 0.58767974
0.044581655 0.031478427 0.59246862
0.042363249 0.029588854 0.59610754
0.04107311 0.026661878 0.60054505
0.040348832 0.02538001 0.60532659
0.040200166 0.025277136 0.609128
0.045175422 0.034720778 0.58736086
0.043666743 0.032692 0.59113532
0.041730743 0.029031238 0.59642881
0.039606571 0.028808067 0.60048676
0.038723875 0.028058415 0.60348141
0.07107529 0.031431817 0.59332216
0.070581324 0.030572077 0.59666145
0.069569692 0.028882837 0.60114527
0.067427732 0.0269717 0.60536909
0.065243222 0.024822215 0.60914791
0.063420527 0.023553131 0.61165571
0.069027722 0.032607958 0.59088087
0.069555074 0.032245688 0.59481144
0.065010421 0.028577538 0.6061067
0.062848046 0.025984848 0.61017948
0.059980068 0.022751832 0.61236048
0.064971477 0.033177003 0.58587658
0.065566435 0.033456631 0.58757854
0.055197731 0.023357103 0.61237562
0.054138027 0.02071085 0.6124537
0.06088037 0.033028364 0.58408886
0.049409542 0.020898135 0.6109885
0.05759041 0.032895334 0.58305955
0.055031575 0.031616665 0.58308804
0.045000438 0.020586895 0.60639888
0.046152946 0.021001222 0.60929769
0.051289599 0.030654212 0.58407152
0.04832688 0.029173503 0.58648711
0.045554277 0.027905637 0.59015244
0.04339442 0.02583327 0.59521091
0.042762484 0.02293369 0.59954888
0.043033477 0.022086015 0.60370678
0.044608124 0.025547871 0.59011543
0.043014705 0.024280181 0.59386694
0.042196929 0.02262879 0.59654027
0.070941389 0.026875032 0.5956459
0.06990739 0.024216747 0.59931445
0.068419896 0.02235877 0.60348767
0.065974154 0.021385388 0.60730505
0.068675563 0.028141795 0.58946061
0.069587633 0.025714712 0.59305799
0.069565542 0.023094257 0.59648514
0.066511005 0.01965669 0.60384184
0.064084694 0.019362805 0.60699558
0.060533058 0.01854934 0.60937923
0.057753254 0.018854333 0.61235708
0.065744691 0.029867014 0.58503306
0.065834031 0.027420757 0.58683854
0.057219587 0.016660089 0.60833031
0.054755494 0.017641677 0.61116737
0.061344601 0.029863847 0.58331496
0.061483327 0.026528345 0.58408821
0.051875662 0.015839608 0.60636127
0.051341128 0.017389227 0.60953373
0.058748446 0.029416336 0.58215076
0.056486301 0.026870264 0.58279735
0.053650931 0.023948452 0.58528662
0.047551066 0.017089194 0.59977806
0.047537822 0.016258657 0.60432166
0.047261145 0.017957646 0.60806674
0.052442271 0.02685781 0.58282679
0.049799565 0.025049048 0.58556253
0.047957435 0.022802187 0.58940756
0.046121031 0.020688979 0.59388977
0.044505224 0.019081535 0.59794784
0.0443018 0.017573223 0.60207963
0.045308527 0.024514833 0.5887168
0.043466926 0.022522951 0.59323484
0.042454392 0.021199862 0.59639525
0.0013017803 0.017028574 0.56799299
-5.8472157e-05 0.015805414 0.57136071
-0.0019633099 0.017069373 0.56693244
-0.0031007528 0.015825311 0.5701437
-0.0048939288 0.016357111 0.56650651
-0.0056429133 0.015788624 0.56811625
0.070126176 0.019117655 0.59851581
0.069230407 0.018436655 0.60081911
0.068019189 0.024062229 0.58897913
0.069054343 0.021355683 0.59160113
0.069680728 0.020015338 0.59554499
0.066987962 0.0165754 0.60209137
0.064096801 0.015578734 0.60427916
0.060862679 0.014977584 0.60628062
0.065592177 0.02322174 0.58694297
0.066232353 0.020219928 0.58765054
0.059423897 0.012753677 0.60395908
0.057771184 0.014349444 0.60563213
0.061353255 0.023489112 0.58509189
0.060442355 0.020077376 0.58603984
0.054131597 0.01325633 0.60106224
0.053538162 0.014518397 0.60406554
0.057805426 0.023746083 0.58433205
0.055581503 0.020517049 0.58592004
0.052382402 0.016659901 0.58878666
0.050677683 0.014778486 0.59270346
0.050478116 0.014708159 0.5983842
0.049843609 0.015388539 0.60218763
0.051908493 0.021120368 0.58660471
0.050495584 0.019032866 0.58892369
0.049055494 0.017017743 0.59269857
0.047756866 0.016677873 0.59658593
0.038780287 0.020235727 0.56866848
0.038659401 0.019683024 0.56954557
0.028145071 0.0079869684 0.59469581
0.027673766 0.0077656675 0.59568059
0.036604721 0.020425117 0.5676614
0.034877319 0.019171907 0.56990957
0.025187016 0.0096787196 0.58861452
0.025682338 0.0089072511 0.59214562
0.025200568 0.0078251567 0.59486759
0.032974161 0.019642504 0.56666428
0.030460622 0.018710822 0.56888485
0.028769646 0.017362921 0.57125628
0.022361867 0.010284333 0.58660412
0.021770857 0.009130558 0.58957195
0.022221569 0.0076426361 0.59271395
0.026346285 0.017903065 0.56791723
0.023970071 0.016626786 0.57071471
0.021488227 0.015100555 0.57211202
0.01851752 0.010983178 0.58034611
0.018593434 0.010759985 0.58352631
0.018283688 0.0091864467 0.58698732
0.019690894 0.015603505 0.57047659
0.017611649 0.014986059 0.57234591
0.015292216 0.012338934 0.5777896
0.015610904 0.010870667 0.58090436
0.013921723 0.014624817 0.56831735
0.013123982 0.014429767 0.57136148
0.011790164 0.012333455 0.57538605
0.010511324 0.010506285 0.5773685
0.011744209 0.014217153 0.56742102
0.0084409826 0.014700845 0.56903601
0.0064654835 0.012440594 0.57311034
0.0078809857 0.010469159 0.57609791
0.0033078119 0.014676394 0.56783396
0.0020490959 0.013059735 0.5710296
-0.0010294989 0.015947431 0.566755
-0.0023760125 0.014693471 0.56965512
-0.0045518503 0.015610049 0.56590289
-0.0053854063 0.014917355 0.56793839
0.070977271 0.01432096 0.59657311
0.07018736 0.01359375 0.5986914
0.068972886 0.016403003 0.59017521
0.070081808 0.015257912 0.59401613
0.067448795 0.012226744 0.59994918
0.064361244 0.011417195 0.60177904
0.065744907 0.015913179 0.58411437
0.066749506 0.016645895 0.58693564
0.060403131 0.0099283718 0.60214806
0.058238834 0.0078047477 0.60199606
0.062624156 0.016229341 0.58250749
0.061083242 0.017393028 0.58515501
0.05493477 0.010504849 0.59990245
0.054822724 0.0076184943 0.60111719
0.059860166 0.015826307 0.58200222
0.056868855 0.015424574 0.58439684
0.053597793 0.015461765 0.58675957
0.050678477 0.012377821 0.59368807
0.051755067 0.0098985787 0.59632874
0.05262918 0.0076852236 0.59948504
0.053941514 0.013364049 0.58327222
0.05161662 0.013372663 0.58677846
0.049924105 0.011654532 0.59104383
0.049524907 0.0085978899 0.59360313
0.041262653 0.0179577 0.5671829
0.039156683 0.017371411 0.56981146
0.029400945 0.0063974448 0.5933578
0.029154807 0.0045182724 0.5963378
0.037390646 0.01861226 0.56485337
0.036202066 0.016309453 0.57079089
0.033475194 0.01424817 0.57211536
0.027386691 0.0073760375 0.5872004
0.028087609 0.0072097015 0.59080702
0.024762802 0.0044606719 0.59545964
0.032663591 0.017029325 0.56399089
0.029851466 0.017879313 0.56572205
0.029300388 0.013939274 0.5723688
0.024428565 0.008542249 0.58387089
0.019811511 0.0065483358 0.59026539
0.021023095 0.0040381346 0.59196573
0.029855873 0.015127834 0.5635621
0.026651111 0.015278153 0.56515241
0.025144368 0.014061492 0.57185578
0.022921 0.012377383 0.57217646
0.020179637 0.0090615787 0.57944262
0.020975903 0.0098835137 0.58204335
0.017663941 0.0054671746 0.586968
0.019208629 0.0034823716 0.58941787
0.023525413 0.013560232 0.56577122
0.020014104 0.013250528 0.56766784
0.018063337 0.010992125 0.57270169
0.017149031 0.00989387 0.57550174
0.014464721 0.0073316768 0.58051366
0.015904017 0.0057794638 0.58359468
0.015083361 0.012282846 0.56673396
0.013842307 0.0095787942 0.57195657
0.013345651 0.0093649458 0.57200903
0.010690499 0.0074672792 0.57737368
0.010777041 0.011598837 0.56467086
0.008627966 0.010627955 0.56845564
0.0074507184 0.0091872755 0.57094765
0.0065496564 0.0069711898 0.57505989
0.0064393468 0.010906896 0.56273729
0.0042638853 0.011073424 0.56637889
0.0032232478 0.0089782011 0.56919414
0.0019945651 0.0066106934 0.57263517
0.0033466294 0.010111298 0.56198108
1.6823411e-05 0.0095840842 0.56371027
-0.0017330199 0.0081669521 0.56765079
-0.00089983642 0.0062770918 0.57093984
-0.0043694526 0.0091581475 0.5620926
-0.0058618113 0.0082269795 0.56554788
-0.0080064237 0.0087853055 0.56047827
-0.009585008 0.0078885891 0.56398296
0.072259225 0.0097454563 0.59485221
0.07114549 0.0087723769 0.59731615
0.071152128 0.011830188 0.58462971
0.070543483 0.011696225 0.58874381
0.071022086 0.011262495 0.59207535
0.068416446 0.0083025545 0.59862494
0.065618634 0.0063340515 0.60032731
0.063492239 0.0038339179 0.60253859
0.068304367 0.013029734 0.58296531
0.068644106 0.014054302 0.58659583
0.062558629 0.0072329435 0.60149634
0.060328983 0.0041910429 0.60224313
0.063487716 0.013578629 0.58071142
0.06044656 0.014479475 0.58208567
0.053601153 0.0066001918 0.59902245
0.055237219 0.0041135494 0.60077834
0.05959975 0.012101416 0.57929862
0.057114299 0.012704762 0.58098245
0.050700307 0.0056721624 0.59616911
0.051871348 0.003446402 0.5980314
0.054021202 0.010527274 0.58058709
0.050766598 0.0093890782 0.58419162
0.048862249 0.0074008945 0.58881944
0.048836291 0.0048981942 0.59331453
0.049474645 0.0067788698 0.58270758
0.047932763 0.0053768568 0.58672571
0.047477853 0.013119288 0.56335628
0.04696355 0.013085185 0.56611848
0.034748789 -0.00057044066 0.59345466
0.034118012 -0.0010542106 0.59656024
0.032996736 -0.0029739654 0.59821635
0.044623978 0.013670666 0.56199253
0.044051535 0.014658354 0.56534684
0.040927202 0.01179059 0.56897998
0.03200547 0.0014155814 0.59136218
0.030986253 0.00019843038 0.59648186
0.029834181 -0.0027661994 0.59768558
0.041303903 0.01421194 0.56154269
0.038026914 0.013592726 0.5630846
0.036419231 0.011000536 0.56785482
0.034037098 0.011251558 0.57028663
0.027503904 0.0039335359 0.58596486
0.027851436 0.0013578981 0.58855605
0.025420956 -0.00032361597 0.59348649
0.026943631 -0.0020390525 0.59632087
0.03344892 0.013851766 0.56246066
0.032947727 0.010450164 0.56558394
0.030223951 0.010024404 0.56981677
0.024409812 0.003921032 0.58278883
0.023949433 0.00051804632 0.58703345
0.02156204 0.00069000665 0.59105432
0.030413989 0.013491688 0.56284285
0.02776096 0.011543943 0.56431204
0.02585062 0.0092797969 0.5678277
0.022862915 0.0094468072 0.57059354
0.020365339 0.0059171263 0.5785501
0.020487413 0.003313343 0.58085775
0.019004613 0.0018937392 0.58527321
0.019534998 0.001850388 0.58901167
0.020925086 0.0095369257 0.56736475
0.019009456 0.0075438172 0.56952524
0.016844809 0.005223358 0.57494152
0.015881337 0.0043965299 0.57806522
0.016549539 0.0037756357 0.58243501
0.0162425 0.0077142939 0.56517273
0.015147611 0.0060175508 0.5701865
0.014594242 0.0055125449 0.57132274
0.011820216 0.002587175 0.57577097
0.011637099 0.0074182842 0.56315607
0.0093110166 0.0053984467 0.56742597
0.0089442357 0.0047735777 0.56892651
0.0072642416 0.0024015373 0.57387125
0.0080740005 0.0070700273 0.56212604
0.0058052726 0.0063448455 0.56315279
0.004892692 0.0041961316 0.56655675
0.0031282008 0.0025550527 0.57153583
0.0023428351 0.0054610949 0.56284356
0.00035271794 0.0032800967 0.56698823
0.00071181357 0.0009568315 0.56894654
0.073477067 0.0055048857 0.59262711
0.072226167 0.0039610472 0.59604257
0.071931534 0.008558644 0.58367014
0.072775103 0.0075625218 0.5866558
0.073124714 0.0071833581 0.59030759
0.070020363 0.0034718392 0.59805226
0.067263596 0.0014717039 0.59970629
0.064419083 0.00049252808 0.60119474
0.069757409 0.0089066308 0.58125067
0.0636198 0.0024047466 0.60110176
0.061430059 -0.00015989877 0.60115492
0.065557837 0.0094360616 0.57769871
0.056440003 -0.0013234559 0.60052299
0.062262461 0.0078251716 0.57348698
0.060156018 0.0091096889 0.57579005
0.051021028 -0.0011935094 0.59807646
0.050856605 -0.0041427515 0.59905273
0.056254581 0.0069677755 0.57528764
0.053388335 0.0077375043 0.57788575
0.047594301 0.0012904573 0.59229976
0.04836034 -0.001663059 0.5944441
0.052941304 0.009334065 0.56392568
0.052252296 0.009247398 0.5664795
0.0532717 0.0051482227 0.57449287
0.050294437 0.005366344 0.57638466
0.047665615 0.0037379079 0.58109158
0.046076447 0.0021581324 0.58497322
0.04490193 -0.00051626749 0.58928072
0.043168027 -0.0036735237 0.59266001
0.039504312 -0.0051085558 0.59673899
0.038261361 -0.0069556981 0.59830493
0.04978713 0.011280678 0.56214571
0.049277827 0.010944873 0.56649756
0.046991058 0.0072659031 0.56886107
0.047234047 0.0028756484 0.57637924
0.04306272 -0.0017264346 0.58592165
0.037446328 -0.0031300355 0.59166056
0.036883254 -0.0033216374 0.59691459
0.034460839 -0.0057191243 0.59882426
0.046077698 0.011365982 0.56070459
0.0431839 0.0085301716 0.56183261
0.042187918 0.0073017385 0.56889921
0.03409173 -0.0020334302 0.58889604
0.03011125 -0.0061914641 0.59362072
0.030747741 -0.0055267122 0.59757489
0.042190246 0.011963019 0.56092417
0.039872553 0.0090974383 0.56310111
0.038691457 0.0074958112 0.5662654
0.029495236 -0.0028255861 0.58826041
0.027836502 -0.0036311476 0.59144223
0.027678639 -0.0039249668 0.59569234
0.016350504 0.0034321584 0.56362659
0.016568609 0.0015827361 0.5667249
0.014707059 -0.00021730829 0.57047927
0.012077458 -0.0011666343 0.57368499
0.014231816 0.0027099038 0.56304073
0.010933056 0.0016373564 0.56360942
0.0087828264 -0.00045334175 0.56731027
0.0087172762 -0.0015968606 0.57152635
0.0078407191 0.0040157754 0.56104022
0.0073388554 0.00085066818 0.56229764
0.0056367591 -0.00065809861 0.5667792
0.0038749054 -0.0010097185 0.56988031
0.0023641437 0.00078666955 0.56043059
9.3966722e-05 -0.00075132586 0.56467479
-0.00026770681 -0.001130037 0.56772912
-0.0019335449 -0.00040483661 0.55851322
-0.0039912313 -0.001640534 0.56251895
-0.0059361085 -0.0012319181 0.55650002
-0.0077914 -0.0027020741 0.56036693
0.074791007 0.0013203267 0.59130806
0.073434815 -0.00033605937 0.59502298
0.072243869 0.0046453495 0.58223796
0.073486052 0.0030753668 0.58484471
0.073995337 0.0016899668 0.58866376
0.071194999 -0.0018530358 0.59571308
0.068047449 -0.003037204 0.597839
0.06525211 -0.0044161202 0.59884834
0.070642583 0.0047040787 0.57487094
0.070782572 0.0043525565 0.57921702
0.065665312 -0.0060679652 0.59803391
0.062281661 -0.004990737 0.59961843
0.059447978 -0.0077777039 0.60166818
0.067920327 0.0054357126 0.57264519
0.067432515 0.0066184364 0.57619154
0.057103902 -0.0045714984 0.60038167
0.05603157 -0.0079016974 0.6015498
0.063142754 0.0056354683 0.57129019
0.051599555 -0.0072984002 0.59947354
0.058684949 0.0050290506 0.56371748
0.058294855 0.0036809063 0.56853747
0.056810252 0.0035151877 0.57225758
0.047794871 -0.0065752212 0.59391278
0.046830539 -0.0092864158 0.59667808
0.044025935 -0.011526742 0.59950101
0.055700734 0.006675208 0.56207818
0.05473068 0.0062380098 0.56724006
0.052741252 0.0027450966 0.57070172
0.050837412 0.0034753233 0.57360983
0.046293002 -0.00088508986 0.58005959
0.04612191 -0.0017441828 0.5808475
0.044133373 -0.0041983742 0.58965451
0.043968834 -0.0067647612 0.591658
0.042459201 -0.0077293264 0.59689885
0.040185139 -0.010628832 0.59956425
0.051419251 0.0068226326 0.56059688
0.048350394 0.0028612148 0.56830484
0.047689293 0.00072456058 0.57331651
0.046391968 -0.0012994669 0.57752174
0.044332176 -0.0033152923 0.58217132
0.042073157 -0.0049428586 0.58653361
0.039386693 -0.0069558206 0.58982188
0.035995029 -0.010115411 0.59782255
0.047861665 0.0058852155 0.56029832
0.045239106 0.0044813026 0.56227833
0.043525368 0.002991979 0.5660634
0.034457888 -0.0074295364 0.58813912
0.032807361 -0.0090185525 0.59210718
0.033482101 -0.010146504 0.595447
0.041510791 0.0057952497 0.56343561
0.040900487 0.0046492741 0.5648644
0.033675585 -0.0038898103 0.57231712
0.032680891 -0.0047734501 0.57438374
0.031301327 -0.0063450132 0.58822411
0.030399997 -0.0065448452 0.59012622
0.030208055 -0.0025714654 0.5697602
0.028499067 -0.0044931034 0.57375342
0.027762845 -0.0031344593 0.56927699
0.026637997 -0.0047713621 0.57256657
0.015916504 0.00011370331 0.56242013
0.015841629 -0.0023243837 0.5639497
0.013718873 -0.0041458881 0.56877786
0.012198918 -0.0042767702 0.57104319
0.014987722 -0.00047771353 0.56193686
0.012403786 -0.0034863986 0.56285459
0.010714967 -0.0053598536 0.56663406
0.01028537 -0.0045849886 0.57024503
0.0096218847 -0.0056797438 0.56216699
0.0083057173 -0.0065021208 0.56528711
-0.0022595227 -0.0025125556 0.5570187
-0.005725041 -0.004224808 0.56106323
-0.0055191666 -0.0033805035 0.55562842
-0.007550858 -0.0043911231 0.55961436
0.074978769 -0.0023949184 0.59084982
0.074162923 -0.0034163082 0.59293067
0.073384576 -0.0010733372 0.58363944
0.073289104 -0.0034609484 0.58756614
0.071634762 -0.005794724 0.59224689
0.068256825 -0.0067104818 0.59564894
0.070818014 0.0026714066 0.57457095
0.071563154 0.00013372116 0.57698095
0.072165199 -0.0021611815 0.58077544
0.065794356 -0.0089256931 0.59562963
0.062643051 -0.0096399635 0.59826601
0.06022099 -0.0091074221 0.60072666
0.068184033 0.00148651 0.57156795
0.069173574 -0.0007865224 0.57342541
0.058969416 -0.011919895 0.59788591
0.056484312 -0.011323852 0.59960246
0.064431436 0.00016336329 0.56509483
0.065585203 0.0014313068 0.56777275
0.052210394 -0.013160629 0.59966308
0.049956717 -0.015346067 0.59933484
0.06077572 0.0021019336 0.56259441
0.06062264 0.0023498423 0.56677926
0.055782098 0.00096611306 0.57097304
0.04697543 -0.0087092966 0.59187603
0.047853582 -0.01171976 0.59772015
0.045720212 -0.014778994 0.59955472
0.057413943 0.0030090343 0.55962372
0.053451121 -0.00020737201 0.56998748
0.046999887 -0.0073475293 0.57864588
0.044900365 -0.0096384482 0.59016132
0.040927514 -0.015208911 0.59955609
0.052742735 0.0023254845 0.55829179
0.048352264 -0.0014150813 0.56789911
0.047978051 -0.0037793862 0.5711925
0.046493746 -0.0055851969 0.57600707
0.044679608 -0.0074339239 0.57995969
0.042354863 -0.0098145055 0.58399183
0.040522255 -0.010303477 0.58739513
0.036510244 -0.015274979 0.59678227
0.049015716 0.0017240159 0.55859303
0.047155067 0.00020035636 0.56074995
0.04621594 -0.00094332453 0.56448525
0.039316315 -0.007968219 0.5724045
0.038224149 -0.0090617407 0.57522511
0.036391608 -0.011650627 0.58799559
0.034671932 -0.013689874 0.59092939
0.034370523 -0.014631828 0.59400004
0.036402944 -0.0056513031 0.5678401
0.037089888 -0.0062488755 0.57130516
0.034859687 -0.0082144877 0.57556838
0.032544062 -0.010918069 0.57652247
0.033293817 -0.0050041983 0.56604993
0.031959571 -0.0039295061 0.56794167
0.029339772 -0.0076892455 0.57516891
0.029010206 -0.010851867 0.57617599
0.02891022 -0.0056085456 0.56249636
0.026708331 -0.0059714708 0.56671149
0.024872698 -0.008171482 0.57147205
0.023915209 -0.011153543 0.57499522
0.026576918 -0.0075450456 0.56244177
0.024097282 -0.0083081052 0.56608975
0.023001961 -0.010047229 0.56947923
0.022290662 -0.011470332 0.57265794
0.012290046 -0.0072460575 0.56160146
0.01090673 -0.0088800695 0.56496972
0.0090200454 -0.008657502 0.55972999
0.0074776933 -0.0098257735 0.56293195
0.0061205178 -0.01012801 0.5586139
0.0046509355 -0.011287579 0.56143373
0.071700133 -0.0077189226 0.58656281
0.070958175 -0.0091144852 0.58926088
0.071146816 -0.004440676 0.57611942
0.071011223 -0.0064679151 0.57939363
0.070930026 -0.0088365749 0.58384585
0.068807006 -0.011683604 0.5893085
0.06560462 -0.012467271 0.59245211
0.063112825 -0.013276044 0.59527528
0.067410462 -0.002520103 0.57047558
0.068752266 -0.0048262398 0.57301188
0.069436125 -0.0081370622 0.57641411
0.06295114 -0.015179077 0.59171081
0.059555884 -0.015017081 0.59493136
0.056430284 -0.014589673 0.59689438
0.064687513 -0.0012142379 0.56433648
0.065993376 -0.0030553564 0.56708735
0.066968992 -0.0058699702 0.57019812
0.056481697 -0.017033421 0.59478021
0.053512134 -0.016890597 0.5972212
0.050204698 -0.017342608 0.59893703
0.062073037 -0.001362958 0.5623976
0.061362296 -0.0046128244 0.56373543
0.04832793 -0.019054875 0.59491217
0.047308199 -0.017830461 0.59831429
0.057779774 -0.0022088476 0.55922931
0.058402888 -0.0056510987 0.56267679
0.053279389 -0.0079304148 0.56610006
0.052013557 -0.0089072548 0.57144803
0.050319172 -0.0096856588 0.57277006
0.046499968 -0.013499812 0.58094376
0.046896394 -0.014456896 0.58294135
0.044459239 -0.01776995 0.58710724
0.045479313 -0.019735944 0.59315902
0.04227452 -0.019409873 0.59638327
0.053489029 -0.0024938881 0.55797523
0.051418744 -0.005599502 0.56008559
0.050111696 -0.0066812662 0.56503505
0.049403727 -0.0065577747 0.5704031
0.046696819 -0.0092802374 0.57334107
0.044050213 -0.011888098 0.57857853
0.044135891 -0.012765947 0.58325356
0.041167937 -0.016562378 0.58630872
0.038984857 -0.019320559 0.59007651
0.038541373 -0.01930753 0.59431398
0.049881119 -0.001082628 0.55838788
0.048933055 -0.0033259587 0.56027311
0.047728837 -0.0043647336 0.56305981
0.042040221 -0.010919673 0.5678516
0.042086296 -0.010416513 0.57163459
0.040440578 -0.01242475 0.57597983
0.038155824 -0.015060099 0.57705736
0.037776865 -0.015337361 0.58719474
0.036630575 -0.017005157 0.59002155
0.038868017 -0.0094619058 0.56603956
0.039542347 -0.0090219863 0.5692752
0.036528327 -0.012170322 0.57593954
0.034288406 -0.014571395 0.57670981
0.035010561 -0.0087348567 0.56260306
0.029302187 -0.014873485 0.57603759
0.031218294 -0.007316994 0.55976808
0.030904926 -0.0083036134 0.5601722
0.024557367 -0.014860619 0.57445306
0.026631102 -0.010144756 0.56066161
0.023184828 -0.011705736 0.56316471
0.021689247 -0.013812384 0.5675993
0.022376671 -0.014501354 0.5713883
0.0086152963 -0.011773042 0.55863929
0.0072641522 -0.012877561 0.56099838
0.0067780875 -0.0124391 0.55749637
0.0051933676 -0.013586847 0.56040257
0.068870224 -0.0098243253 0.5795486
0.069492385 -0.011581392 0.58381706
0.068555444 -0.012941139 0.58674258
0.065505259 -0.013994106 0.58892334
0.067674167 -0.0081637818 0.57271159
0.067294747 -0.010352279 0.57614726
0.065892555 -0.013643267 0.5805583
0.064217292 -0.015707057 0.58440691
0.061805256 -0.016287902 0.58924419
0.059377607 -0.017308637 0.59204227
0.064723589 -0.0072496394 0.56651843
0.064796358 -0.0092463344 0.56969738
0.063280493 -0.012461394 0.57355201
0.061862614 -0.015236938 0.57779855
0.060154736 -0.017281892 0.5818302
0.057821594 -0.018325411 0.58655638
0.055831246 -0.01911404 0.59107006
0.053187899 -0.019946367 0.59402758
0.062001694 -0.0075165937 0.56521112
0.060570512 -0.010597651 0.56769651
0.059736107 -0.013423871 0.57044625
0.057874948 -0.017071884 0.57778496
0.058463652 -0.017392091 0.5791226
0.053910218 -0.02007506 0.58486235
0.051720999 -0.020307528 0.58890963
0.050337914 -0.020268271 0.59293282
0.056258731 -0.0054019755 0.55904919
0.056686897 -0.0067486297 0.56225324
0.055687528 -0.0095355166 0.56582928
0.053395778 -0.012564942 0.5698086
0.052239619 -0.015754368 0.57084417
0.048846193 -0.019298555 0.57846195
0.048223719 -0.018616404 0.58239323
0.046642486 -0.019507732 0.58718073
0.044838503 -0.020062115 0.59107232
0.04187176 -0.021165293 0.59331542
0.055019677 -0.0053398493 0.55853838
0.053806029 -0.0065627582 0.55995911
0.050090872 -0.013287282 0.57042295
0.048214961 -0.014684123 0.57019496
0.045573764 -0.018256404 0.57705581
0.046215087 -0.017602758 0.57951576
0.04095453 -0.020721633 0.59113729
0.044003047 -0.014251946 0.56710517
0.04512094 -0.013746068 0.56884366
0.04112599 -0.016727421 0.57682705
0.040202104 -0.018765232 0.57663012
0.039886467 -0.013230219 0.56270385
0.034166478 -0.019268699 0.57656628
0.037049524 -0.01383231 0.56084096
0.030988961 -0.020115914 0.57526898
0.031603832 -0.013941184 0.55936909
0.026089571 -0.019702787 0.5721823
0.026871212 -0.014536854 0.5584228
0.023402546 -0.016047297 0.56027287
0.02116885 -0.018731274 0.56621134
0.02231545 -0.019885916 0.56955421
0.02229213 -0.017439118 0.56156456
0.021351967 -0.018192504 0.56381005
0.060111411 -0.016239788 0.57639831
0.058173135 -0.018278256 0.58086324
0.058626939 -0.015076876 0.57204938
0.057609655 -0.016502174 0.5748961
0.055541895 -0.018749112 0.57977831
0.05391518 -0.019972194 0.58256388
0.055838943 -0.015360911 0.57101297
0.052840032 -0.017089849 0.57356071
0.051417049 -0.018708644 0.57712448
0.051556174 -0.020033846 0.5811516
0.048205927 -0.017794058 0.57115483
0.046466447 -0.019582354 0.57461911
0.04448241 -0.017885679 0.56554824
0.045563497 -0.019610066 0.56822312
0.043493334 -0.021757852 0.57357347
0.040362421 -0.02232318 0.57515609
0.040526837 -0.018417396 0.55840302
0.040834077 -0.01745658 0.56107998
0.035155363 -0.023672815 0.57518542
0.033176336 -0.025164314 0.57607406
0.03990186 -0.017741017 0.55849689
0.037657414 -0.017607346 0.55955958
0.03158636 -0.024055451 0.57392704
0.032530062 -0.025098002 0.57592511
0.032210726 -0.018750459 0.55826956
0.027239885 -0.024050888 0.57039112
0.027905244 -0.019183015 0.55714035
0.024512351 -0.020926885 0.55930525
0.022695083 -0.023090221 0.56393808
0.023634598 -0.024254754 0.56784093
0.022967778 -0.019152962 0.56058747
0.022111364 -0.020207683 0.56263614
0.043560095 -0.023337711 0.56697673
0.042080034 -0.024850391 0.5704608
0.041119769 -0.022565136 0.56147456
0.041486077 -0.025369614 0.56427968
0.039520789 -0.027461056 0.56923157
0.036862012 -0.027271889 0.57194752
0.037806645 -0.023023585 0.55886453
0.036526866 -0.029600412 0.56867701
0.032679711 -0.028514024 0.57090306
0.033140108 -0.023430906 0.55758214
0.031068049 -0.02608368 0.55757833
0.02754036 -0.029508706 0.56519693
0.028529778 -0.028393479 0.56828362
0.02926819 -0.02289007 0.55708033
0.027428105 -0.02534721 0.55857754
0.025583774 -0.027290057 0.56279004
0.02561485 -0.027343772 0.56651533
0.039305147 -0.028004833 0.56403846
0.038727835 -0.028753096 0.56626785
0.037863504 -0.0262194 0.55934006
0.035991564 -0.030192893 0.56102365
0.034785457 -0.031708136 0.56385642
0.033279326 -0.030868698 0.5679028
0.035143226 -0.02660419 0.55802506
0.03260297 -0.030664304 0.55950803
0.030999187 -0.032149464 0.56238002
0.030726809 -0.030910337 0.56675667
0.02906115 -0.028477116 0.55950814
0.028309494 -0.029689219 0.56181401
0.049397912 -0.037547998 0.56936342
0.049128346 -0.038326878 0.57068288
0.047860838 -0.037583858 0.56821668
0.035294492 -0.033965763 0.56044626
0.034967288 -0.034708805 0.56133002
0.033463113 -0.034435995 0.55875576
0.032366663 -0.035402458 0.56092268
0.030244634 -0.034345418 0.55844933
0.030006628 -0.034739137 0.5592466
0.053672098 -0.039223008 0.57102787
0.05333703 -0.039816394 0.57206631
0.050884657 -0.039376594 0.56844592
0.050126344 -0.039849415 0.57100749
0.047241233 -0.03942354 0.56273949
0.046730224 -0.039648078 0.56614339
0.047200114 -0.040404368 0.56921947
0.044628587 -0.040458314 0.56041849
0.044084109 -0.041143209 0.56349844
0.03863341 -0.03975112 0.55789149
0.037221584 -0.04048752 0.5595417
0.034771658 -0.039145753 0.55649692
0.033877354 -0.039985485 0.55888438
0.047366492 -0.042213481 0.56131953
0.047161967 -0.043068118 0.56388897
0.044598594 -0.043006353 0.55863076
0.043631051 -0.044064768 0.56159663
0.040231895 -0.043659359 0.55629349
0.039295718 -0.043471657 0.55898929
0.036581602 -0.042945184 0.55592465
0.03624114 -0.042965349 0.55765486
