# .PCD v0.7 - Point Cloud Data file format
VERSION 0.7
FIELDS x y z
SIZE 4 4 4
TYPE F F F
COUNT 1 1 1
WIDTH 837
HEIGHT 1
VIEWPOINT 0 0 0 1 0 0 0
POINTS 837
DATA ascii
0.38359386 -0.17723499 0.81107438
0.38517585 -0.17539264 0.81243956
0.3752465 -0.18274172 0.80990809
0.37822762 -0.18097822 0.81108904
0.38164213 -0.17819187 0.81305486
0.3844184 -0.17488922 0.81539452
0.38645145 -0.17123358 0.81785142
0.38728172 -0.16831121 0.82013023
0.37237275 -0.1833856 0.81199712
0.37543553 -0.18141794 0.81462055
0.37858817 -0.17865498 0.81727946
0.38140047 -0.17525078 0.8197186
0.3839418 -0.17135832 0.82158774
0.38562074 -0.16747262 0.82324499
0.36647028 -0.18447843 0.8133685
0.36868045 -0.18352862 0.81507432
0.37205553 -0.18132797 0.81829512
0.37517181 -0.17854244 0.82104957
0.37802145 -0.1750932 0.82351798
0.38053173 -0.17119098 0.82546479
0.38279349 -0.16663812 0.8269369
0.38300657 -0.16388844 0.82840598
0.36399212 -0.18400455 0.81577229
0.36496809 -0.18281505 0.81845641
0.36844885 -0.18062787 0.82160765
0.37153006 -0.17774785 0.8245132
0.37438029 -0.17437109 0.82687503
0.37695867 -0.17049743 0.82874525
0.3791689 -0.1659884 0.83023411
0.38114834 -0.16356169 0.83009297
0.36188826 -0.18133962 0.82168663
0.36441651 -0.1792365 0.82470679
0.36763626 -0.17654189 0.82735384
0.37053829 -0.17316972 0.82970327
0.37304816 -0.16913527 0.83170795
0.37519038 -0.1655197 0.83276963
0.35982507 -0.17969093 0.82422966
0.36105815 -0.17753004 0.82698601
0.36348534 -0.17463014 0.82986802
0.36623576 -0.17138058 0.83214456
0.36919412 -0.16788758 0.83372229
0.37174568 -0.16530831 0.83430463
0.3615827 -0.17281181 0.83149928
0.36314398 -0.17091557 0.83284187
0.38057548 -0.18001689 0.80095476
0.3830739 -0.17830345 0.8023802
0.38605529 -0.1756762 0.80429143
0.38881603 -0.17239982 0.80658013
0.39080229 -0.16908959 0.80882078
0.37409705 -0.18344969 0.80146486
0.37756139 -0.18191546 0.8026523
0.38108346 -0.17984107 0.80539417
0.38435835 -0.17705923 0.80809319
0.38726804 -0.17360088 0.81048775
0.38963169 -0.16966823 0.81251097
0.39134946 -0.16557103 0.8142249
0.39203387 -0.16215746 0.81629026
0.37134027 -0.18448786 0.80374765
0.37497535 -0.18316065 0.80653244
0.37867761 -0.18119159 0.80843467
0.38137051 -0.17929885 0.80974013
0.38702324 -0.17260313 0.81435144
0.38819721 -0.1698491 0.81638902
0.38935012 -0.16600546 0.81860507
0.39059833 -0.16157836 0.81977153
0.39033204 -0.15806425 0.82204634
0.36520931 -0.185718 0.80483365
0.36816162 -0.18516102 0.80727851
0.37128267 -0.18419443 0.80960095
0.3871949 -0.16531545 0.82283729
0.38797301 -0.16144027 0.82402617
0.38869932 -0.1576723 0.82455397
0.36153951 -0.18571761 0.80800176
0.36479849 -0.18514006 0.81102437
0.38512546 -0.16451935 0.82597709
0.38472021 -0.161267 0.82787281
0.38581321 -0.15704708 0.82808381
0.35819045 -0.18501979 0.81136096
0.36106125 -0.18441355 0.81449002
0.36179993 -0.18331443 0.81780601
0.37889856 -0.16320965 0.83181405
0.38101313 -0.16057205 0.83125633
0.38219455 -0.15643211 0.83140433
0.35499272 -0.18373486 0.81443179
0.35719067 -0.18303147 0.81741393
0.35943037 -0.18188457 0.82054019
0.3751857 -0.1629921 0.8338604
0.37699652 -0.15934318 0.83405876
0.3784354 -0.1557297 0.83400106
0.35350329 -0.181095 0.81988692
0.35648388 -0.17959678 0.82359111
0.35837162 -0.17717436 0.82715327
0.35993841 -0.17487015 0.82971257
0.36523694 -0.16861323 0.83410215
0.36775976 -0.16600747 0.83500195
0.37080303 -0.16250122 0.83562422
0.37281898 -0.15815027 0.83613122
0.37524602 -0.15529329 0.83566886
0.35133052 -0.1788975 0.82247895
0.35280824 -0.17708853 0.82557577
0.35549754 -0.17481643 0.82889807
0.35859215 -0.17209187 0.83176953
0.3615368 -0.16868253 0.83417106
0.36405471 -0.16466023 0.83601671
0.36656293 -0.16067377 0.83708417
0.36924264 -0.15773107 0.83728528
0.35270345 -0.17250714 0.83008343
0.3551107 -0.1696312 0.83283317
0.35785624 -0.16644287 0.83508623
0.36051717 -0.16320592 0.83664739
0.38460696 -0.1755646 0.79619938
0.38771272 -0.17290005 0.79844499
0.39038551 -0.16971877 0.80065012
0.39250511 -0.16619438 0.80281168
0.37609076 -0.1812184 0.79521185
0.37966707 -0.1796056 0.79673237
0.38332757 -0.17746621 0.79885793
0.38694349 -0.17444925 0.80125749
0.38983256 -0.17101586 0.80378151
0.3920618 -0.16712217 0.80620998
0.39354268 -0.16311859 0.8084861
0.39437979 -0.15940009 0.81042182
0.3700625 -0.1836964 0.7960543
0.37361598 -0.18290359 0.79761398
0.37741876 -0.1816382 0.7995258
0.39292619 -0.16303416 0.81239694
0.39344028 -0.15918866 0.81433994
0.39358556 -0.15552898 0.81591183
0.3631714 -0.18505193 0.79735446
0.36691943 -0.18491267 0.79880005
0.37042508 -0.18450442 0.80049235
0.39192435 -0.15877581 0.818708
0.39199206 -0.15503556 0.81969392
0.39138475 -0.15129429 0.82124799
0.36055136 -0.18548574 0.79986292
0.36322385 -0.18569346 0.80188787
0.38962168 -0.15454257 0.82383376
0.38956726 -0.15100774 0.82407719
0.35697281 -0.18546341 0.80315334
0.35944733 -0.18577237 0.80529273
0.386439 -0.15368901 0.82788759
0.38664469 -0.15038025 0.82765555
0.35352641 -0.18478276 0.80623317
0.35576084 -0.18504956 0.80887663
0.38269919 -0.1529588 0.831339
0.38306499 -0.14962222 0.8309406
0.35041219 -0.18356088 0.80916303
0.35211015 -0.18349217 0.81236178
0.37833518 -0.15230827 0.83423227
0.37935561 -0.14895919 0.83350027
0.3489112 -0.18142474 0.81523019
0.350429 -0.1806037 0.81884032
0.37219819 -0.15497474 0.8368147
0.37410849 -0.15152214 0.83620292
0.37633243 -0.14831559 0.83509386
0.34624869 -0.17911986 0.81768477
0.34785506 -0.17792074 0.82133657
0.34966776 -0.17624794 0.82500589
0.36510289 -0.15804295 0.83787626
0.36766827 -0.15426597 0.83792973
0.37014264 -0.15087768 0.837506
0.34545556 -0.17524701 0.82309431
0.34738773 -0.17344972 0.82649398
0.34961119 -0.17087699 0.82998049
0.35225427 -0.16782048 0.83306193
0.3552494 -0.16428643 0.83555436
0.35837471 -0.16058666 0.83723944
0.36127323 -0.15673707 0.83817899
0.36392426 -0.15347594 0.83846599
0.34568578 -0.17011838 0.82834297
0.34721705 -0.16829428 0.83052576
0.34982491 -0.16555952 0.8332898
0.3524757 -0.16231945 0.83554363
0.35512134 -0.1587839 0.83718312
0.35710111 -0.1564588 0.83794922
0.38905102 -0.16825329 0.79286295
0.39077166 -0.16605398 0.79423338
0.37752852 -0.17767173 0.78919894
0.38079545 -0.17644711 0.79109192
0.384682 -0.17384288 0.79276061
0.38806766 -0.17075044 0.79458576
0.3909587 -0.16733459 0.79704762
0.39315209 -0.16368181 0.79977715
0.39457837 -0.16011061 0.80260807
0.39537016 -0.15649629 0.80420965
0.37154678 -0.18099172 0.79020196
0.37520346 -0.18002385 0.79136997
0.37924182 -0.17856197 0.7929799
0.39464784 -0.16019876 0.80586052
0.3951703 -0.15630312 0.80808336
0.39523417 -0.15272444 0.81002241
0.3649402 -0.1830093 0.79148245
0.36866897 -0.18271634 0.79238588
0.37253943 -0.18214571 0.79356384
0.39467829 -0.1558343 0.81200922
0.39434099 -0.15197676 0.81389266
0.39378384 -0.14841202 0.81525338
0.36233824 -0.1840612 0.79400831
0.36560202 -0.18425313 0.79512453
0.39298612 -0.15167135 0.81792867
0.39230722 -0.1484751 0.81887203
0.35840243 -0.18464091 0.79665142
0.38984382 -0.14720778 0.82296199
0.35173029 -0.18365936 0.7982952
0.35437095 -0.18457846 0.79965961
0.38667503 -0.14607951 0.82682753
0.38595995 -0.14312302 0.82670009
0.34970093 -0.18327986 0.80025554
0.3506318 -0.18385236 0.80309516
0.3829926 -0.14528611 0.83017904
0.38388544 -0.14269479 0.82861757
0.34744993 -0.1825128 0.806732
0.37895206 -0.14508432 0.83299071
0.3446978 -0.18062192 0.81014848
0.34553039 -0.18036649 0.81338435
0.37303567 -0.14770883 0.83634758
0.374569 -0.1449355 0.83519328
0.34211278 -0.17848039 0.81215775
0.34301382 -0.17773429 0.81590092
0.34413746 -0.17666268 0.81973511
0.36618116 -0.15043446 0.83825278
0.36869738 -0.14719538 0.83742839
0.3708705 -0.14413789 0.83634824
0.34105104 -0.17509873 0.81809402
0.34221458 -0.17358732 0.82175511
0.34388646 -0.17176117 0.82551396
0.35928634 -0.15348805 0.83841658
0.36214122 -0.14978801 0.83841151
0.36475253 -0.14682905 0.83800662
0.34047306 -0.17051812 0.82331258
0.34231648 -0.16894826 0.82647294
0.34412795 -0.16598681 0.8298468
0.34639886 -0.16257483 0.83283991
0.34938398 -0.15921317 0.83528227
0.35269672 -0.15594231 0.8369866
0.35612804 -0.15250915 0.8380053
0.35814154 -0.14927302 0.83822733
0.34522909 -0.15966989 0.83317405
0.34638304 -0.15822633 0.83415109
0.3820188 -0.17132741 0.78565735
0.38480115 -0.1699073 0.78758729
0.38806552 -0.1673114 0.78994679
0.39086187 -0.16390233 0.79221416
0.39295951 -0.16018748 0.79445398
0.39404723 -0.15699254 0.79572278
0.37616152 -0.1761916 0.78599727
0.38038439 -0.17392546 0.78694266
0.38406509 -0.17211333 0.78906661
0.38680783 -0.17030835 0.79103494
0.39344937 -0.16102618 0.79684412
0.39474547 -0.15686534 0.798949
0.39547497 -0.15324815 0.80213523
0.36624041 -0.17927918 0.78520137
0.37018988 -0.17913911 0.78644955
0.37402409 -0.17830332 0.78728861
0.39562905 -0.15277034 0.80538547
0.39535445 -0.14927427 0.80750638
0.36413598 -0.18117741 0.78785241
0.3673521 -0.18110603 0.78838766
0.39477915 -0.14845029 0.81141227
0.39396241 -0.14555225 0.81280714
0.35664615 -0.18174244 0.78946066
0.35981721 -0.18236175 0.79005176
0.39215991 -0.14384069 0.81708443
0.39087078 -0.1409781 0.81805938
0.35435432 -0.18247285 0.79218715
0.35666353 -0.183396 0.79324371
0.38987628 -0.14363156 0.82161993
0.38915351 -0.14099105 0.82121921
0.35081229 -0.18256506 0.79551017
0.3542093 -0.18376699 0.7958324
0.38623694 -0.14056492 0.82503378
0.34717309 -0.18185818 0.79886079
0.34736803 -0.18249963 0.80216724
0.38253787 -0.13992192 0.82847553
0.343914 -0.18048845 0.80178684
0.34455696 -0.18106148 0.80436844
0.37793347 -0.14123911 0.83241051
0.37871563 -0.13905573 0.83092684
0.34112495 -0.17872001 0.8037281
0.34143111 -0.1787997 0.80713534
0.37376696 -0.1403321 0.83404344
0.37534291 -0.13796736 0.83233124
0.33920592 -0.17632699 0.81075364
0.33957613 -0.17575049 0.81386554
0.36699215 -0.1430447 0.83689231
0.36905298 -0.14069048 0.83568156
0.33791938 -0.17285302 0.8162176
0.3387413 -0.1714935 0.81987774
0.36031431 -0.14568081 0.8378787
0.36304903 -0.14294694 0.83718556
0.33767653 -0.16870132 0.82136619
0.3387821 -0.16583051 0.82513577
0.34117338 -0.16365394 0.82878548
0.34315068 -0.16173324 0.83119136
0.34860453 -0.15549661 0.83565617
0.35051373 -0.15243106 0.83655214
0.35320356 -0.14875573 0.83717984
0.35703546 -0.14569902 0.83752269
0.33800495 -0.16281806 0.8261131
0.33991665 -0.16124925 0.82867575
0.34270099 -0.15855251 0.83173966
0.34546819 -0.1551262 0.83406627
0.34807122 -0.15151019 0.83553898
0.3499451 -0.14844073 0.83615124
0.3803246 -0.16968641 0.78269607
0.38383538 -0.1672405 0.78416181
0.38728699 -0.16391207 0.78603262
0.39010763 -0.16055714 0.78840762
0.39239094 -0.15700509 0.79131234
0.39379081 -0.15379593 0.79401743
0.37158188 -0.17478046 0.781762
0.3751516 -0.1732942 0.78219116
0.37868476 -0.17181338 0.78315151
0.39457044 -0.15294915 0.79646897
0.3949509 -0.1496892 0.79881203
0.39499414 -0.14658377 0.80140066
0.36514807 -0.17739668 0.78269148
0.36865988 -0.17664641 0.78269798
0.39492136 -0.14544825 0.80468976
0.39428765 -0.1430286 0.80713242
0.36191887 -0.17884119 0.78427035
0.39333761 -0.14141598 0.81038266
0.35590872 -0.17972776 0.78639275
0.3585203 -0.18007433 0.78621435
0.39203367 -0.14014395 0.81406027
0.39067519 -0.1382491 0.81554806
0.35215285 -0.18024443 0.78899038
0.38838187 -0.13708261 0.81919461
0.34807479 -0.18003133 0.79190707
0.38520831 -0.13588315 0.82290888
0.34445804 -0.17932181 0.79521698
0.38156056 -0.13520902 0.82629967
0.34119537 -0.17808571 0.7990573
0.37746003 -0.13499564 0.8292799
0.33869845 -0.17645565 0.80227059
0.33816394 -0.17609262 0.80494678
0.37177062 -0.13631865 0.8329072
0.37354669 -0.13496885 0.83136338
0.33631742 -0.17384678 0.80772507
0.36777368 -0.13636264 0.83397377
0.33503816 -0.17166685 0.81063879
0.33489025 -0.17013526 0.81381631
0.36111292 -0.13881089 0.83573437
0.36401394 -0.1368809 0.83480424
0.33417258 -0.16759019 0.81619596
0.33466628 -0.16547719 0.81945366
0.33557725 -0.16337034 0.82264596
0.35149869 -0.14440231 0.83593112
0.35458183 -0.14193352 0.83605522
0.35768336 -0.13954595 0.83580285
0.33554626 -0.16099519 0.82385498
0.33726594 -0.15815452 0.82698566
0.33957195 -0.15456642 0.82991648
0.34238222 -0.15132496 0.83225638
0.34577668 -0.14797573 0.83409071
0.34886941 -0.14509439 0.83508193
0.37566993 -0.16747439 0.77809316
0.37845784 -0.16683464 0.77940953
0.38250723 -0.16367328 0.78077549
0.38587826 -0.16039073 0.78262186
0.3886871 -0.15703782 0.78496772
0.39100432 -0.15356123 0.78789437
0.39272821 -0.14996678 0.7913934
0.39296061 -0.14712459 0.79261279
0.36984172 -0.17203841 0.77878058
0.37372029 -0.16993585 0.77876186
0.37699515 -0.16969287 0.7802425
0.39402789 -0.1499287 0.79468602
0.39369297 -0.14607798 0.79547203
0.39385232 -0.14322072 0.79880661
0.36358073 -0.17439678 0.77954364
0.36682317 -0.17349069 0.77919394
0.39367473 -0.141315 0.80174202
0.39308637 -0.139349 0.80430979
0.35645524 -0.17544311 0.78101766
0.35959908 -0.17576987 0.78091389
0.39194894 -0.13724375 0.80795264
0.39051726 -0.13492875 0.8096447
0.35433906 -0.17680201 0.78313524
0.35747135 -0.17763248 0.78313416
0.39150074 -0.13745816 0.81171161
0.38967937 -0.13479066 0.81268597
0.3498697 -0.17713986 0.78569663
0.38690755 -0.13297325 0.81673485
0.34570539 -0.17694581 0.78876388
0.38373384 -0.13174203 0.82037199
0.3420417 -0.17617962 0.79204673
0.37999979 -0.13096178 0.82375419
0.33888948 -0.1750105 0.79573929
0.3759183 -0.13077015 0.82675415
0.33613634 -0.17326121 0.79982489
0.33579999 -0.1734705 0.8031342
0.36966407 -0.13300806 0.83150291
0.37135258 -0.13120915 0.8294453
0.33443719 -0.17147611 0.80164635
0.33386344 -0.17079884 0.80460274
0.36614773 -0.13223834 0.83164501
0.36840689 -0.1306802 0.830019
0.33255756 -0.16839194 0.80810708
0.33214545 -0.16671304 0.81098253
0.35903585 -0.13469185 0.83349842
0.36211655 -0.1332618 0.83272833
0.33182159 -0.16459544 0.81353688
0.33209643 -0.16195051 0.81704122
0.35022902 -0.14122203 0.83453375
0.35214722 -0.13810728 0.8338266
0.35585412 -0.1358594 0.83369184
0.33185756 -0.15907007 0.81850582
0.33312955 -0.15801392 0.82130516
0.33478045 -0.15448247 0.82465088
0.33700657 -0.15085848 0.82746506
0.33987108 -0.14758524 0.82987666
0.34320322 -0.1442626 0.83169621
0.34714296 -0.14104247 0.83297098
0.34908041 -0.13866538 0.83295977
0.37452033 -0.16514762 0.77635098
0.37664086 -0.1631819 0.77660191
0.38051364 -0.16006444 0.77787411
0.38395616 -0.15675774 0.77976328
0.38669035 -0.15338849 0.78203297
0.38906693 -0.15001021 0.78500283
0.39077801 -0.14637454 0.78845543
0.39189216 -0.14510119 0.79105437
0.36790967 -0.16836229 0.77587962
0.37184486 -0.16626106 0.77589208
0.37349153 -0.16273929 0.77493703
0.39027637 -0.14297931 0.78900379
0.39174101 -0.14245351 0.7925576
0.39200333 -0.13972147 0.79610103
0.36166492 -0.17087804 0.77679014
0.36484936 -0.1698304 0.77627206
0.39169532 -0.1376451 0.79864389
0.39123008 -0.13585594 0.80152339
0.35530469 -0.1733792 0.77943552
0.35771134 -0.17210457 0.77800757
0.38997787 -0.13354613 0.80508727
0.38966185 -0.13328484 0.80832469
0.35239252 -0.17325279 0.78034663
0.35402948 -0.17103468 0.77797872
0.38770282 -0.130448 0.80637896
0.38774335 -0.13112524 0.80980843
0.34785122 -0.17349476 0.78287238
0.38498065 -0.1293506 0.8138842
0.34380108 -0.17330737 0.78585976
0.38167077 -0.12805809 0.81761593
0.34010136 -0.17262733 0.78932405
0.37808487 -0.12737598 0.82091385
0.3369635 -0.1713805 0.79287213
0.37408903 -0.12726414 0.82397223
0.33423924 -0.16965894 0.79691046
0.33232498 -0.16685866 0.79793817
0.36604697 -0.12635724 0.82617557
0.36950675 -0.1275813 0.8265602
0.33317515 -0.16908206 0.79974335
0.33188039 -0.16706534 0.8016054
0.36423019 -0.12852965 0.82870662
0.36746758 -0.12897408 0.82869256
0.33076447 -0.1650223 0.80533063
0.33014825 -0.1629487 0.80806309
0.35706556 -0.13084456 0.83046597
0.36017844 -0.1298995 0.83006847
0.32996386 -0.16107814 0.81080574
0.33014402 -0.15819058 0.81423837
0.34672585 -0.13444789 0.82920384
0.35011673 -0.1343345 0.83084756
0.35404325 -0.13239357 0.83096302
0.33088273 -0.15718076 0.81707865
0.33115554 -0.15446639 0.81835628
0.33279204 -0.15082385 0.82169694
0.33509591 -0.14722787 0.82460207
0.33803335 -0.14381312 0.82706624
0.34133109 -0.14060925 0.82885331
0.3452732 -0.13746658 0.83015239
0.3480947 -0.13658039 0.83135402
0.37489781 -0.15928099 0.77454871
0.3780584 -0.15629981 0.77555221
0.38146907 -0.15307629 0.77740586
0.38431442 -0.14962107 0.77979171
0.38658807 -0.14616439 0.78269035
0.38823017 -0.14340115 0.78567839
0.36621508 -0.16474563 0.77383709
0.36931503 -0.16236889 0.77360064
0.37234548 -0.15971912 0.77366072
0.38816389 -0.14088814 0.78691369
0.38919264 -0.13884223 0.79025644
0.38971999 -0.1367199 0.79361594
0.35987723 -0.16742986 0.77483296
0.36280245 -0.16553076 0.77392179
0.38898954 -0.13425647 0.79583454
0.38903254 -0.13296874 0.79905856
0.35613701 -0.16784863 0.77559125
0.38751113 -0.13048598 0.80188823
0.35037175 -0.16936004 0.77824372
0.3521862 -0.16799478 0.77668822
0.38563129 -0.12819612 0.80471879
0.38518971 -0.12791932 0.80730712
0.34636188 -0.1693608 0.7803877
0.38255259 -0.12618455 0.81062382
0.34227371 -0.16914108 0.78336048
0.37940094 -0.12498319 0.81432098
0.33864737 -0.16846882 0.78672606
0.37572214 -0.12423841 0.81763607
0.33541903 -0.16721524 0.79046667
0.37162766 -0.12413642 0.8207866
0.33309668 -0.16599685 0.79416513
0.33178601 -0.16411813 0.79552269
0.3652252 -0.12429483 0.8235144
0.36794183 -0.12453943 0.82316124
0.33054215 -0.16295859 0.7990858
0.36187738 -0.12552869 0.82542223
0.32955724 -0.16133709 0.8024866
0.3289206 -0.1589255 0.80488396
0.35512063 -0.12765099 0.82690179
0.35853669 -0.12691553 0.82691503
0.32877684 -0.15740293 0.80814892
0.32888502 -0.15460733 0.81090546
0.32928979 -0.15148999 0.81330591
0.34523836 -0.13256873 0.82660437
0.3487916 -0.13088185 0.82737821
0.35237148 -0.12946972 0.82785892
0.33007121 -0.15055318 0.81573039
0.33144203 -0.14721107 0.81829804
0.33378094 -0.14370152 0.82129914
0.33657333 -0.14040877 0.82364661
0.33993784 -0.13714737 0.82546759
0.34346503 -0.13461925 0.82689965
0.37387991 -0.1559235 0.77349621
0.37568432 -0.15274984 0.77407163
0.37840861 -0.1492113 0.77559936
0.38119787 -0.14590326 0.77792484
0.38376623 -0.14309038 0.78082401
0.38586485 -0.14159513 0.78353572
0.36675501 -0.15854943 0.7721023
0.3705602 -0.15567438 0.77245921
0.37330049 -0.15194598 0.77308357
0.38080016 -0.14225765 0.77866513
0.38271999 -0.14063458 0.78092116
0.38499627 -0.13849193 0.78445023
0.38609311 -0.13556536 0.78825188
0.38773921 -0.13483241 0.79171777
0.3607423 -0.16140305 0.77246606
0.36359143 -0.15842777 0.7717281
0.38516682 -0.13288611 0.78982085
0.38580403 -0.13136481 0.79340917
0.35473162 -0.16357359 0.77395564
0.35676894 -0.16113365 0.77271956
0.38432914 -0.12862401 0.79583025
0.38463438 -0.1279988 0.79893708
0.34828758 -0.1662042 0.77733159
0.35014537 -0.16404228 0.77558511
0.38249788 -0.12559372 0.80263323
0.38253582 -0.12547961 0.80598354
0.34512681 -0.1653327 0.77874219
0.34588706 -0.16309166 0.77724373
0.3792361 -0.12323844 0.80528355
0.37993661 -0.12384179 0.80781692
0.34129265 -0.16450185 0.78122365
0.34285933 -0.16220921 0.77884305
0.37660596 -0.12243488 0.81074053
0.33758312 -0.16377075 0.78463078
0.33574992 -0.16083808 0.78535128
0.3697623 -0.12056447 0.81370884
0.3729803 -0.12171605 0.81404734
0.33467475 -0.16337053 0.78845137
0.33378929 -0.16082498 0.78836626
0.36724225 -0.12095313 0.81641054
0.36945733 -0.12180123 0.81734961
0.33294171 -0.16337736 0.79165506
0.33165914 -0.16040683 0.7925297
0.36403826 -0.1219381 0.81953192
0.36718759 -0.12252816 0.82007653
0.32986885 -0.15875973 0.79679757
0.32902616 -0.15589316 0.79837549
0.3565627 -0.12322414 0.82128626
0.35984406 -0.12315403 0.82182229
0.32908788 -0.15870766 0.80051744
0.32847512 -0.15507787 0.80209851
0.32820195 -0.15176088 0.80419302
0.34983841 -0.12591323 0.82221651
0.35351396 -0.12520707 0.82316852
0.32829696 -0.15482301 0.80616057
0.32833526 -0.15125118 0.80732256
0.32907149 -0.14753403 0.81066877
0.33027101 -0.14355302 0.81267482
0.33717993 -0.13385558 0.81867868
0.33971912 -0.1322592 0.8205747
0.34348434 -0.13036168 0.82269835
0.34766999 -0.12810272 0.82361084
0.32979918 -0.14727299 0.81395215
0.33088732 -0.14416875 0.81525767
0.33296758 -0.14034609 0.81735653
0.33582178 -0.13701585 0.81979656
0.33912069 -0.13438185 0.82213104
0.34188244 -0.13291016 0.8239727
0.37737095 -0.14626041 0.7754274
0.37916675 -0.14398189 0.77699804
0.36546987 -0.15495817 0.77138358
0.36770329 -0.1517597 0.77164012
0.37116536 -0.14841621 0.7726655
0.37445253 -0.14516921 0.77435607
0.37735474 -0.14171733 0.7767719
0.37965104 -0.13830703 0.77977771
0.38149545 -0.13548432 0.78306705
0.38334104 -0.13382873 0.78629678
0.35911572 -0.15765981 0.7716642
0.36165297 -0.15448008 0.7712329
0.36452821 -0.15087052 0.77122736
0.37999138 -0.13264839 0.78409725
0.38166949 -0.13075083 0.78794646
0.38273317 -0.12921739 0.79149026
0.35288417 -0.1601488 0.77330655
0.35507062 -0.15715484 0.77223569
0.35748124 -0.15383586 0.77141321
0.3796545 -0.12766077 0.78986931
0.38082671 -0.12661257 0.79371846
0.38165507 -0.12580237 0.79747707
0.34927821 -0.15934248 0.77443045
0.35065344 -0.15665382 0.77335334
0.37816972 -0.12385862 0.79635447
0.37913331 -0.12372492 0.79939955
0.34492037 -0.15922984 0.77662516
0.37637651 -0.12181506 0.80288929
0.34017235 -0.16171326 0.78085887
0.34079435 -0.1590644 0.77951372
0.37323594 -0.12049208 0.80656081
0.37440017 -0.12113582 0.80929238
0.33811361 -0.16133299 0.78273672
0.33714294 -0.15827693 0.78284013
0.36939299 -0.11970973 0.80983627
0.37228686 -0.12068278 0.81113392
0.3340067 -0.15718015 0.78666848
0.36540511 -0.11967394 0.81296098
0.33156881 -0.15593031 0.7906875
0.33087742 -0.15275516 0.79163879
0.35849515 -0.12003733 0.81448406
0.36141208 -0.12031 0.81576478
0.33010697 -0.15576319 0.79415625
0.32948834 -0.15227607 0.79575336
0.32915786 -0.14846109 0.79762721
0.3513256 -0.12205735 0.81578189
0.35519457 -0.12160823 0.81726849
0.358915 -0.1213928 0.81833875
0.32859826 -0.15160066 0.79959989
0.32865283 -0.1480059 0.80161208
0.32917657 -0.14415924 0.80372167
0.34462109 -0.12575768 0.81668752
0.34861037 -0.12427503 0.81821001
0.35217386 -0.12339421 0.81949055
0.3284539 -0.1478578 0.80536383
0.32921433 -0.14438583 0.80700898
0.33068502 -0.140624 0.80986494
0.33284968 -0.13709994 0.81274188
0.3357712 -0.13359173 0.81511086
0.33918467 -0.13044441 0.81688416
0.34297115 -0.12792075 0.8185401
0.34625062 -0.12658228 0.82027102
0.33302349 -0.13827524 0.81532216
0.33468059 -0.13627818 0.81684566
0.36670169 -0.14804661 0.77166933
0.36878991 -0.14529078 0.77253896
0.37139282 -0.14206058 0.77409166
0.37407881 -0.1388091 0.7763654
0.37645933 -0.1360327 0.77903318
0.3783184 -0.13443473 0.78124958
0.35984978 -0.15090671 0.77118355
0.36258578 -0.14757511 0.77146906
0.36556664 -0.14397369 0.77235806
0.36860853 -0.14013575 0.77406025
0.37150934 -0.13658398 0.77651727
0.37427729 -0.13346635 0.77968287
0.37647119 -0.13098428 0.78306144
0.37830082 -0.12907907 0.78649008
0.35384059 -0.15335105 0.77209538
0.35605031 -0.15020971 0.77172077
0.35881659 -0.14642383 0.77174157
0.37413129 -0.12807536 0.78462994
0.37601212 -0.12629966 0.78850675
0.37757242 -0.12522742 0.79190981
0.34725574 -0.15575312 0.77463591
0.3497504 -0.15269366 0.77342993
0.35183209 -0.149321 0.77277082
0.37331054 -0.12366227 0.79084855
0.37489355 -0.12289197 0.79441053
0.34439579 -0.15532072 0.77618563
0.34541661 -0.15209669 0.77545685
0.37169123 -0.12080146 0.7973901
0.37344578 -0.12077105 0.80052394
0.34071457 -0.15471295 0.7787407
0.34113422 -0.15133289 0.77830428
0.36808395 -0.11928038 0.80076498
0.37024599 -0.11953388 0.80341977
0.33721077 -0.1539807 0.7819649
0.33740485 -0.15062955 0.78173912
0.36436096 -0.11855274 0.80425948
0.3666636 -0.1188406 0.80653954
0.33426449 -0.15338656 0.78556734
0.33423862 -0.14994732 0.78575546
0.36056378 -0.11862633 0.80765128
0.36338332 -0.11883458 0.80971915
0.33249658 -0.15298483 0.78830367
0.33192205 -0.14919242 0.78980696
0.33181867 -0.14543058 0.79118389
0.3534826 -0.11980136 0.80915374
0.35695776 -0.11940125 0.8108179
0.36074442 -0.11924853 0.8121891
0.330185 -0.14890328 0.79387057
0.33035058 -0.14513534 0.79542732
0.33098254 -0.14107069 0.79725176
0.34635186 -0.12272707 0.81016117
0.35036463 -0.12133957 0.81191564
0.35382637 -0.12064195 0.81368268
0.32942191 -0.1450181 0.79928708
0.33026764 -0.14126579 0.80116218
0.33173749 -0.13726403 0.80353683
0.33401099 -0.13329944 0.80597568
0.33692026 -0.12985022 0.80846584
0.34052554 -0.12682451 0.81073737
0.34416771 -0.12469335 0.81283242
0.34773046 -0.12315776 0.81457502
0.32997644 -0.14126149 0.80514944
0.33135933 -0.13804589 0.80684483
0.33345386 -0.13461502 0.80910021
0.33611432 -0.13142405 0.81118691
0.33903575 -0.12887365 0.81326383
0.34158587 -0.12721691 0.81499231
0.36127499 -0.14366242 0.77216798
0.36337301 -0.14125612 0.77295047
0.36608246 -0.13792357 0.77455658
0.36876777 -0.13470504 0.77681637
0.37116608 -0.13184083 0.77955222
0.37282449 -0.12992579 0.78190023
0.35471511 -0.14663045 0.77232623
0.35724115 -0.14373694 0.7725451
0.35984001 -0.13959974 0.77364773
0.36230689 -0.13575183 0.77541554
0.36526284 -0.13220905 0.77789766
0.36837012 -0.12951246 0.78075927
0.37104759 -0.12724628 0.78407294
0.3724882 -0.12539144 0.78721821
0.35101229 -0.14625327 0.77350217
0.35297802 -0.14180778 0.77404398
0.35596964 -0.13825533 0.77469099
0.358688 -0.13580145 0.77548164
0.36383364 -0.12958252 0.77981353
0.36537236 -0.1271438 0.78248739
0.36740485 -0.12475479 0.78603536
0.37029341 -0.12330411 0.78960115
0.37108624 -0.12190422 0.79302061
0.34539542 -0.14854893 0.77564865
0.34683418 -0.14503348 0.77557266
0.34856802 -0.14145517 0.77576935
0.36437982 -0.12241758 0.78913283
0.36664599 -0.12129051 0.79224128
0.36884353 -0.12057164 0.7953068
0.34164059 -0.14788726 0.77823824
0.34283805 -0.14369318 0.7783885
0.36243516 -0.12116655 0.79148304
0.36278793 -0.11993811 0.79508013
0.36561021 -0.11927269 0.7984401
0.33818188 -0.14739083 0.78136754
0.33911544 -0.14298078 0.78179872
0.33852527 -0.1398478 0.78384137
0.35898936 -0.1192375 0.79836541
0.36219195 -0.1186168 0.80155891
0.33523628 -0.14664589 0.78495675
0.33582634 -0.14288533 0.78565818
0.3365733 -0.13906866 0.78684616
0.35236442 -0.12017314 0.80012566
0.35573468 -0.11916672 0.80222249
0.35865226 -0.11860542 0.80469096
0.3334474 -0.14614819 0.78772253
0.33322191 -0.142846 0.78982794
0.33458012 -0.13825233 0.79090142
0.33566144 -0.13430725 0.79348528
0.33693665 -0.13152263 0.79538345
0.34184343 -0.12551723 0.79970717
0.34500942 -0.12321614 0.8011995
0.34877497 -0.12120967 0.80289888
0.35257939 -0.11981882 0.80597311
0.33179593 -0.1421553 0.793369
0.33245713 -0.13880779 0.79540825
0.33413818 -0.13471106 0.79721546
0.33657184 -0.13073958 0.7990697
0.33943775 -0.12730677 0.80148828
0.3427228 -0.12449871 0.804322
0.34629512 -0.12238973 0.80691791
0.34967715 -0.12091298 0.80832398
0.33293584 -0.13540731 0.80078465
0.33502042 -0.13193311 0.80296534
0.33770204 -0.12872016 0.80534977
0.34087619 -0.12593883 0.80736232
0.34334868 -0.1242443 0.80867505
0.3608098 -0.13316485 0.77696002
0.36216056 -0.13171481 0.77798277
0.35186046 -0.1390041 0.77542061
0.3546333 -0.13640407 0.77593976
0.35759109 -0.13308245 0.77740169
0.36036968 -0.12974116 0.77973384
0.36274076 -0.12672348 0.78273565
0.36409324 -0.12473568 0.78528535
0.34861857 -0.1388842 0.77685332
0.35084495 -0.13509941 0.77796781
0.35335308 -0.13121904 0.77987075
0.3561779 -0.12782261 0.78225517
0.35926935 -0.12499124 0.78508335
0.36200026 -0.12294841 0.78802711
0.3428137 -0.14085236 0.77940965
0.34461316 -0.13845515 0.77938187
0.34685683 -0.13391262 0.78084767
0.34935173 -0.13000654 0.78277528
0.35229111 -0.12657163 0.78514737
0.35537213 -0.1237406 0.78796965
0.35884175 -0.12152182 0.79117769
0.36017752 -0.12037856 0.79365462
0.34110913 -0.14045814 0.78097236
0.34098527 -0.13770719 0.78273976
0.34325185 -0.13317959 0.78417945
0.34579811 -0.12921801 0.78615683
0.34860954 -0.12581126 0.78859198
0.35176539 -0.12297764 0.79140407
0.35518312 -0.12076944 0.79464161
0.35783574 -0.11992667 0.79574162
0.33819896 -0.13681842 0.78644723
0.33986479 -0.1330649 0.78797507
0.34239274 -0.12902251 0.79005218
0.34531704 -0.12565118 0.79232359
0.34842849 -0.12283012 0.79521644
0.35157678 -0.12090726 0.79762119
0.33649433 -0.13596827 0.78965098
0.33739969 -0.13310415 0.79174
0.33941326 -0.12943947 0.79423791
0.34223226 -0.12612233 0.79651755
0.34552389 -0.12338765 0.79859036
0.34868246 -0.12155156 0.79966754
0.33843181 -0.12922487 0.79705858
0.34008569 -0.12724286 0.79845226
