# .PCD v0.7 - Point Cloud Data file format
VERSION 0.7
FIELDS x y z
SIZE 4 4 4
TYPE F F F
COUNT 1 1 1
WIDTH 1190
HEIGHT 1
VIEWPOINT 0 0 0 1 0 0 0
POINTS 1190
DATA ascii
0.090393744 0.11610033 0.56802726
0.10079791 0.11221184 0.5365088
0.090932272 0.11409514 0.57807493
0.091629647 0.11357105 0.57722479
0.091708072 0.1149856 0.56899428
0.10258219 0.11078872 0.53627098
0.10655516 0.10816407 0.53030264
0.10706536 0.10809664 0.52919018
0.095936187 0.11061238 0.57537961
0.097102426 0.10982627 0.57242739
0.098888837 0.10959183 0.56740826
0.10698657 0.1064277 0.54269701
0.10899014 0.10539491 0.53678131
0.10873543 0.10607304 0.5337835
0.10770839 0.10746321 0.52986991
0.097141013 0.10953464 0.57571793
0.098093875 0.10904028 0.57203472
0.099954829 0.10838567 0.56834185
0.10825748 0.10534438 0.54300815
0.10928785 0.10468747 0.53865081
0.11044448 0.1044881 0.53550446
0.073863052 0.12501475 0.56039828
0.074955791 0.12505288 0.55740297
0.082922459 0.12183183 0.53330261
0.083702013 0.12125291 0.5307945
0.076780431 0.12459338 0.56277418
0.077810712 0.12465915 0.55808145
0.078918837 0.12242423 0.55547655
0.084479675 0.11998872 0.53776902
0.085196704 0.12151946 0.53483021
0.08716546 0.12058473 0.530527
0.079600073 0.11970963 0.56758207
0.079943344 0.12186198 0.56550181
0.082347497 0.12102275 0.55980062
0.081271775 0.12010494 0.55686098
0.086285576 0.11810091 0.53852075
0.089433588 0.11834605 0.53665006
0.091252789 0.11758114 0.53083801
0.092200279 0.11447792 0.52966869
0.081800781 0.11854389 0.56901175
0.084525354 0.11939996 0.56638551
0.084867887 0.11724079 0.56070155
0.092065193 0.11461464 0.5380879
0.095010139 0.11547509 0.53302711
0.094981976 0.11339243 0.53017235
0.086036652 0.11565757 0.57204318
0.088313483 0.1171601 0.5682292
0.089129828 0.11415254 0.5617581
0.096091501 0.11149898 0.54039037
0.099175364 0.11308706 0.53464347
0.099213094 0.11054926 0.5309087
0.088875368 0.11268134 0.57783991
0.089933015 0.11244743 0.57480657
0.092742361 0.11295423 0.57005733
0.092601389 0.11172397 0.56327182
0.099629372 0.10912006 0.54186577
0.10374045 0.10943 0.53568095
0.1037911 0.1071786 0.53125054
0.10520183 0.1065836 0.52858776
0.090886429 0.11204578 0.57833761
0.092666104 0.10955702 0.57577294
0.094248764 0.10889655 0.5706141
0.096145906 0.10789187 0.56568336
0.10364971 0.10502386 0.54302257
0.10505241 0.10492514 0.53811729
0.10644678 0.10453291 0.5327996
0.10696242 0.10588363 0.52949721
0.096230663 0.1075668 0.57630014
0.09745919 0.10710873 0.57148713
0.099175192 0.10594723 0.56807989
0.10731193 0.10279407 0.54327625
0.108029 0.10298833 0.53930634
0.10989462 0.10235047 0.53515995
0.071837701 0.12286372 0.56016338
0.07265164 0.12270652 0.55699229
0.080770113 0.11952227 0.53286707
0.082054213 0.11955832 0.53036362
0.073116772 0.12125173 0.56260169
0.073677398 0.12121813 0.55501062
0.076525643 0.12026948 0.55459911
0.082320794 0.11807722 0.53748178
0.080214776 0.11852454 0.53520185
0.083623715 0.11716945 0.52950108
0.078850515 0.11835147 0.56741548
0.076352894 0.11824098 0.56563276
0.080270357 0.11547263 0.55777544
0.079371743 0.11734279 0.55629367
0.084695868 0.11539109 0.53841257
0.086543269 0.11378372 0.53842902
0.088124432 0.11364281 0.52965367
0.091609389 0.11369374 0.52968061
0.079923682 0.11504757 0.5686636
0.079450622 0.11417972 0.56712544
0.083063856 0.11410214 0.5597356
0.089896686 0.11149952 0.53867316
0.091368899 0.1103439 0.53064328
0.092975266 0.1102936 0.53017849
0.083446763 0.11265311 0.57127303
0.083476618 0.11080493 0.56718779
0.085740916 0.11132321 0.56242806
0.093198322 0.1085842 0.53877497
0.094274402 0.10668288 0.53407067
0.096449316 0.10777059 0.53060436
0.086901248 0.11044574 0.57320803
0.088032052 0.10879326 0.56911159
0.089734204 0.10835081 0.56466478
0.097674794 0.10538709 0.53996575
0.098942988 0.10470124 0.53561848
0.10038278 0.1055005 0.53152978
0.090713941 0.10756181 0.57360703
0.090401374 0.10745919 0.57111472
0.092926666 0.10644832 0.56613183
0.10118008 0.10335653 0.54118133
0.10219669 0.10304224 0.5362823
0.10351197 0.10268123 0.53420937
0.070531413 0.12041807 0.55926335
0.070972867 0.12036864 0.55752718
0.070820451 0.11715314 0.56223202
0.071246803 0.11689499 0.55651653
0.074499346 0.11631639 0.55513585
0.080865465 0.11417705 0.53701454
0.079041667 0.11416283 0.53397328
0.081349194 0.11299941 0.52959293
0.073854685 0.11402315 0.56407726
0.076397888 0.1119363 0.55851805
0.075918004 0.11356816 0.55552763
0.081800997 0.11141655 0.5380832
0.083370417 0.10897791 0.53648496
0.084828071 0.11002767 0.53001761
0.077975437 0.11232252 0.56452823
0.078314975 0.11184128 0.56044853
0.086565278 0.10868257 0.53607094
0.088398166 0.10837905 0.53257126
0.069026545 0.11292784 0.56045997
0.068981096 0.11284174 0.55706108
0.077020764 0.10971624 0.53307205
0.079302646 0.10969821 0.53056765
0.070935741 0.11079629 0.56168556
0.072754748 0.10975969 0.55781364
0.073670119 0.1113977 0.55569994
0.079790339 0.1092509 0.53718996
0.080212928 0.1071057 0.53551346
0.081028819 0.10705814 0.53105193
0.072293013 0.10697521 0.56052947
0.081215538 0.10401794 0.53434312
0.081480935 0.10337338 0.53291631
0.066824719 0.10867718 0.55945241
0.066464491 0.10857846 0.55707818
0.074618027 0.10555863 0.53251052
0.0675776 0.10643923 0.56135231
0.068870038 0.10595472 0.55638528
0.075825222 0.10333434 0.53502893
0.077571332 0.10277127 0.5303424
0.070236862 0.10374872 0.56238824
0.071407571 0.10336573 0.55932069
0.079312302 0.099831343 0.5352546
0.080461934 0.1000154 0.53169191
0.064066783 0.10473347 0.55664217
0.072397113 0.10210314 0.53255326
0.064285904 0.10268027 0.56124532
0.064954542 0.10269931 0.55602223
0.066802457 0.10059139 0.55440742
0.072485358 0.098292232 0.5366866
0.072248384 0.10001719 0.53334665
0.074658088 0.098617971 0.52940232
0.067913964 0.099492177 0.5631687
0.07040897 0.099102497 0.5582037
0.068806246 0.098655105 0.55523539
0.074927486 0.096293986 0.53776032
0.078034952 0.096378937 0.53615439
0.078523286 0.095612034 0.53041703
0.069205038 0.096160799 0.56290478
0.070295513 0.095902711 0.55988669
0.078394853 0.092782363 0.53574628
0.07953193 0.092735097 0.53243083
0.060987514 0.09905453 0.5611577
0.06131497 0.09960334 0.55573213
0.063907921 0.097562209 0.55321622
0.069526128 0.095580727 0.53667021
0.069080748 0.096624404 0.53261846
0.071663626 0.094836771 0.52838457
0.064244211 0.095909804 0.56416667
0.067090869 0.0950564 0.55396205
0.072341174 0.093185008 0.53853279
0.075964287 0.091494903 0.52845877
0.067831561 0.092436194 0.5638234
0.069955066 0.091678753 0.5599004
0.0694618 0.091169477 0.55595523
0.075368546 0.089698106 0.53904462
0.078107424 0.088722132 0.53596604
0.078490362 0.088424914 0.53144658
0.069359072 0.088645488 0.56271523
0.069570825 0.088597186 0.56157815
0.076583989 0.086000666 0.53905356
0.078243345 0.085499853 0.53590143
0.078935757 0.085248001 0.53320956
0.058312308 0.095033318 0.56026065
0.058938991 0.095119029 0.55550385
0.061364032 0.093695864 0.55288029
0.066938564 0.091757461 0.53609425
0.066766694 0.092156738 0.532386
0.068918213 0.090988442 0.528431
0.06084469 0.092389874 0.56400836
0.063967742 0.09081471 0.55305701
0.068860441 0.089063078 0.53832
0.072432779 0.087592617 0.52742845
0.064425923 0.088984489 0.56509978
0.069681972 0.088464431 0.55989146
0.06720756 0.087882057 0.5547424
0.072312601 0.086044386 0.53960907
0.076413609 0.084639177 0.52945983
0.068193138 0.085682571 0.5644514
0.070033953 0.08463715 0.56056684
0.069383636 0.084994748 0.5570581
0.075349703 0.08291737 0.5396347
0.077756144 0.08167313 0.5374431
0.078541003 0.081582844 0.53252929
0.070089363 0.081824943 0.56460315
0.071103372 0.081543736 0.56250471
0.079527065 0.078560688 0.5371263
0.07995709 0.078110904 0.53439015
0.057406757 0.091441698 0.55950707
0.058143664 0.091158651 0.55600077
0.059879128 0.090568632 0.55345607
0.066108398 0.088104814 0.53243953
0.06743297 0.087980941 0.52934235
0.058667272 0.088350698 0.56145388
0.058969207 0.087207332 0.55657673
0.061486892 0.087741345 0.55366945
0.066949248 0.085986272 0.5368591
0.066847615 0.084360063 0.53305477
0.06929598 0.084627464 0.52908063
0.06097912 0.085167885 0.56375718
0.06054204 0.083894834 0.55719543
0.064402729 0.084381379 0.55471224
0.069542915 0.08230757 0.53854102
0.068438113 0.080830708 0.53392226
0.072236873 0.080887824 0.52945852
0.065129265 0.081918836 0.56557715
0.068996243 0.081223287 0.55855531
0.067097403 0.080550611 0.55694389
0.073248632 0.078301549 0.53939265
0.075469464 0.079288334 0.53897232
0.076343559 0.077730164 0.53082299
0.068591535 0.078508392 0.56549942
0.070839249 0.077670991 0.56170905
0.069233514 0.077810928 0.55833125
0.075450309 0.075726509 0.54009765
0.078633107 0.075069241 0.53858048
0.078941435 0.074669734 0.53364879
0.070248097 0.075065121 0.56352222
0.07937815 0.072202191 0.53723592
0.07964699 0.072120003 0.53603727
0.059871882 0.080473706 0.56187671
0.060732272 0.080572419 0.5582751
0.061968111 0.079523727 0.55526543
0.067488469 0.077290528 0.53768247
0.068649843 0.077583715 0.53441876
0.07010971 0.076604664 0.53124249
0.062040176 0.077879511 0.56476319
0.061762091 0.079519078 0.55962604
0.064749137 0.077189907 0.55606526
0.070163406 0.075217336 0.53939199
0.070034251 0.076276049 0.53437775
0.072898157 0.073934466 0.53066367
0.065749988 0.074972883 0.56492841
0.068108164 0.073474854 0.56097186
0.067036271 0.074830279 0.55749238
0.073090769 0.072589941 0.54016185
0.075520962 0.070230156 0.53799552
0.076007761 0.071136653 0.53316444
0.069475055 0.07408686 0.56332433
0.077877201 0.070868388 0.53781492
0.078751273 0.071060196 0.53545785
0.043716852 0.087207079 0.54963744
0.044284865 0.087603927 0.54647839
0.045433663 0.087211236 0.54164916
0.047050007 0.086867467 0.53713548
0.04942403 0.08555647 0.53284037
0.049789928 0.084024869 0.53025311
0.044869136 0.085003868 0.55247843
0.050671674 0.084522672 0.53191185
0.05309679 0.082717925 0.52905101
0.055024099 0.080480412 0.5268032
0.046051722 0.083131552 0.55523413
0.055279933 0.079962529 0.52795064
0.056265175 0.079044908 0.5267089
0.052506648 0.077952355 0.55872977
0.053382009 0.079182483 0.55624145
0.054794434 0.078088075 0.55190408
0.060235947 0.076125041 0.53637445
0.06113632 0.075915322 0.53188258
0.062071525 0.074256465 0.52994281
0.055543717 0.077146471 0.56094801
0.056422666 0.079443112 0.55709124
0.058402192 0.07617645 0.55188066
0.062660471 0.074466616 0.53934902
0.064289667 0.076204985 0.5328902
0.065789267 0.073168486 0.53013867
0.058791611 0.074132785 0.56376541
0.062019862 0.073222533 0.55419195
0.066141963 0.071402937 0.5401991
0.069491006 0.069975466 0.53033823
0.061809905 0.072343566 0.56337279
0.063289016 0.071060136 0.56021303
0.06349571 0.070811704 0.5566414
0.069399379 0.068688959 0.53966802
0.071327314 0.068037376 0.53653538
0.071842283 0.068397701 0.53263652
0.040503852 0.084584139 0.55019033
0.041159295 0.085374087 0.5459283
0.042254783 0.085077308 0.54085231
0.044281922 0.084354244 0.53661394
0.045970201 0.083284453 0.53173578
0.047207914 0.081706092 0.52925009
0.043635927 0.081906326 0.55521768
0.042781476 0.083375826 0.55224407
0.042947307 0.082414888 0.54785925
0.043991756 0.081850633 0.5416525
0.045571156 0.081358664 0.53729028
0.049121916 0.080190748 0.53319228
0.050633367 0.080523163 0.52831966
0.052768614 0.077949777 0.52613729
0.045721814 0.080546491 0.55683804
0.046651941 0.079155982 0.55343115
0.047920167 0.077472314 0.54936725
0.048431095 0.0758138 0.54659677
0.052513178 0.075706765 0.53435147
0.054328315 0.076588184 0.53049654
0.055502985 0.076301433 0.52605844
0.0487765 0.076298632 0.55896443
0.049493413 0.07841289 0.55543506
0.051972426 0.07721971 0.54998279
0.052686665 0.074573934 0.54754877
0.055266891 0.073692791 0.5393315
0.056315351 0.0754188 0.53657061
0.057664119 0.075048499 0.53020191
0.059503198 0.072572216 0.52751923
0.051214617 0.07352598 0.56098294
0.05674858 0.07161808 0.55066168
0.055225216 0.072987422 0.54899138
0.05805064 0.071679682 0.5401383
0.060131308 0.070159867 0.54014355
0.062141199 0.069286823 0.5282414
0.055992614 0.070425943 0.56216764
0.057402812 0.068182044 0.55910975
0.058662951 0.069387764 0.55380267
0.063168392 0.067609943 0.53938472
0.065430813 0.064954028 0.53451699
0.066387273 0.066491894 0.53078651
0.060384978 0.068663105 0.55856913
0.061260559 0.068994597 0.55635923
0.066586554 0.066097632 0.53855366
0.067675069 0.06577234 0.53646678
0.068759486 0.066269025 0.53279722
0.03740333 0.081250131 0.54971194
0.037020914 0.082194969 0.54501987
0.037987024 0.082003638 0.53995162
0.039998621 0.081459746 0.53566062
0.042095941 0.080462009 0.53108317
0.044667095 0.078383051 0.52769619
0.038811255 0.078590818 0.55467403
0.038204432 0.080192611 0.55265331
0.042261429 0.077872209 0.54670733
0.042128295 0.077468336 0.54227781
0.044208959 0.077400371 0.5372541
0.046467807 0.075293787 0.53440142
0.047267195 0.076671392 0.52625936
0.04916646 0.07458958 0.52502638
0.041591588 0.075634301 0.55719441
0.044114262 0.078478426 0.55032313
0.044862676 0.076811299 0.5473901
0.046654273 0.074292049 0.54509491
0.049210548 0.07328064 0.53793699
0.04929594 0.075197108 0.53423828
0.051977206 0.072399497 0.52495503
0.045344006 0.073101744 0.55969691
0.049766939 0.07215333 0.54611546
0.05213533 0.070907429 0.53937668
0.055975758 0.068727933 0.52544713
0.049467996 0.07018169 0.56143594
0.052728415 0.067842767 0.5500012
0.053572942 0.067465775 0.54754204
0.055231802 0.06682542 0.54234844
0.056565158 0.066417202 0.53890026
0.059812766 0.065736264 0.52719426
0.052489147 0.067165375 0.56131929
0.054093525 0.065998524 0.55783182
0.055593017 0.066329449 0.55291378
0.057032049 0.065670267 0.54809213
0.057885282 0.065495543 0.5430879
0.060329139 0.063952148 0.5383808
0.062074415 0.0627781 0.53394818
0.062429313 0.064107873 0.52992302
0.034377217 0.078846559 0.53848332
0.034600738 0.077275112 0.53486055
0.034033041 0.07743147 0.54892528
0.033532143 0.078370407 0.5442214
0.034559399 0.078553692 0.5397898
0.036639266 0.078324363 0.53499722
0.038139865 0.076356903 0.52946568
0.041279327 0.074858308 0.52639222
0.036155477 0.07496503 0.55408418
0.034873415 0.076004192 0.55206192
0.041153762 0.074836537 0.54479122
0.040665094 0.072879061 0.5418433
0.042339295 0.07247068 0.53747857
0.043781161 0.0732961 0.52505922
0.045486979 0.071103469 0.52417266
0.038757436 0.072791107 0.55624861
0.043035612 0.070705719 0.5434038
0.04448282 0.070086673 0.53773981
0.04908606 0.068410531 0.52417052
0.042124696 0.068976514 0.55833751
0.045794774 0.067317232 0.5457477
0.04835666 0.066842094 0.53838927
0.049134023 0.063801199 0.53783089
0.053318009 0.065015361 0.5251298
0.045810789 0.066454738 0.55959588
0.047266603 0.063147746 0.55663449
0.048689064 0.065388002 0.54927063
0.050357789 0.064125024 0.54560322
0.052434668 0.063200161 0.54149401
0.05234661 0.064059556 0.53807181
0.05546052 0.06039197 0.53023696
0.056235425 0.062408559 0.52741653
0.049404442 0.064952381 0.55920392
0.050069429 0.064056233 0.55637008
0.051379785 0.063152812 0.55163413
0.052514434 0.062817372 0.54767358
0.053955931 0.062545657 0.54254645
0.056194276 0.061044127 0.53781706
0.057107601 0.060898647 0.53335983
0.059144624 0.061568052 0.53054512
0.02841839 0.073950514 0.54110438
0.030526519 0.074735194 0.53819501
0.031658307 0.074235722 0.53474444
0.032262497 0.072673686 0.53074867
0.030531526 0.073595136 0.54794246
0.030592583 0.074891016 0.54417187
0.031338587 0.074732378 0.5386771
0.032869626 0.073490635 0.53275019
0.035040338 0.073196158 0.52936369
0.038113378 0.071113527 0.52586478
0.033443108 0.07060679 0.55355603
0.031974636 0.071788549 0.55145413
0.040287241 0.068943225 0.52436924
0.042736806 0.067451842 0.52400225
0.035863295 0.068389013 0.55504805
0.041076604 0.067029841 0.54184848
0.042259954 0.066572472 0.53871095
0.045820542 0.064551398 0.52435178
0.039075095 0.065273672 0.55642313
0.040331613 0.062413387 0.55592585
0.043865163 0.064139031 0.54420924
0.045329604 0.063664466 0.53910631
0.049244545 0.061090983 0.52590591
0.042940784 0.063712269 0.55750275
0.043973554 0.061396185 0.5553261
0.046696607 0.059951399 0.55097449
0.048080888 0.059383385 0.54561311
0.049931731 0.058400337 0.54144871
0.050670885 0.057367712 0.53612798
0.051668745 0.058027372 0.53127003
0.052470881 0.059466008 0.52783924
0.047966588 0.060061283 0.55165309
0.049154826 0.059353635 0.54732573
0.050316952 0.057806112 0.5408895
0.052867677 0.058345538 0.537117
0.053895503 0.058602154 0.53408605
0.024734899 0.071937591 0.5456199
0.025436278 0.072431512 0.54224378
0.026460689 0.072515354 0.5374558
0.028344464 0.071795017 0.5327639
0.030081593 0.07068266 0.52835745
0.031631637 0.069895402 0.52549398
0.026589021 0.070892692 0.54826683
0.026706424 0.07249447 0.54462278
0.031305052 0.072243422 0.53277028
0.03289032 0.070917249 0.52790058
0.034475066 0.067974046 0.52439904
0.029485799 0.067374669 0.55285507
0.029396227 0.068579093 0.55148757
0.038973417 0.066245608 0.52452022
0.038808376 0.063718207 0.52320993
0.032713987 0.064622477 0.55425489
0.042804223 0.061069239 0.52445763
0.035380982 0.062569231 0.55501139
0.037113968 0.06039897 0.5543257
0.045719393 0.056872666 0.52826446
0.045417279 0.058939863 0.52591109
0.040208876 0.058328684 0.55290043
0.042662725 0.056810867 0.54998839
0.04527273 0.056069389 0.54606825
0.047260925 0.055563241 0.54056019
0.047409482 0.054814436 0.53535998
0.047591552 0.056012966 0.53128439
0.045107413 0.053772081 0.54499555
0.046688348 0.053611279 0.54103386
0.047216922 0.053058036 0.53787839
0.023362841 0.069280684 0.54146773
0.02384416 0.068255402 0.53696096
0.02516073 0.067857727 0.53235787
0.027634084 0.06756115 0.52844679
0.024745706 0.066642091 0.54747796
0.023586243 0.066666648 0.54319787
0.023141185 0.066037446 0.53895301
0.025776733 0.065009832 0.53075141
0.028395593 0.064976722 0.52774149
0.031647705 0.063695729 0.52514523
0.034800187 0.063894555 0.52255481
0.027242094 0.064789325 0.55211526
0.026467392 0.063670531 0.54939497
0.033589132 0.060249209 0.52511591
0.036721431 0.061064418 0.52296925
0.030818794 0.062037371 0.55351049
0.029430393 0.05981439 0.55130291
0.037609763 0.056317046 0.52633262
0.039334726 0.058607861 0.52420473
0.0327124 0.060002081 0.55426383
0.033762448 0.057235267 0.55245823
0.035507776 0.054679379 0.54882586
0.040735733 0.052548125 0.53262758
0.041249458 0.053789914 0.52820849
0.042916529 0.056555856 0.52564746
0.037347738 0.055370379 0.55230629
0.039439272 0.053877354 0.54896921
0.040844146 0.052874569 0.54446954
0.042420112 0.05224514 0.53946471
0.043934762 0.051936164 0.53507459
0.044253111 0.052387774 0.53070623
0.043786976 0.052702971 0.54578763
0.04542559 0.052181035 0.54080623
0.04635714 0.051998243 0.53736192
0.075741179 0.017867658 0.55948228
0.077062175 0.017689053 0.55588907
0.078453787 0.01594888 0.56034672
0.079539038 0.015791465 0.55688965
0.080670573 0.013860324 0.56031287
0.081396416 0.013742002 0.55859977
0.021343758 0.064032823 0.53534722
0.022282377 0.06404835 0.53296185
0.023511859 0.062945642 0.54602212
0.021941945 0.062400974 0.54248506
0.021560408 0.063288704 0.53838515
0.023722069 0.062087819 0.53091359
0.02627442 0.060886689 0.52842736
0.029263072 0.059758805 0.52627736
0.024925582 0.060316756 0.54737604
0.023221433 0.058559012 0.54539418
0.029162072 0.056384541 0.52728212
0.031616256 0.057568856 0.52647495
0.02844885 0.057795376 0.54901785
0.027991502 0.055101 0.54658896
0.033522286 0.053124048 0.52992982
0.035146091 0.055092011 0.5278191
0.031559974 0.056040756 0.54970539
0.032464087 0.053150378 0.54675204
0.034207158 0.049852248 0.54234594
0.03565824 0.04922884 0.53795362
0.036872186 0.051454417 0.53286546
0.038436651 0.053282447 0.52977645
0.036103927 0.052212346 0.54630995
0.036909115 0.050895032 0.54325253
0.038042404 0.050229926 0.5389331
0.039779898 0.050987989 0.53528345
0.043999746 0.037966099 0.56146061
0.044037864 0.037844129 0.56042475
0.053135283 0.034341648 0.53240949
0.053644434 0.034362171 0.53141892
0.045819364 0.036689043 0.56237781
0.047242872 0.035849757 0.55975521
0.055331074 0.031759404 0.53850085
0.0552288 0.032859348 0.53502399
0.055709407 0.032927081 0.53209537
0.048519623 0.033983659 0.56279874
0.050770845 0.03302142 0.56032425
0.052145168 0.032176353 0.55754995
0.057714157 0.030088995 0.54048091
0.058307454 0.03015287 0.53729773
0.057868667 0.030509058 0.53383803
0.053894885 0.030085286 0.56069314
0.055986971 0.029157799 0.5575524
0.057804048 0.027401093 0.55553907
0.060242541 0.026246727 0.54624927
0.060678057 0.027435448 0.54332244
0.060937103 0.027506728 0.5395174
0.059302971 0.026281577 0.55716938
0.061236136 0.025619078 0.55516362
0.06319505 0.024750397 0.54904574
0.0628765 0.025049632 0.54561532
0.063597962 0.021949824 0.55847025
0.064794309 0.022700291 0.55565131
0.065845944 0.022125013 0.55107594
0.066579185 0.020932769 0.54844058
0.065187596 0.020250915 0.55901611
0.068623729 0.019778587 0.55770338
0.070184231 0.018799517 0.55298978
0.068656668 0.019158373 0.54947501
0.072938211 0.016887013 0.55860829
0.073970459 0.016375514 0.55499125
0.077118158 0.015428063 0.56001949
0.078326121 0.015036374 0.55682832
0.079938024 0.013181608 0.56051815
0.080766253 0.013104862 0.55836737
0.01819586 0.059861012 0.5349074
0.018986363 0.059811994 0.53266847
0.019651819 0.0578923 0.54148698
0.018905766 0.059112646 0.5375821
0.021072164 0.058003072 0.53084433
0.023810523 0.056708131 0.52875596
0.02116812 0.053486891 0.54655516
0.021117225 0.055702545 0.54441178
0.026759045 0.053869516 0.52762997
0.027751036 0.051144876 0.5267303
0.023766622 0.051622022 0.54803538
0.026121955 0.052926891 0.54616785
0.031428836 0.050857469 0.52972734
0.030535601 0.049054548 0.52732503
0.025951561 0.049819253 0.54821831
0.028883141 0.049123794 0.54581708
0.032242354 0.048629273 0.5436365
0.034827165 0.047761958 0.53598124
0.03332014 0.047422066 0.53253275
0.032201901 0.047412124 0.5287413
0.030395612 0.045689929 0.54578823
0.033118695 0.046087593 0.54260617
0.034693457 0.04574316 0.53797895
0.034235269 0.044236012 0.53429502
0.040556755 0.036709357 0.56181395
0.042669356 0.036376014 0.5591467
0.051098462 0.033118915 0.53290981
0.051081538 0.032779515 0.52939463
0.043828644 0.03446053 0.56406891
0.045023423 0.034589749 0.55770296
0.046817757 0.032270793 0.55550259
0.052141666 0.030382661 0.53877103
0.052127242 0.03208261 0.53550959
0.054785777 0.030339507 0.53001851
0.04718776 0.030678796 0.56397188
0.050365269 0.030768421 0.56273782
0.050435681 0.030207131 0.55501211
0.054632012 0.028538523 0.54217595
0.059082575 0.027517144 0.53544307
0.057266213 0.026822608 0.53282034
0.048792116 0.027715251 0.56340069
0.051995341 0.02701723 0.56196046
0.054075338 0.028169325 0.55540055
0.055394329 0.025958754 0.55427986
0.05778674 0.025133219 0.5462237
0.057916846 0.027230363 0.54431099
0.059909955 0.024302164 0.53781646
0.058161236 0.024485642 0.53477746
0.054155938 0.024488054 0.56053245
0.057493899 0.023416469 0.55860054
0.059213437 0.022851029 0.55303556
0.060085312 0.022738986 0.55001736
0.062322535 0.021587918 0.54431129
0.060968734 0.022324866 0.54090571
0.061280377 0.019992288 0.55884206
0.062217727 0.019484695 0.55292672
0.062577419 0.019109925 0.55276763
0.065136075 0.018639652 0.5470525
0.064421229 0.016606778 0.56023562
0.066626504 0.0164355 0.55636358
0.067528822 0.015805431 0.55345488
0.068162635 0.015372904 0.54875964
0.067610845 0.013254648 0.56150949
0.070293665 0.013901414 0.55828369
0.070858754 0.01295726 0.55479258
0.07159292 0.011974592 0.55061513
0.069874063 0.0108881 0.56172627
0.072927691 0.00966019 0.55984926
0.074619584 0.0093891528 0.5556466
0.073699355 0.0096688773 0.55188382
0.076332204 0.006625738 0.56096238
0.07791023 0.0066511724 0.55742085
0.079095535 0.0039802324 0.56211907
0.08077386 0.0040134545 0.55854678
0.014801197 0.056153864 0.53438437
0.015839692 0.055907287 0.53171623
0.014744652 0.053004153 0.54439169
0.016000135 0.054336667 0.54065508
0.01601804 0.0556098 0.5375095
0.018306069 0.054826111 0.53025699
0.020273501 0.052704852 0.52776092
0.021516465 0.050690226 0.52458942
0.017463934 0.051932558 0.54633492
0.018277835 0.054407585 0.54358578
0.023585878 0.052483484 0.52704155
0.024416231 0.049385536 0.52492136
0.02154278 0.049196437 0.54844636
0.024877805 0.049071018 0.54754603
0.030794503 0.046818696 0.52868557
0.028622229 0.046361804 0.52603686
0.024099406 0.045655027 0.54891175
0.026874125 0.045682739 0.54761678
0.032437798 0.043561168 0.53071189
0.030808087 0.043138143 0.52807397
0.028621018 0.042385399 0.54688126
0.031701744 0.041497424 0.54306012
0.033418164 0.040995274 0.53798097
0.03322687 0.040902466 0.53284043
0.03146448 0.038238488 0.54314816
0.032992989 0.038107745 0.53888965
0.032282166 0.034195025 0.56318915
0.033242367 0.035084564 0.5607028
0.04342898 0.030176533 0.52979833
0.044366755 0.03080385 0.52679771
0.044859875 0.029475626 0.52441484
0.034789212 0.03273901 0.5645687
0.036344275 0.03464856 0.5620212
0.038583446 0.032479327 0.55738807
0.046307907 0.029589793 0.53248459
0.047658093 0.030305134 0.52734685
0.047651671 0.027956098 0.52488768
0.037876882 0.03144151 0.56511742
0.040809613 0.030087793 0.56336635
0.042034332 0.029309457 0.5578934
0.044708911 0.029421607 0.55577552
0.050349865 0.027226977 0.53829962
0.049439095 0.026454326 0.53482944
0.05180845 0.026075576 0.52960575
0.050265379 0.026620278 0.52634734
0.044860382 0.027915861 0.56390339
0.044452615 0.02632723 0.5595575
0.047482051 0.026504287 0.55551916
0.052491065 0.024461828 0.54102546
0.052257106 0.023359321 0.53568327
0.055201326 0.024070911 0.53211647
0.047470324 0.026392259 0.56330901
0.049274404 0.024256719 0.56103396
0.050670583 0.023071326 0.55681717
0.053909197 0.022977609 0.55434602
0.056124683 0.022385664 0.54558563
0.055348635 0.021368453 0.54234791
0.056891933 0.021417173 0.53772986
0.057105444 0.023189662 0.53440243
0.055058867 0.020804668 0.55719995
0.05631987 0.019262878 0.55431157
0.058274575 0.018709835 0.54837197
0.059365608 0.01892267 0.54518855
0.059331249 0.020570565 0.54104006
0.058027525 0.01630058 0.55817658
0.059222084 0.016561447 0.55291158
0.059712444 0.016385356 0.55165428
0.061769757 0.014673252 0.54628062
0.061606314 0.013099954 0.55969727
0.063615993 0.012228774 0.55490935
0.06395866 0.012197204 0.55327892
0.065373361 0.011630652 0.54774928
0.064424276 0.010751843 0.56034803
0.066321626 0.0095656142 0.55903643
0.066861138 0.0088846385 0.55500132
0.068666317 0.0088653788 0.54977274
0.068959251 0.00714604 0.55880463
0.070579439 0.0062516052 0.55406433
0.069646299 0.0054174308 0.55127239
0.011510342 0.052468609 0.53446072
0.01260774 0.052109517 0.53068173
0.012489928 0.050403282 0.54377282
0.011881508 0.051260442 0.54068846
0.012096984 0.052650481 0.53727925
0.01473368 0.051547546 0.52860612
0.016642271 0.049400304 0.5261398
0.019029332 0.047942273 0.5242846
0.014110113 0.048661049 0.54601812
0.020529142 0.04903065 0.52521741
0.021395708 0.046034873 0.52393305
0.017389927 0.045652464 0.54929292
0.025208633 0.042556152 0.52381486
0.018839091 0.04111103 0.552203
0.021682177 0.042105418 0.5506801
0.029608075 0.039133593 0.5258882
0.028689887 0.037157655 0.52366769
0.024140604 0.038417935 0.55003202
0.027494943 0.038781863 0.54798901
0.032611571 0.037082039 0.53205699
0.031086076 0.036020335 0.52882367
0.02594493 0.033993833 0.56111544
0.026998647 0.034674525 0.55878514
0.02586616 0.035284743 0.5498184
0.028953008 0.034870774 0.54814792
0.031478658 0.034348603 0.54314131
0.032948263 0.03399989 0.53892154
0.033667326 0.033164002 0.53383517
0.034503773 0.031304281 0.52933669
0.037910737 0.030193277 0.52494597
0.038525496 0.028827999 0.52267283
0.029230088 0.033317048 0.56349373
0.030356789 0.034636803 0.55945647
0.031271957 0.031689249 0.55560613
0.030611664 0.031506322 0.54692364
0.034155201 0.029964719 0.53621364
0.039618216 0.028669946 0.5303036
0.041022986 0.030454526 0.52552867
0.042515144 0.028257545 0.52266341
0.032283947 0.031068936 0.56470364
0.033861812 0.027984783 0.56231898
0.035552248 0.029515238 0.55544597
0.042536695 0.02682426 0.53316271
0.045194119 0.023705939 0.52694422
0.045653559 0.02617164 0.52375168
0.036023892 0.029832682 0.56466585
0.037275434 0.027429394 0.56135219
0.038239345 0.026952423 0.55777216
0.046157096 0.023816342 0.53322923
0.047884393 0.02374905 0.52998322
0.048698194 0.025221448 0.52606606
0.05583046 0.012353897 0.55759734
0.055436786 0.01230156 0.55400437
0.057030812 0.011601571 0.54978889
0.059562456 0.010983411 0.54642719
0.057293199 0.010565653 0.55772519
0.059870742 0.0084406361 0.55663151
0.061587702 0.0073575377 0.55232227
0.061953928 0.0081934575 0.54804975
0.063135497 0.007800648 0.5599106
0.062477961 0.005617423 0.55733138
0.064190373 0.0055227168 0.55260736
0.066185899 0.0057292916 0.5496375
0.066510364 0.0024903081 0.55881411
0.068669438 0.0020112582 0.55427086
0.069403462 0.0028236359 0.55137187
0.069456302 -0.001227472 0.55984646
0.071510062 -0.0014714561 0.55565965
0.072276711 -0.0045638531 0.56113935
0.074025847 -0.004955817 0.55697477
0.008328137 0.049250022 0.53375995
0.0095275063 0.04887931 0.52966028
0.010289116 0.046887167 0.54326695
0.0090134721 0.047321089 0.54026902
0.0086932573 0.048067354 0.53625596
0.011001136 0.04694622 0.52828705
0.013689856 0.045454115 0.5257625
0.0157743 0.0435059 0.52415204
0.010350065 0.043116607 0.54979527
0.010893435 0.044721462 0.54577529
0.014556468 0.042063959 0.52413344
0.018309198 0.042006232 0.52311659
0.020027526 0.039373051 0.51993662
0.012654779 0.041502345 0.55202746
0.014253374 0.043683823 0.54940087
0.023219908 0.040262114 0.5224759
0.022981495 0.037648965 0.51988375
0.01672012 0.038886521 0.55318141
0.026775714 0.035207205 0.52187359
0.018993447 0.033190493 0.55950373
0.019674247 0.033968676 0.55459124
0.021618843 0.034707267 0.55116439
0.029410172 0.031693541 0.5270344
0.029637733 0.030281749 0.52330852
0.031706657 0.0284127 0.51969188
0.022027288 0.032415841 0.56162471
0.023671677 0.033781826 0.55680734
0.024608161 0.031575855 0.55207467
0.02715084 0.032482788 0.5497666
0.030546555 0.029666236 0.54190528
0.030482866 0.029244091 0.54080719
0.032861635 0.030084003 0.53179735
0.032298371 0.028836668 0.52883857
0.034212895 0.029573807 0.52369398
0.035503134 0.027368143 0.51993191
0.025606994 0.029935382 0.56288177
0.028099654 0.028637983 0.55412805
0.028723223 0.02875407 0.54867679
0.029806998 0.028327659 0.54397494
0.031653613 0.027741186 0.53885919
0.033787102 0.027246539 0.53417033
0.035934828 0.025804311 0.53024745
0.039107718 0.025107503 0.52159041
0.028308278 0.027434342 0.56261313
0.030411266 0.025951788 0.56013346
0.032011416 0.025575981 0.55603713
0.03978787 0.022454761 0.53138047
0.041324187 0.022106577 0.52707779
0.040876187 0.022930549 0.52361333
0.034489419 0.025741678 0.55959439
0.034814112 0.025159914 0.55778241
0.039007202 0.018254701 0.54704022
0.039903373 0.017967118 0.5447697
0.043060772 0.021881253 0.53170681
0.044132482 0.022103168 0.52989775
0.042158559 0.016617101 0.54981273
0.043610763 0.015992165 0.54533392
0.043997396 0.014845584 0.54991239
0.044920042 0.014419299 0.54620659
0.054585218 0.0090528838 0.55714047
0.053907733 0.0077493973 0.55466431
0.055925876 0.007360477 0.54947674
0.057643369 0.0075023882 0.54735798
0.055067707 0.0079593491 0.55727226
0.056258284 0.0047951788 0.55500472
0.057672851 0.004127983 0.55073857
0.059059486 0.0060441922 0.5478698
0.057667725 0.0015070792 0.55453098
0.059072625 0.0015590228 0.55134237
0.068573236 -0.0036515407 0.56020218
0.071680807 -0.0049023069 0.55572122
0.070834763 -0.0064166375 0.56094468
0.072956964 -0.006480746 0.55687904
0.0065044044 0.046238162 0.53247505
0.0071864408 0.045931309 0.53013426
0.007122552 0.043524448 0.53944153
0.0069348207 0.0432522 0.5348568
0.0082933921 0.042617168 0.52958012
0.011539505 0.04176173 0.52603692
0.0092785601 0.041481733 0.54913831
0.0079973359 0.040846713 0.54585832
0.007205647 0.040913895 0.5414542
0.012782007 0.03888315 0.52496862
0.01576864 0.037970226 0.52220494
0.018603094 0.038296267 0.52018887
0.010548549 0.038083941 0.55118811
0.0090588275 0.037538081 0.54852754
0.017989717 0.03433102 0.52139181
0.020767182 0.034366835 0.52006441
0.012100076 0.032611996 0.55622643
0.012116371 0.035255477 0.55445951
0.02379059 0.030981289 0.51904416
0.02480258 0.028093386 0.51827031
0.015691156 0.031396393 0.55922663
0.016717566 0.033267643 0.55561513
0.021211045 0.031701326 0.5511108
0.028851595 0.028794508 0.52784544
0.027897399 0.029285349 0.52130049
0.028839346 0.026672632 0.51820821
0.018497139 0.029312991 0.56218213
0.022596093 0.02929502 0.55138147
0.026921373 0.024345342 0.54022974
0.029976184 0.026393017 0.52888352
0.03290651 0.024123656 0.5178681
0.022098957 0.026064735 0.56291509
0.026213299 0.025123181 0.55253458
0.026163597 0.024475917 0.54851526
0.027619848 0.024388442 0.5433659
0.02918848 0.023755051 0.53895336
0.030999765 0.022502899 0.53421193
0.033056676 0.02269554 0.53090858
0.036273584 0.020873573 0.5201726
0.025205158 0.023998877 0.5622617
0.026615281 0.022848323 0.55959266
0.027665582 0.023079909 0.55572158
0.032298297 0.017704621 0.54526627
0.033333711 0.017522734 0.54222667
0.036261514 0.019984759 0.5296365
0.037474513 0.018820364 0.52604544
0.037919972 0.019226659 0.52287632
0.035003718 0.016265787 0.55029619
0.034792714 0.017562702 0.54696316
0.036739081 0.016775459 0.54220873
0.037827663 0.013989119 0.54005629
0.037697449 0.014588699 0.552091
0.039690007 0.015603665 0.55086076
0.0417796 0.014470644 0.54263991
0.040923357 0.012264362 0.54028958
0.040660601 0.010607265 0.55484366
0.043250639 0.011067102 0.55086523
0.044841476 0.010486359 0.54557335
0.045090739 0.0091823377 0.54105008
0.041899849 0.0079917144 0.55393785
0.044460379 0.0077732764 0.55027258
0.045332387 0.0073223766 0.54643208
0.04595802 0.0072080418 0.54293483
0.054533783 0.0012773182 0.55439723
0.055701569 0.00076681003 0.55061507
0.056484286 -0.0021188147 0.55531871
0.057958785 -0.002407793 0.55189258
0.058223221 -0.0050745904 0.55555278
0.059565134 -0.0054827817 0.55247247
0.0063542682 0.038767513 0.53375572
0.00692847 0.038459815 0.53069741
0.0062700626 0.036715169 0.54452133
0.0061477739 0.036433827 0.54068017
0.0060540908 0.036402516 0.53563738
0.0077579105 0.035476018 0.5294171
0.010855724 0.034697056 0.52616924
0.013252817 0.03409275 0.52321589
0.0093347263 0.034135286 0.55030525
0.0076462091 0.03400974 0.54703653
0.0062786723 0.033155885 0.54251933
0.011921966 0.031040126 0.52551019
0.015605152 0.030944234 0.52262032
0.018925371 0.030655256 0.5209778
0.011148043 0.031335521 0.55627865
0.0097283451 0.031646874 0.55303061
0.0082572829 0.031194286 0.54900795
0.017449286 0.027883714 0.52174199
0.020600595 0.027643779 0.51954901
0.023663672 0.026479445 0.51771891
0.013038781 0.029201999 0.55785668
0.012545664 0.026889572 0.55516112
0.023847464 0.022591831 0.5204587
0.025908157 0.024500066 0.51796353
0.015892059 0.025234232 0.56015903
0.014531283 0.024268378 0.55553979
0.01875215 0.021548755 0.55130279
0.020465471 0.022433626 0.54606456
0.021886596 0.021594277 0.54448324
0.025194179 0.020260144 0.53536057
0.024813103 0.020528644 0.53315914
0.026354808 0.018550817 0.52786934
0.025755512 0.020011205 0.52162135
0.029339932 0.020133186 0.5188089
0.019339748 0.022506002 0.5610162
0.020257941 0.02000132 0.55765945
0.021888591 0.020618606 0.55272627
0.023576485 0.022630475 0.54798961
0.025376499 0.020477314 0.54405332
0.027603338 0.019402133 0.53812701
0.028034048 0.020707492 0.53357232
0.02963328 0.017642342 0.5290333
0.031109659 0.016049746 0.52435851
0.032304056 0.01762508 0.52058429
0.023212478 0.022116601 0.56118721
0.023458229 0.020710852 0.55845791
0.024609756 0.020505892 0.55547011
0.027780369 0.014751265 0.54804581
0.028662715 0.016746359 0.54491413
0.030088319 0.016229935 0.54008466
0.031201566 0.013562795 0.53785461
0.033323925 0.017405074 0.52870476
0.034165621 0.016751423 0.52539557
0.030868759 0.013670249 0.55022866
0.031064626 0.015677357 0.54757333
0.033656552 0.014605587 0.5401206
0.03477145 0.012014164 0.53827202
0.03395053 0.011022506 0.55350131
0.038937725 0.0091944691 0.53858346
0.037379641 0.00919668 0.55655676
0.037316069 0.0084487274 0.55573738
0.042851891 0.006351646 0.53985703
0.040418077 0.0052389242 0.55433393
0.043283079 0.0034715459 0.55129308
0.044550739 0.002984751 0.54634368
0.044361491 0.0043456797 0.54268092
0.055320665 -0.0051991977 0.55485255
0.05649434 -0.0057020597 0.55221051
0.056453042 -0.0070461333 0.55550957
0.057918236 -0.0074621662 0.55235451
0.0066553969 0.032883517 0.53894496
0.0061623249 0.033578798 0.53436589
0.0069672368 0.03330408 0.53111601
0.0096354298 0.031982508 0.52860558
0.0071340604 0.030774856 0.54574621
0.0071900515 0.0303222 0.54168057
0.0078696245 0.028941935 0.5362137
0.0092046587 0.028160939 0.53179944
0.012005649 0.028613055 0.52716219
0.014251526 0.027862037 0.52413613
0.0089733545 0.027540876 0.55158186
0.008661381 0.027339865 0.54784554
0.0093693538 0.025734141 0.54290456
0.010249928 0.024681248 0.53781903
0.011656212 0.023976378 0.53324974
0.014170735 0.024056496 0.52850211
0.016449261 0.024405595 0.52407008
0.018995974 0.023768984 0.52098203
0.011027914 0.025529027 0.5525412
0.011460366 0.023495346 0.54888117
0.01152118 0.022047054 0.54512042
0.013006409 0.02139831 0.53687412
0.012600295 0.021978317 0.53555614
0.016580097 0.020173648 0.52909231
0.019182554 0.020671301 0.52532309
0.021180764 0.02174378 0.52172345
0.015856218 0.021957992 0.55881476
0.01550881 0.022440247 0.55536377
0.015887666 0.021291688 0.55088151
0.017385382 0.01952501 0.54589146
0.017255936 0.01692795 0.54347897
0.020195831 0.01576945 0.53498656
0.021774391 0.017657837 0.53178495
0.023698226 0.018229866 0.52707469
0.025793796 0.018588498 0.52330822
0.028378481 0.017292187 0.52072197
0.016884988 0.021221083 0.55926049
0.017710492 0.020297151 0.55740255
0.020125058 0.017690256 0.54491705
0.021154493 0.015635746 0.54442567
0.023273528 0.014486488 0.53661561
0.023443379 0.016321599 0.53474653
0.028970208 0.016306026 0.52283376
0.024490889 0.012738388 0.54724485
0.024040295 0.014376601 0.54596376
0.027820136 0.013533477 0.53738558
0.027740361 0.01143001 0.53660196
0.027745832 0.0097985826 0.55150211
0.032866016 0.0082222652 0.5362494
0.029656315 0.0072393138 0.55279881
0.035080977 0.0055501685 0.53692108
0.034161471 0.0040246435 0.55389571
0.03901935 0.0023217443 0.53970832
0.037927322 0.00097787753 0.55432415
0.040710911 -0.0010330565 0.55188626
0.042671159 -0.0016843155 0.54531419
0.04179414 -0.00066206232 0.54184884
0.041349247 -0.0020953827 0.55006891
0.042285748 -0.00218115 0.54770052
0.011115303 0.022503003 0.53855348
0.012809945 0.021877799 0.53359514
0.01210642 0.020910986 0.54290694
0.012940042 0.020514973 0.53969473
0.014739668 0.019841153 0.53426629
0.016187578 0.019296387 0.53118277
0.014263225 0.0189684 0.5436157
0.016669001 0.017294848 0.54047161
0.017915092 0.016859572 0.53652149
0.017987559 0.017568942 0.53233993
0.020027511 0.013598975 0.54215091
0.021463815 0.01284337 0.53820235
0.02223682 0.0094660725 0.54698253
0.021051476 0.0097332243 0.54384869
0.022983072 0.0093313958 0.5380494
0.025816731 0.0081042815 0.53629112
0.024176776 0.0042389594 0.55297399
0.024813449 0.006250795 0.55104244
0.029867508 0.0046559386 0.53549367
0.031158013 0.002946157 0.53396326
0.025034495 0.0045188274 0.55318105
0.027280279 0.0040308461 0.55223078
0.032633301 0.0021828488 0.53633142
0.031731013 0.0026374049 0.53410679
0.031383075 8.2407147e-05 0.55269337
0.035824373 -0.0012975782 0.53934771
0.034804896 -0.0027159005 0.55337167
0.037481721 -0.0047429875 0.55054945
0.039047807 -0.0053398944 0.54538834
0.038455345 -0.0041871183 0.5414145
0.039841983 -0.0035325959 0.55017442
0.040539853 -0.0038976669 0.54784572
0.021016959 0.0053706244 0.5431937
0.022343561 0.0049587414 0.53936124
0.022473801 0.0025500897 0.54836559
0.021489777 0.0016964003 0.5446012
0.023277413 0.0012206752 0.53918493
0.026224433 0.0012753475 0.53677797
0.024726864 -0.00042873248 0.55037791
0.024922624 -0.00206751 0.53861129
0.029210594 -0.0020641498 0.53701454
0.028450668 -0.0034379885 0.55119318
0.029164931 -0.0064722188 0.54992276
0.03227441 -0.0075990893 0.54147995
0.032448582 -0.0049802773 0.53927505
0.032017607 -0.0050123595 0.55177146
0.032890845 -0.0071594007 0.54926288
0.034495238 -0.0077718385 0.54457545
0.035144527 -0.0062435307 0.54124016
0.022263398 -0.0014735088 0.54354656
0.022877399 -0.0013944022 0.54120553
0.023414206 -0.0027045645 0.54849637
0.023709387 -0.0059750304 0.54512829
0.024669744 -0.0065344311 0.54188174
0.027119793 -0.0048829727 0.53862351
0.025416058 -0.0048110783 0.54940873
0.026229385 -0.0085417405 0.54615957
0.027562372 -0.0092448629 0.54288006
0.029149763 -0.0065729506 0.5395475
0.03029423 -0.0084657334 0.54705375
0.030880962 -0.0087981857 0.54442769
0.010280216 -0.002056215 0.53475136
0.010437554 -0.0022390522 0.53321445
0.011412309 -0.0032730512 0.53570879
0.022623319 -0.0094903372 0.54389668
0.022765096 -0.0098537318 0.54276174
0.023730516 -0.011410069 0.54513019
0.024700711 -0.011767548 0.54272962
0.026564451 -0.012953412 0.54534841
0.026758645 -0.013038408 0.54445267
0.0060953256 -0.00069797039 0.53263319
0.0063364208 -0.00088327006 0.53142893
0.0080165807 -0.0031837709 0.5347755
0.0089698844 -0.0028340034 0.53225976
0.010155013 -0.0072864629 0.53971875
0.011152273 -0.0062763654 0.53657496
0.010993522 -0.0053663477 0.53350878
0.011597652 -0.010272067 0.54123157
0.01236905 -0.0097729787 0.53816438
0.016736908 -0.013542626 0.54362315
0.017986955 -0.014081515 0.54177761
0.020154489 -0.015434671 0.54502475
0.021040481 -0.015507538 0.54249209
0.0085974168 -0.010004837 0.53970981
0.0088998061 -0.0096948035 0.53702897
0.010210931 -0.013026446 0.54165542
0.011177987 -0.01306266 0.53850645
0.013366919 -0.016530134 0.54330516
0.014782462 -0.015689556 0.54096657
0.016835675 -0.017810963 0.54385096
0.017453875 -0.01726127 0.54229349
