# .PCD v0.7 - Point Cloud Data file format
VERSION 0.7
FIELDS x y z
SIZE 4 4 4
TYPE F F F
COUNT 1 1 1
WIDTH 1294
HEIGHT 1
VIEWPOINT 0 0 0 1 0 0 0
POINTS 1294
DATA ascii
0.10775835 0.066978335 0.39936718
0.10645472 0.06522882 0.40086183
0.10314994 0.062624574 0.40356711
0.09987393 0.06004408 0.40630183
0.096537314 0.057588965 0.40912524
0.093244359 0.055044055 0.41188723
0.089959294 0.052546747 0.41461828
0.086522065 0.049767602 0.41737553
0.083196685 0.047364064 0.42024559
0.079925075 0.044745196 0.42285454
0.076767087 0.042272311 0.42548102
0.074469179 0.040738657 0.42723188
0.10745931 0.070912525 0.40273133
0.10602421 0.069450587 0.40438393
0.10274254 0.066817775 0.40702963
0.099501498 0.064231567 0.40965182
0.096150503 0.061715521 0.41246733
0.092801787 0.059046037 0.41517839
0.08955358 0.05633131 0.41772521
0.086179964 0.053888235 0.42061919
0.082837582 0.051396873 0.42343953
0.079587422 0.048698194 0.42599955
0.076304898 0.046208113 0.42874074
0.073965244 0.044480592 0.43015441
0.10696935 0.074548095 0.40558016
0.1056287 0.07321167 0.4073987
0.10238755 0.070792347 0.41013137
0.099073336 0.068131723 0.41280216
0.095683753 0.065405816 0.41553053
0.092422873 0.062888563 0.41822481
0.089206599 0.060389109 0.42087126
0.085790806 0.057761151 0.42369941
0.082498685 0.055133201 0.42636228
0.079225168 0.052667819 0.42910776
0.075844139 0.049876437 0.43178141
0.073554501 0.048560753 0.43352553
0.10661364 0.07841035 0.40880716
0.10527614 0.077017553 0.4103857
0.10197909 0.074715152 0.41327035
0.098730937 0.072128735 0.41590193
0.095263034 0.069134861 0.41855782
0.091940112 0.066842079 0.42148343
0.088747405 0.064249225 0.42403662
0.085339636 0.061564177 0.42681631
0.082078069 0.058994256 0.42947671
0.07883656 0.056667786 0.43227121
0.075400919 0.053817391 0.43497884
0.073017679 0.052271843 0.43660364
0.10607849 0.082585476 0.4121123
0.10480909 0.08089333 0.41357192
0.10137072 0.078418218 0.41653129
0.098090179 0.075820774 0.41919884
0.094903797 0.073247135 0.4217563
0.091584727 0.070760719 0.42454875
0.088364601 0.068130016 0.42711356
0.084983423 0.065419257 0.42984071
0.0817798 0.063094847 0.43258595
0.078325935 0.060345426 0.43538469
0.07484895 0.057643186 0.43824553
0.072729386 0.056318354 0.43990707
0.10573167 0.085986279 0.41491285
0.10428247 0.084766954 0.41683635
0.10103157 0.082223207 0.41949978
0.097752869 0.0797849 0.42227006
0.09435425 0.077239089 0.42512956
0.091196224 0.074680477 0.42765903
0.087897465 0.071895599 0.43022704
0.084472433 0.069426805 0.43317276
0.08114364 0.066759929 0.43585891
0.077873401 0.064076178 0.43845564
0.074754566 0.061818257 0.4411315
0.072375342 0.060420088 0.44306266
0.10531101 0.090011306 0.41821507
0.10397943 0.088634901 0.4197982
0.10071081 0.086293451 0.42261901
0.09740971 0.083674148 0.42529958
0.093999684 0.081175327 0.42820543
0.090662472 0.078267768 0.43074372
0.087406799 0.076032154 0.43361723
0.08393877 0.073230945 0.43640065
0.080647282 0.070529036 0.43901378
0.077345483 0.068002805 0.44175684
0.074157372 0.065429598 0.44431686
0.071826346 0.064124219 0.44625229
0.10472412 0.094369687 0.42163086
0.10352641 0.092521161 0.42297256
0.10006887 0.090163544 0.42603523
0.096852019 0.087573022 0.42862225
0.09354461 0.084907979 0.43128103
0.090322256 0.082329802 0.43388355
0.086902007 0.07973551 0.43673992
0.083566733 0.077124432 0.4394716
0.080299094 0.074560381 0.44214398
0.07690867 0.071787976 0.44484276
0.073588736 0.069219738 0.44758224
0.071240857 0.067711413 0.44911703
0.10428554 0.098248839 0.42477307
0.10309054 0.096555486 0.42622194
0.099761561 0.093892336 0.42891079
0.096395284 0.091164634 0.43160683
0.093089618 0.088712975 0.43440434
0.089749075 0.086075693 0.43712574
0.086500496 0.083503857 0.43976751
0.083037362 0.0808613 0.4426493
0.07981687 0.0783948 0.44532314
0.076603234 0.075811371 0.44791055
0.073275909 0.073224626 0.45064768
0.070982754 0.071707241 0.45234364
0.10400034 0.10199847 0.42797914
0.10268972 0.10034287 0.42926121
0.099319398 0.097814746 0.43209457
0.096080214 0.095255382 0.43473202
0.092689879 0.092648163 0.43753988
0.089467391 0.089918286 0.44004229
0.08613117 0.08735048 0.44280386
0.082745463 0.084819987 0.44565621
0.079498395 0.082331754 0.44835123
0.076188013 0.079725869 0.45105308
0.072736047 0.077038929 0.45389059
0.07039766 0.075696796 0.45558625
0.10337522 0.1058134 0.43083346
0.10221466 0.10416722 0.43242413
0.098886296 0.10178952 0.43530086
0.095664427 0.099199332 0.43789479
0.09234044 0.09657044 0.44059962
0.088851966 0.093706064 0.44336864
0.085711598 0.091194645 0.44590572
0.082320958 0.088917188 0.44893193
0.079036452 0.086178355 0.45151132
0.075725436 0.08372578 0.45431536
0.072434872 0.081007332 0.45691633
0.069989696 0.079720661 0.45879346
0.10286168 0.10974619 0.43393525
0.10193977 0.10816982 0.43543735
0.098471485 0.10564806 0.43840587
0.095302232 0.10313371 0.4409796
0.091914803 0.10053587 0.44378975
0.088494733 0.097643092 0.44644856
0.08516179 0.095225543 0.44930509
0.08183866 0.092760667 0.4521172
0.078618288 0.090001523 0.45459741
0.075318381 0.087490723 0.45734817
0.07199271 0.084843896 0.46004337
0.069599003 0.083162211 0.46155685
0.10259172 0.11367185 0.4373267
0.10144254 0.11191003 0.43857428
0.098032132 0.10937586 0.44145724
0.094663136 0.10666317 0.44416684
0.091334902 0.10419317 0.44698238
0.088043652 0.10153347 0.44962311
0.084852733 0.09894751 0.45217848
0.081494033 0.096537314 0.45507425
0.07801003 0.093920551 0.45800096
0.074857667 0.091210656 0.46042287
0.07142444 0.088666677 0.46332985
0.069280416 0.087157272 0.46477968
0.10215811 0.11728611 0.4402239
0.10075329 0.1157549 0.44203705
0.097454555 0.11311042 0.44469783
0.094339155 0.11082572 0.4473514
0.091071218 0.10821676 0.4499945
0.087691218 0.10557109 0.45276311
0.084284775 0.10293944 0.45557633
0.080977648 0.10021548 0.45819578
0.077647194 0.097811922 0.4610582
0.074342817 0.095064238 0.4636583
0.071102172 0.092759207 0.46646583
0.068827823 0.090925574 0.46783453
0.10169235 0.12118318 0.44334999
0.10065494 0.1197664 0.4448202
0.097224593 0.1171574 0.44768035
0.093898281 0.11464822 0.45046741
0.090503857 0.11201289 0.45326215
0.087347016 0.1094445 0.45578355
0.083959907 0.10680731 0.45856729
0.080660887 0.10432459 0.46133536
0.077358827 0.10161324 0.46395642
0.074053884 0.099194415 0.46677464
0.070633188 0.096529312 0.46958476
0.068326794 0.095080204 0.47126162
0.10138912 0.12513185 0.44672275
0.09993273 0.12338258 0.44817585
0.096699618 0.1210729 0.45097023
0.093333982 0.11840062 0.45370206
0.090060525 0.11604305 0.45651871
0.08690232 0.11317451 0.45884353
0.083620876 0.11056419 0.4615038
0.080283694 0.1082283 0.46441996
0.076776847 0.10550539 0.46730703
0.073617011 0.10299072 0.469868
0.070245303 0.10061577 0.47280449
0.067997381 0.098691471 0.47422192
0.10101093 0.12883337 0.44977009
0.09946955 0.12732597 0.45140159
0.096333086 0.12475264 0.45389253
0.092982441 0.12239443 0.4568119
0.08965759 0.11969622 0.45947209
0.086197808 0.11688659 0.46223894
0.082925379 0.11435945 0.46494216
0.079620138 0.11192302 0.46774912
0.076383777 0.10936786 0.47038561
0.07286638 0.1067394 0.47334921
0.06989716 0.10435022 0.47573835
0.067515045 0.10255206 0.47730604
0.10046163 0.13239503 0.45247668
0.099053539 0.13121027 0.45452523
0.095773958 0.12868176 0.45723706
0.092350572 0.12602088 0.46005359
0.089121193 0.12364613 0.4628
0.085864738 0.12110005 0.4654693
0.082410984 0.11826047 0.46820831
0.079232655 0.11588754 0.47088766
0.07606858 0.11337508 0.47345576
0.072764322 0.11051294 0.47598004
0.069308907 0.10805327 0.47897238
0.067088664 0.10646212 0.48043808
0.10000733 0.13678473 0.45608354
0.098709866 0.13517234 0.45760357
0.095398664 0.13270886 0.4604007
0.092134356 0.129879 0.46289289
0.088785276 0.12750115 0.46579722
0.085448995 0.12474371 0.46843353
0.082161248 0.12233216 0.47123361
0.078906968 0.11975223 0.47387761
0.075551629 0.11705926 0.47658199
0.072191179 0.11441582 0.47932595
0.068961233 0.11193857 0.48200536
0.06653972 0.11004455 0.48348302
0.099491931 0.14056447 0.45903799
0.098329946 0.13895638 0.46061271
0.095081955 0.1365765 0.46338058
0.091785587 0.13386898 0.46599653
0.088310435 0.13118224 0.46886516
0.085126132 0.12883079 0.47156668
0.081694037 0.12630764 0.47448593
0.078359343 0.12350631 0.47709107
0.07519073 0.12096706 0.47964752
0.071785346 0.11842611 0.48251927
0.068584204 0.11596747 0.48517245
0.066240326 0.1141284 0.48667631
0.09905605 0.14446236 0.46220124
0.097855672 0.14301349 0.46392846
0.094490297 0.14024706 0.46659768
0.091097049 0.13778706 0.46950674
0.087989621 0.13506447 0.4718602
0.084432453 0.13249055 0.47491303
0.081220135 0.13007873 0.47761211
0.077905186 0.12723404 0.4801622
0.074671119 0.12485638 0.48291293
0.071301952 0.12225406 0.48569572
0.068113387 0.11978759 0.48832691
0.065686308 0.11800678 0.48979324
0.098621219 0.14834237 0.46534878
0.097329848 0.14665125 0.46703589
0.094212204 0.14433438 0.46967119
0.090795547 0.14156142 0.47240466
0.087458931 0.13894077 0.47513181
0.084117375 0.13652159 0.47799876
0.080878712 0.13389593 0.48059171
0.077599429 0.13136949 0.4833045
0.074149117 0.12872083 0.48616511
0.070932776 0.12636524 0.48890674
0.067624092 0.1235459 0.49146521
0.065295435 0.12197146 0.49310154
0.09822619 0.15243688 0.468748
0.09699592 0.15068872 0.47015107
0.093722388 0.14818637 0.47287214
0.09052746 0.14571112 0.47550604
0.087041192 0.14299291 0.47836873
0.083761655 0.14058296 0.48115885
0.080503352 0.13793913 0.48376605
0.077167779 0.13518426 0.48640308
0.073863849 0.13278441 0.48923251
0.0705138 0.13007006 0.4919157
0.067153543 0.12730427 0.49457851
0.064906314 0.12585706 0.49621385
0.097803541 0.15572427 0.47134882
0.096552432 0.15459681 0.47332716
0.093279727 0.15190931 0.47592473
0.090006709 0.14961205 0.47878066
0.086583495 0.14667776 0.48141623
0.083232887 0.14429086 0.48431659
0.079966418 0.14154899 0.48686987
0.076741621 0.13913091 0.4895815
0.07339403 0.13650517 0.49231994
0.07014437 0.13394457 0.49497059
0.066690199 0.13122211 0.49778759
0.064413764 0.1294848 0.49929154
0.09738031 0.16041923 0.47528273
0.095978841 0.15814893 0.47644183
0.09275116 0.15567738 0.47912195
0.089552037 0.15335912 0.48186523
0.086138591 0.15056264 0.48457885
0.082854204 0.1480241 0.4872905
0.079621345 0.14561589 0.49001941
0.076302752 0.14288321 0.49264842
0.073017538 0.14054753 0.49549526
0.069536626 0.13782935 0.4983508
0.066474453 0.13537005 0.50081784
0.063995354 0.13381371 0.50258505
0.096969336 0.16388087 0.47806287
0.095592439 0.16209693 0.479568
0.092436835 0.15976088 0.48224136
0.089041948 0.15695339 0.48492292
0.085640334 0.15435687 0.48775288
0.082285494 0.15183929 0.49057251
0.079048969 0.14941531 0.49329591
0.075779349 0.14670891 0.49587685
0.072488844 0.14431295 0.4986909
0.069184288 0.14157593 0.50129831
0.065760061 0.13895756 0.50414407
0.063573845 0.13719745 0.50549233
0.096677721 0.16761193 0.48124355
0.095166974 0.16606113 0.48275709
0.091938019 0.16361417 0.48545516
0.088578179 0.16091356 0.48816052
0.085266784 0.15846488 0.49096763
0.081951581 0.15568805 0.49356294
0.078636974 0.15332586 0.49643153
0.075264841 0.15055156 0.49910462
0.072064668 0.14800206 0.50169647
0.068780549 0.14563289 0.50451964
0.065444335 0.1427913 0.50710022
0.063004605 0.14166319 0.50905764
0.096084826 0.17158058 0.48428276
0.094886303 0.17019655 0.48586583
0.091450542 0.16730045 0.48854342
0.088188358 0.16490889 0.49132255
0.084847681 0.16236384 0.4941051
0.081601784 0.1596529 0.49665135
0.07825736 0.15705901 0.49940664
0.074962094 0.15454708 0.50215036
0.0715224 0.15199758 0.50506234
0.068255238 0.14945273 0.50774682
0.065074965 0.14699087 0.5103699
0.062741138 0.14499995 0.51180673
0.095700391 0.17514992 0.48719725
0.094305813 0.1738994 0.48908934
0.090878144 0.17120759 0.49189118
0.087719485 0.16874054 0.49448204
0.084503256 0.16616839 0.49708033
0.081147671 0.16361369 0.49987644
0.07792744 0.16088739 0.50237823
0.074536264 0.15833768 0.50522518
0.071209326 0.15588132 0.50804806
0.067836896 0.15326746 0.51082754
0.06464871 0.15067595 0.51337558
0.062332995 0.14888024 0.51486182
0.09545166 0.17874223 0.49029863
0.093738236 0.1775654 0.49227124
0.090710312 0.1750901 0.49468195
0.087450117 0.17256226 0.49736831
0.084167771 0.17005081 0.50009513
0.080758147 0.16742644 0.50291741
0.077403352 0.16477154 0.50564623
0.074143112 0.16231671 0.50838089
0.070881963 0.1597652 0.51105291
0.067481384 0.15714484 0.51386577
0.064085566 0.15446657 0.51663393
0.061693873 0.15322065 0.51841903
0.094846003 0.18266857 0.4932822
0.093465343 0.18176486 0.49539292
0.090238318 0.17885619 0.49780226
0.086811051 0.17644428 0.50078857
0.083506569 0.17374751 0.50342244
0.080149926 0.17110558 0.50616229
0.076922998 0.16875006 0.50891811
0.07370913 0.16602136 0.51140982
0.070342988 0.16344786 0.5142076
0.067032009 0.16086033 0.51692235
0.063748091 0.15846547 0.51968056
0.061497178 0.15665251 0.52121586
0.093318395 0.18397696 0.49627221
0.089372694 0.18104798 0.49933761
0.086330801 0.17859107 0.50194603
0.082982257 0.17595135 0.5047375
0.079509199 0.17344156 0.50735146
0.076532304 0.17097074 0.50998604
0.073138371 0.16826423 0.5128535
0.069897734 0.16586199 0.51536703
0.066231221 0.1630927 0.51827425
0.063509226 0.16079 0.52073681
0.061549485 0.15888554 0.5228138
0.10549054 0.068146035 0.39771405
0.10423364 0.064870894 0.39763829
0.10076804 0.062397689 0.4002082
0.097567409 0.059764575 0.40301195
0.094177499 0.057196707 0.40570903
0.091104925 0.054481037 0.40863228
0.0876619 0.051915839 0.41131872
0.084034517 0.049379673 0.41394389
0.081099123 0.046929762 0.41655844
0.077553064 0.044364102 0.41923121
0.074281961 0.041675698 0.42209336
0.071856827 0.041757736 0.42549217
0.10519266 0.071873643 0.40088385
0.071312152 0.045906309 0.42879373
0.1047237 0.075868659 0.40409884
0.070990704 0.049509168 0.43181658
0.10429095 0.079724371 0.40722591
0.070434675 0.05341984 0.43484569
0.10393013 0.083603442 0.41046262
0.07015729 0.057189018 0.4380798
0.10327733 0.087426983 0.41329145
0.06959869 0.06130394 0.44129938
0.10286769 0.091575794 0.41672435
0.06929823 0.065067679 0.44450021
0.10253509 0.095117763 0.41967598
0.06873367 0.068768524 0.44732016
0.10228197 0.098967984 0.42301643
0.068230301 0.072825238 0.45055172
0.10176162 0.1029713 0.42617676
0.067769632 0.076571964 0.45354149
0.10105537 0.10699111 0.4291265
0.067354195 0.080504358 0.45676225
0.10074328 0.1106161 0.43218175
0.066932738 0.084579371 0.4601109
0.10029824 0.11460049 0.4354158
0.066577077 0.088195257 0.46310449
0.099833198 0.11845052 0.43849817
0.066253841 0.091958165 0.46627688
0.09949445 0.12230796 0.44174126
0.065876 0.095808148 0.46946532
0.099145658 0.12616685 0.4449735
0.065419629 0.09961541 0.47251773
0.098603927 0.13008666 0.44802868
0.064928919 0.10363907 0.4757334
0.09817069 0.13398799 0.45119837
0.064456336 0.10751788 0.47883388
0.0976156 0.13784763 0.45418027
0.064068951 0.1114675 0.48210514
0.097297169 0.14160596 0.45735419
0.063588023 0.11539383 0.48524049
0.096935607 0.14552149 0.46062455
0.063004829 0.11926573 0.48819983
0.096287131 0.14945741 0.46356508
0.06274578 0.12301223 0.49143475
0.096013054 0.15328746 0.46686089
0.062406026 0.12689419 0.49469984
0.095474243 0.15711153 0.4698289
0.061795175 0.13084537 0.49770063
0.095111445 0.16081023 0.47289231
0.061387397 0.13470913 0.5008657
0.094659552 0.1649024 0.47622016
0.061087161 0.13855559 0.50414526
0.09437798 0.1686967 0.47947299
0.06040816 0.14253588 0.50709069
0.094021671 0.17253429 0.48267588
0.060111322 0.14624904 0.51024806
0.093428262 0.17635061 0.48557013
0.059677023 0.15010959 0.51337785
0.093111701 0.18009567 0.48873371
0.059105732 0.15412261 0.51648533
0.09247376 0.18421417 0.49186009
0.089584492 0.18237036 0.49773642
0.075245768 0.17405063 0.50601047
0.0720907 0.1712576 0.50901771
0.06794101 0.16602516 0.51489508
0.066254869 0.16393401 0.51724017
0.060174987 0.1622787 0.51843983
0.058930911 0.15799725 0.51994425
0.090833724 0.18476918 0.49495161
0.087123565 0.18231863 0.49745971
0.083761819 0.17957991 0.50037134
0.080713809 0.1770092 0.50311923
0.077593781 0.17469683 0.50553864
0.074312635 0.17206319 0.50833189
0.070742361 0.16953902 0.51095021
0.067516342 0.16677058 0.51391721
0.06403283 0.16432776 0.51644719
0.060829498 0.16143806 0.51956689
0.058826827 0.16004607 0.52100611
0.10191756 0.06992735 0.39505416
0.10057352 0.066552967 0.3950578
0.097085595 0.064174719 0.39750755
0.093778968 0.061586063 0.40024179
0.090594292 0.05894284 0.4030602
0.087051183 0.056383625 0.40572542
0.083684623 0.05369876 0.40856999
0.080574527 0.051243763 0.41116664
0.077101953 0.048609119 0.41393465
0.073718101 0.046235047 0.41639364
0.07057406 0.043523885 0.41930142
0.06817764 0.043579526 0.42271641
0.10134697 0.073859178 0.39808562
0.067843594 0.047421757 0.42600888
0.10117064 0.077578023 0.40139499
0.067254193 0.051325552 0.42899093
0.10044426 0.08176554 0.40447918
0.066883795 0.055234119 0.43224388
0.10007451 0.085567199 0.40763167
0.066507965 0.05909922 0.43544915
0.099497415 0.089402288 0.41056353
0.065903641 0.062865086 0.43828228
0.099160425 0.093206979 0.41375878
0.065620765 0.066717409 0.44158849
0.098742262 0.097148821 0.41698521
0.065056585 0.070658647 0.44463667
0.098479256 0.10086488 0.42018649
0.064492501 0.074531488 0.44762012
0.098048277 0.10455766 0.42316133
0.06417238 0.078387231 0.45088428
0.097309634 0.10857294 0.42606735
0.063638456 0.082229786 0.45387572
0.097024292 0.11252015 0.4294605
0.063306078 0.086152151 0.45718807
0.09658736 0.11644021 0.43264341
0.062820233 0.090127155 0.46036357
0.096237488 0.12009612 0.435682
0.062488817 0.093826368 0.46346563
0.095734566 0.12417251 0.43893278
0.061921943 0.097807907 0.46654868
0.095362186 0.12795967 0.44206834
0.061550323 0.10169036 0.4697755
0.095022611 0.1318377 0.44532993
0.061135516 0.10554335 0.47292179
0.094519325 0.13561825 0.44829994
0.060826242 0.1093125 0.4761171
0.093893841 0.1395565 0.4512707
0.06018284 0.11337031 0.47917932
0.09358386 0.14346963 0.45460153
0.059894845 0.11714844 0.482409
0.09325584 0.14709735 0.45763999
0.059539676 0.12112406 0.48574409
0.092599265 0.15123667 0.46076342
0.058956556 0.12494273 0.48865306
0.092336439 0.15501907 0.46402782
0.058514886 0.12880108 0.49177176
0.091724314 0.15896314 0.4670203
0.057962734 0.13267565 0.49477142
0.091366962 0.16281883 0.4702391
0.05769065 0.13658398 0.49814385
0.090928301 0.1666044 0.4732925
0.057314739 0.14042222 0.50132352
0.090464622 0.17057003 0.47648609
0.056933157 0.14414524 0.50438708
0.090134189 0.17446381 0.4797737
0.056327127 0.14818779 0.50748032
0.089703418 0.17842953 0.48300743
0.055886425 0.15200613 0.5105623
0.08912155 0.18224844 0.48591816
0.05547452 0.15599714 0.51384294
0.088872679 0.18609616 0.48926139
0.07130532 0.17468025 0.50468886
0.066007152 0.17076278 0.50878596
0.06345959 0.16896582 0.51064909
0.061991647 0.16542846 0.51480752
0.058761872 0.16285682 0.51753145
0.055119921 0.15976195 0.51697898
0.086697452 0.18649352 0.49225304
0.083330438 0.18393141 0.49494618
0.080274455 0.18139642 0.49764895
0.076978959 0.17906976 0.50006169
0.073639274 0.17637905 0.50291729
0.070331186 0.1736019 0.50588369
0.067277968 0.17123085 0.5083847
0.063925005 0.16856015 0.51121366
0.060347803 0.16608652 0.51376867
0.056918688 0.16364346 0.51630646
0.055461027 0.16182832 0.51834285
0.098041445 0.071790323 0.39210275
0.096609429 0.068427995 0.39219731
0.093470037 0.066069394 0.39467108
0.090073779 0.063378833 0.39751855
0.086789303 0.060858417 0.40017173
0.083465159 0.058365263 0.40278581
0.079976596 0.055832412 0.40542608
0.076769009 0.053248659 0.40816799
0.07349588 0.050602011 0.41097838
0.070317917 0.048014998 0.41372842
0.066896752 0.045354225 0.41653574
0.064518899 0.045398578 0.41999117
0.097634956 0.075654656 0.39526993
0.064193249 0.049267288 0.4233157
0.097395837 0.079475969 0.39860004
0.063593127 0.053288322 0.42639574
0.096732013 0.083413519 0.40152344
0.063241519 0.057011131 0.42949557
0.09629187 0.087279148 0.40465093
0.062860474 0.060819872 0.43264106
0.095825091 0.091269881 0.40786451
0.062397443 0.064711519 0.43576533
0.095489852 0.095120214 0.41110513
0.061917938 0.068680316 0.43894264
0.094891638 0.09897168 0.41402683
0.061545741 0.072477318 0.44208777
0.094636381 0.10280155 0.41734537
0.061176173 0.076328881 0.44528776
0.094243512 0.10651685 0.42038792
0.060759753 0.080128863 0.4483819
0.093602449 0.11058419 0.42346203
0.06019827 0.083992794 0.45136011
0.093334779 0.11439869 0.4267509
0.05974324 0.087991722 0.45459574
0.092884794 0.11819559 0.42980126
0.05922313 0.091823436 0.45759374
0.092410848 0.12215227 0.43297386
0.058788545 0.095775232 0.46080962
0.092066213 0.12584853 0.43605706
0.058194902 0.099600114 0.46371165
0.091698244 0.12990406 0.43945229
0.057908058 0.10337211 0.46693695
0.091058418 0.13394423 0.44250214
0.057464946 0.10731009 0.47012934
0.090624839 0.13761862 0.44545639
0.057026185 0.11127086 0.47334862
0.090286039 0.1415659 0.44878453
0.05658035 0.11509192 0.47642693
0.089957364 0.14521502 0.45184249
0.056150071 0.11900509 0.47961146
0.0892957 0.14932218 0.45492923
0.055739872 0.12273257 0.48264444
0.089029431 0.15298261 0.45807385
0.055333614 0.12661314 0.48582727
0.088523932 0.15682326 0.4610981
0.054688968 0.13062096 0.48884064
0.088145621 0.16078462 0.46439153
0.054403864 0.13450657 0.4921757
0.087624185 0.16472423 0.46749014
0.054094255 0.13816109 0.49526197
0.087218389 0.16864686 0.47071344
0.053510167 0.1421724 0.49835229
0.086791776 0.17244467 0.47379309
0.053017631 0.14604478 0.50142241
0.086492628 0.17627046 0.47705436
0.052657254 0.1499221 0.50465798
0.085992202 0.1801711 0.48014164
0.052183568 0.15378571 0.50774276
0.085432746 0.18415843 0.48323923
0.051743716 0.15769802 0.51091474
0.084926836 0.18807109 0.48633122
0.068975344 0.17667215 0.50191039
0.06714081 0.17565478 0.50291097
0.055799827 0.16775817 0.51107818
0.051300578 0.16505472 0.51378894
0.051396251 0.16147174 0.51405907
0.083166882 0.188458 0.48934227
0.080153637 0.18603811 0.49190903
0.076641589 0.18333921 0.49475086
0.073234901 0.18085665 0.49734035
0.069916569 0.17836672 0.49995124
0.066852808 0.17543718 0.50313938
0.063301839 0.17299107 0.50566411
0.060079612 0.1704724 0.50832379
0.056887358 0.168005 0.51092428
0.053582251 0.16534857 0.51374233
0.051604431 0.16378328 0.51539862
0.094191693 0.073808432 0.38933045
0.093038052 0.070413634 0.38925481
0.089652903 0.067768343 0.39204803
0.086273953 0.065198131 0.39474952
0.082859196 0.06263046 0.39744294
0.079715244 0.060136497 0.40008295
0.076232031 0.057542913 0.40279883
0.072997779 0.054978549 0.40551317
0.069685794 0.052389108 0.40824765
0.066257335 0.049823824 0.41093621
0.063131049 0.047158364 0.41379011
0.060752403 0.047034364 0.41680074
0.093915403 0.077593878 0.39258131
0.060288366 0.051091541 0.42029256
0.093608834 0.081237681 0.39566112
0.059743077 0.055077929 0.42340648
0.093072258 0.085230075 0.39879134
0.059497431 0.058858674 0.42669019
0.092606805 0.089091271 0.40188381
0.058982227 0.062820226 0.4298172
0.092171215 0.092945807 0.40500629
0.058640316 0.066601127 0.43298393
0.0916702 0.096935496 0.40817726
0.058192149 0.07063476 0.43626082
0.091256388 0.10075892 0.41129676
0.057824306 0.074379928 0.43936211
0.090853907 0.10468136 0.41452387
0.057182528 0.078240752 0.44223964
0.090358242 0.10850856 0.41754737
0.056887478 0.082031935 0.44547313
0.089939155 0.11226001 0.42059225
0.056473404 0.08605127 0.44877797
0.089799836 0.1159846 0.42395213
0.055939201 0.089959569 0.4518314
0.089288309 0.12005695 0.42718861
0.055473357 0.093748033 0.45485446
0.088670045 0.12393066 0.43010697
0.055002119 0.097619645 0.45794976
0.088275455 0.1278653 0.43335527
0.05467147 0.10146901 0.46119505
0.087919809 0.13169071 0.43654743
0.054228641 0.10527385 0.46426162
0.087649003 0.13551451 0.43984133
0.053805385 0.10913467 0.46740508
0.08698602 0.13954088 0.44284993
0.053352259 0.11295199 0.47047096
0.086581498 0.14338671 0.44600198
0.052818015 0.1169918 0.47364897
0.086358748 0.14723977 0.44938207
0.052472211 0.12075473 0.47679389
0.085693382 0.1511247 0.45225373
0.051948968 0.12476819 0.47996032
0.085236967 0.15489802 0.45527393
0.051587272 0.12861343 0.48316392
0.084833182 0.15882361 0.45850247
0.051173482 0.1322673 0.48612279
0.084404565 0.16274717 0.46169883
0.050535105 0.13633884 0.48920417
0.083939411 0.16653161 0.46471891
0.050140303 0.14017574 0.49235958
0.083660692 0.1702618 0.46791446
0.049812227 0.14411244 0.49569073
0.083120279 0.17425522 0.47104099
0.049164191 0.14791051 0.49850118
0.082612038 0.17816842 0.47413069
0.048943412 0.15164134 0.50176787
0.082286887 0.18196142 0.47732925
0.048651908 0.15546393 0.5050354
0.081764899 0.18586975 0.48039758
0.048034105 0.15929398 0.50791299
0.081350468 0.18972993 0.48355114
0.070495501 0.18468153 0.49224517
0.068830237 0.18143739 0.49601477
0.065938555 0.18039222 0.4969033
0.056110594 0.17282209 0.50487733
0.053707544 0.16940081 0.50876325
0.049453765 0.16662037 0.51160288
0.047636736 0.16345835 0.5113138
0.079294115 0.19023085 0.48662043
0.076156601 0.187775 0.4892143
0.073058397 0.1852044 0.49195516
0.069568738 0.18276231 0.49448335
0.066419989 0.18012172 0.49730346
0.063106015 0.17737575 0.50023067
0.05962456 0.17490923 0.50279021
0.056244995 0.17233577 0.50549555
0.052960541 0.16967255 0.50832486
0.049786892 0.1672985 0.51081288
0.047767907 0.16563383 0.51258606
0.090608299 0.075556725 0.3866266
0.089283854 0.072264083 0.38645369
0.085864007 0.069567688 0.38930511
0.082588039 0.067105882 0.39188719
0.07924068 0.064584516 0.39453286
0.076095372 0.062038243 0.39723715
0.07279852 0.059258424 0.40020847
0.069227137 0.056788061 0.40276024
0.066021919 0.054294109 0.40539175
0.062378064 0.051691726 0.40809625
0.059203062 0.049226224 0.41069686
0.057152905 0.048593462 0.41381738
0.090281129 0.079288162 0.38976437
0.056495674 0.052941568 0.4174304
0.089932516 0.083088428 0.39294127
0.055981658 0.056995571 0.42064646
0.089354716 0.087091282 0.39603126
0.055710208 0.060685813 0.42381302
0.088932395 0.090946011 0.39917007
0.055152338 0.064754322 0.42698947
0.088356517 0.094968148 0.40228066
0.054693699 0.068617769 0.43009233
0.087973468 0.098715305 0.40536532
0.054382026 0.07239259 0.43329009
0.087711796 0.10237451 0.40851435
0.054090865 0.076136522 0.43648353
0.087147683 0.10652192 0.41175798
0.053367484 0.080076098 0.43933639
0.086681485 0.11040372 0.41486904
0.053248417 0.083861887 0.44277889
0.086204633 0.11423772 0.41792187
0.052777842 0.087777227 0.44591641
0.086044036 0.11794859 0.42124286
0.052258626 0.091612302 0.44891873
0.085540168 0.12189136 0.42436588
0.051801443 0.095594347 0.45213574
0.08509358 0.12573449 0.42746419
0.051337402 0.099435858 0.45521128
0.084783673 0.12945379 0.43061146
0.050852813 0.10328641 0.45827037
0.084208712 0.13350286 0.43374866
0.050467726 0.10717872 0.46149009
0.083882712 0.13723946 0.43689278
0.049859546 0.11117798 0.46453974
0.083375484 0.14129439 0.44011799
0.049561907 0.11500712 0.46780601
0.083058596 0.14508238 0.44332182
0.049177073 0.1188169 0.47094786
0.082454816 0.14907363 0.44636923
0.048709948 0.12274893 0.47410542
0.082004949 0.1528461 0.44939655
0.048240539 0.12666124 0.47724149
0.081525259 0.1567215 0.45248517
0.047837012 0.13051783 0.48040491
0.081235453 0.16032228 0.45554459
0.04744431 0.13428748 0.48349917
0.080660641 0.16453397 0.45883614
0.0468827 0.13823327 0.4865548
0.080230214 0.16838604 0.46196255
0.046572432 0.14213674 0.48987615
0.079754807 0.17230844 0.46510088
0.04606843 0.14586753 0.49279812
0.079331249 0.17615551 0.46823093
0.045544729 0.14989367 0.495976
0.079013556 0.18000317 0.47149038
0.045125205 0.15369439 0.49906704
0.078544743 0.18383291 0.47454894
0.044943132 0.15747735 0.5024302
0.078092679 0.18765262 0.4776184
0.044435471 0.16124116 0.50537902
0.077675171 0.19148928 0.48074594
0.072266184 0.19153437 0.48404062
0.069779202 0.18686458 0.48945433
0.067544483 0.18340304 0.49341318
0.04815764 0.17218353 0.50456417
0.04639091 0.16997665 0.50704074
0.043912917 0.1652403 0.5085327
0.075716868 0.19220462 0.48369172
0.072275423 0.18956751 0.48646709
0.068902202 0.18709752 0.48904577
0.065609023 0.18452346 0.49176386
0.062654093 0.18191332 0.4945733
0.059337668 0.17934892 0.49727628
0.055900767 0.176772 0.49997807
0.052579701 0.17414495 0.50275767
0.049303424 0.17139111 0.50569981
0.045849696 0.16891196 0.50827873
0.044261917 0.16740116 0.50992173
0.087105401 0.077115782 0.38384137
0.085444391 0.074055791 0.38371319
0.082071111 0.071510307 0.38638499
0.07899417 0.068806678 0.38929278
0.075521633 0.066284768 0.39192179
0.072151385 0.063735187 0.39459905
0.069066092 0.061168719 0.39733657
0.065597661 0.058606379 0.40001598
0.06236453 0.055937558 0.40285924
0.059101261 0.053606525 0.40528184
0.055708848 0.050986111 0.40804338
0.053482346 0.050454248 0.41111195
0.086438075 0.08120279 0.38690215
0.052739006 0.054972097 0.41478312
0.086162679 0.084915087 0.39008477
0.052443914 0.058783591 0.41803581
0.085616514 0.088962168 0.39325517
0.051927686 0.062632516 0.42105484
0.08529906 0.092765778 0.39647317
0.051412314 0.066438593 0.42403433
0.08482603 0.09662769 0.39955708
0.05115775 0.070263915 0.42734942
0.084313236 0.10058872 0.40268654
0.050639801 0.074332364 0.43057439
0.083994776 0.10447367 0.40598035
0.05039417 0.07812199 0.43386653
0.083616219 0.10821103 0.40906122
0.049643543 0.0819185 0.43655068
0.083081827 0.11202239 0.41202256
0.049293794 0.085666567 0.43967673
0.082729325 0.11585711 0.41522738
0.048879705 0.089618556 0.44291773
0.082237169 0.11992647 0.41848463
0.048580389 0.093601063 0.4463273
0.081764273 0.12366293 0.42144981
0.047859643 0.097543314 0.44918591
0.081423461 0.12753965 0.42470866
0.047628846 0.10125352 0.45242086
0.080950595 0.13147132 0.42785889
0.047156937 0.10521305 0.45559862
0.080604777 0.13533184 0.43109629
0.04665998 0.10902612 0.45860714
0.080245286 0.13911475 0.4342435
0.046302646 0.1128139 0.46176162
0.079491735 0.14326359 0.43725795
0.045768037 0.11684308 0.4649291
0.079242751 0.14685127 0.44035465
0.045418117 0.12057921 0.46804363
0.078641593 0.15081763 0.44338161
0.044992872 0.12450342 0.47124475
0.078097165 0.15487307 0.44656205
0.044481497 0.12851606 0.47442484
0.077863231 0.15846527 0.44968131
0.044241488 0.13204972 0.47748125
0.077383794 0.16253172 0.45295125
0.043618239 0.13609861 0.48055953
0.076932818 0.16649061 0.45615393
0.043255575 0.13988283 0.48370415
0.076443389 0.17033751 0.45920366
0.04296919 0.14370939 0.48698169
0.076116525 0.17409627 0.46236768
0.042454608 0.14768291 0.4901208
0.075657934 0.1779488 0.4654603
0.041881211 0.15165687 0.49318874
0.07516522 0.18181318 0.46852261
0.041468274 0.15556477 0.49638939
0.074888706 0.18560216 0.47177655
0.041132718 0.15927061 0.4994927
0.074404262 0.18960282 0.47497806
0.040698841 0.163204 0.50269198
0.073817782 0.19355115 0.47800583
0.071872212 0.19461253 0.48019069
0.069366798 0.19168201 0.48345733
0.044463295 0.17439285 0.50132883
0.044132899 0.17028818 0.5063442
0.040139098 0.16706806 0.50567245
0.072129875 0.19391397 0.48108768
0.068700887 0.19135633 0.48376676
0.065613091 0.18896702 0.48628551
0.062211446 0.18639359 0.48898786
0.058773205 0.18379578 0.49171522
0.055508602 0.18123719 0.49441823
0.052137088 0.17859602 0.49720824
0.049060907 0.17604098 0.49993297
0.045542751 0.17340626 0.50269479
0.042036887 0.17089954 0.50530046
0.040230691 0.16939564 0.50690466
0.083264738 0.079148322 0.38109377
0.080180757 0.077997819 0.38103351
0.076907247 0.075483248 0.38370106
0.073672391 0.072733968 0.38642839
0.070506603 0.070239358 0.38916793
0.06711407 0.067420378 0.39194798
0.063850209 0.064793289 0.39465892
0.060678184 0.062241651 0.39725602
0.057671972 0.05937963 0.39996833
0.054260649 0.056706972 0.4027203
0.0510116 0.054152578 0.40550148
0.049262058 0.052702058 0.40780592
0.082685657 0.083168492 0.38419861
0.079208791 0.082580708 0.3842704
0.076016389 0.08004722 0.38686243
0.072701134 0.07743258 0.38956502
0.069365665 0.074918218 0.39236093
0.066075526 0.072253279 0.39499667
0.062770784 0.069811821 0.3977997
0.059345186 0.067101002 0.40058619
0.056114677 0.064725414 0.40333351
0.052810624 0.06205871 0.40598673
0.049389232 0.059395917 0.40879932
0.048583813 0.057090532 0.41140807
0.082401238 0.086856954 0.3873477
0.078752756 0.086389363 0.38739753
0.07551384 0.083964504 0.39012355
0.07233043 0.081434265 0.39270571
0.068931267 0.078727469 0.39545953
0.065727845 0.076142885 0.39803252
0.062286798 0.07364095 0.4009777
0.058989957 0.070997953 0.40363693
0.055626191 0.068656467 0.40658492
0.052367151 0.065861605 0.40909323
0.048984643 0.063270509 0.4119013
0.04808126 0.061046854 0.41457772
0.082006544 0.090626292 0.39043921
0.078346238 0.090451941 0.39062634
0.075324908 0.087899551 0.39297724
0.071878858 0.085344285 0.39589387
0.068498783 0.082680762 0.39865077
0.065111086 0.079987176 0.401398
0.061865814 0.077522069 0.4041059
0.058496714 0.074651532 0.40671128
0.055268057 0.072352611 0.40950683
0.05192668 0.069718681 0.41223156
0.048638854 0.067184336 0.41495058
0.047550645 0.064998224 0.41757002
0.081529804 0.094716005 0.39373448
0.078129239 0.09441594 0.39353666
0.074846022 0.091666475 0.39610732
0.071396112 0.089156464 0.39905903
0.068064757 0.086548686 0.40178767
0.064742632 0.083961681 0.40451771
0.061405916 0.081338972 0.40724364
0.058146842 0.078571893 0.40977037
0.054791339 0.075994901 0.41255164
0.051442321 0.073636673 0.41546884
0.048223559 0.071164206 0.41813642
0.047076903 0.068790443 0.4205716
0.081097148 0.098502457 0.39679602
0.077696607 0.098140009 0.39657661
0.07437443 0.095544286 0.39930093
0.071068212 0.093042135 0.40206581
0.067782104 0.090578355 0.40482917
0.064335071 0.08789064 0.40765956
0.061000962 0.085115954 0.41028157
0.057552189 0.082567304 0.41320622
0.05427856 0.079973549 0.41586697
0.050984893 0.077656619 0.41873747
0.047759946 0.074897975 0.42122418
0.046583917 0.072758995 0.423792
0.080774337 0.10236596 0.40006423
0.077210888 0.10209522 0.3998403
0.073862754 0.099280059 0.40245426
0.070584811 0.096850231 0.40522915
0.06723769 0.094333626 0.40803912
0.063741416 0.091631912 0.41092607
0.060539711 0.089018375 0.41347763
0.057175264 0.086410508 0.41625044
0.053918123 0.083947152 0.41897535
0.050526768 0.081437431 0.42184901
0.047445152 0.078930408 0.42431045
0.04625304 0.076678663 0.42704284
0.080223203 0.10617729 0.40300518
0.076769814 0.10598113 0.40299848
0.073402837 0.10313322 0.40561599
0.070109665 0.10070587 0.40841287
0.066848934 0.098139271 0.41107434
0.063416764 0.095451646 0.41388494
0.060067128 0.092875302 0.41665879
0.056750081 0.090281665 0.41937765
0.053450294 0.087626979 0.42203307
0.050144356 0.085233256 0.42486924
0.046887409 0.082558878 0.42745441
0.045877989 0.080393076 0.43015704
0.080016218 0.11003044 0.40640455
0.07640104 0.10977709 0.40600058
0.073008239 0.1070804 0.40875259
0.069715977 0.10466257 0.41155452
0.066233493 0.10198835 0.41444123
0.063001759 0.099525675 0.41713265
0.059753146 0.096767046 0.41965097
0.05619096 0.094289206 0.42277402
0.053028293 0.091570385 0.4252038
0.049705729 0.089087442 0.42800322
0.04642171 0.086521447 0.43069619
0.045425046 0.084334254 0.43337059
0.079551205 0.11387492 0.4094817
0.075853176 0.11354244 0.40922183
0.07253392 0.11105911 0.41201657
0.069204509 0.10820454 0.41457945
0.065882109 0.10596886 0.4175421
0.062595576 0.10336141 0.42021105
0.05911278 0.10051375 0.42298353
0.055811614 0.098010898 0.42574117
0.052651197 0.09560585 0.42837536
0.04940363 0.093010686 0.43100035
0.04597361 0.090336509 0.43381697
0.044863347 0.088190988 0.43625858
0.078951932 0.11773255 0.41240793
0.075434074 0.11747016 0.41237828
0.072043285 0.11480864 0.41515085
0.068777204 0.11215364 0.41776103
0.065424442 0.10973866 0.42064571
0.062176827 0.1071267 0.42325968
0.058740571 0.10464125 0.42620939
0.055378724 0.10195064 0.42892402
0.05215738 0.099354632 0.4315134
0.048962694 0.096769072 0.43407404
0.045564067 0.09412238 0.43686688
0.044637937 0.092063963 0.43971595
0.078463554 0.12163924 0.4155156
0.074892655 0.12121408 0.41557673
0.071616717 0.11883312 0.41838124
0.068320915 0.11614007 0.42100599
0.064956531 0.11366886 0.42386907
0.061650433 0.11105876 0.4265624
0.058406096 0.10851522 0.42921719
0.055169784 0.10591885 0.43182635
0.051828139 0.10337923 0.43461379
0.048532013 0.10079364 0.43731001
0.045172643 0.098290026 0.44014496
0.044125251 0.095717221 0.44255123
0.077979639 0.12559414 0.41867441
0.074449472 0.12512904 0.41875696
0.071148336 0.12244974 0.42139792
0.067923874 0.11998846 0.42408055
0.064622454 0.11740948 0.42678821
0.061184302 0.11485137 0.42969242
0.057844121 0.11222488 0.43242049
0.054742273 0.10969406 0.43489325
0.051283594 0.10716408 0.4378435
0.048153006 0.10459151 0.44032708
0.04475918 0.10188069 0.4430711
0.043764431 0.09982188 0.44596875
0.077641934 0.12946357 0.4219301
0.073940143 0.12914273 0.42209086
0.070932262 0.12653776 0.424389
0.06757237 0.12405272 0.42723691
0.064230032 0.12128007 0.42987126
0.060777813 0.11864341 0.43274236
0.05750737 0.11618965 0.43549138
0.054132782 0.11350083 0.43822423
0.051049463 0.11112046 0.44077167
0.047550127 0.1083802 0.44363725
0.044197511 0.10592023 0.44649202
0.043136004 0.10374923 0.44899195
0.077280104 0.13331228 0.42513686
0.073788658 0.1330907 0.42490304
0.070369609 0.13041018 0.42770079
0.067085683 0.1279202 0.43044388
0.063776754 0.1251827 0.43305683
0.060361288 0.12272316 0.43599588
0.057043511 0.1201013 0.43869704
0.053817056 0.11742608 0.44124091
0.050508577 0.11493376 0.44401526
0.047099158 0.11238068 0.44688442
0.043787707 0.10970824 0.44954371
0.042881038 0.10745446 0.45219484
0.076830432 0.13721146 0.4282845
0.073156454 0.13671678 0.42814493
0.0698421 0.13419397 0.43090701
0.066494867 0.13153321 0.43362182
0.063220911 0.12905563 0.43635982
0.059926882 0.12642162 0.43902123
0.056612767 0.12382749 0.44173586
0.053352922 0.12151891 0.4445667
0.050019003 0.11885592 0.44726229
0.046693649 0.11611085 0.44989213
0.043335799 0.11367153 0.45276755
0.042217832 0.11147191 0.45503995
0.076224662 0.14103878 0.4311741
0.072690442 0.14048015 0.43125546
0.069500402 0.13801001 0.4338862
0.066068798 0.13547012 0.43679368
0.062727109 0.13291214 0.43956906
0.059437126 0.13025808 0.44221181
0.056204259 0.12775075 0.44487524
0.052905664 0.12509038 0.44752532
0.049650252 0.12288518 0.45041856
0.046210866 0.12003196 0.45312935
0.042929154 0.11746525 0.45581877
0.04186609 0.11526984 0.4581911
0.075878337 0.14475296 0.43427223
0.072363608 0.14459625 0.43441314
0.069053963 0.14210823 0.4371919
0.065717198 0.13937177 0.4398427
0.062312644 0.13666089 0.44260103
0.059064597 0.13421169 0.44532314
0.055729397 0.131569 0.44803384
0.052468315 0.12909226 0.45075518
0.049107812 0.1264616 0.45350766
0.045895286 0.12400833 0.45617962
0.042495739 0.1212264 0.45888427
0.041503426 0.11908628 0.46145043
0.075552091 0.14862928 0.4375484
0.071893215 0.14843711 0.43758073
0.068524338 0.14586876 0.44038558
0.065144949 0.14327079 0.44318491
0.061913632 0.1407344 0.44582704
0.058630142 0.13807763 0.4484593
0.055234481 0.13527827 0.45114726
0.052028671 0.13288404 0.45384926
0.048675939 0.13032283 0.45663726
0.045422915 0.12795329 0.45941868
0.042106349 0.12521338 0.46204019
0.041120723 0.12301229 0.46466446
0.07509549 0.15257058 0.44072753
0.071428649 0.15255558 0.44092405
0.068101905 0.14962837 0.44343537
0.064801775 0.14714317 0.44620332
0.061504927 0.14455658 0.44889984
0.05821633 0.14197575 0.45158914
0.054905139 0.13945848 0.45435065
0.051525943 0.13674203 0.45707139
0.048281074 0.13417014 0.45970818
0.044918921 0.13161772 0.46251458
0.041697755 0.12902413 0.46510532
0.0406271 0.12705748 0.46793926
0.074514143 0.15650284 0.44374633
0.071004897 0.15623829 0.44392478
0.067803711 0.15372418 0.44654137
0.064377435 0.15100874 0.44932568
0.061146181 0.14849664 0.45198381
0.057790257 0.14586438 0.45472908
0.054453176 0.14321783 0.45743975
0.051152613 0.14057997 0.46010733
0.047998857 0.13810918 0.46268916
0.044474158 0.13555534 0.46571189
0.041282643 0.13301134 0.46829575
0.040236961 0.13076386 0.47099108
0.07421504 0.16024865 0.44693187
0.07059183 0.16006581 0.44700694
0.067376018 0.15755488 0.44964516
0.064152308 0.15503196 0.45228603
0.060736965 0.15238073 0.45509821
0.057206426 0.14959554 0.4579758
0.054008499 0.14702731 0.46055225
0.050636258 0.14440194 0.46332389
0.047349721 0.14196581 0.46610609
0.044044305 0.1394368 0.46885213
0.040758315 0.13675055 0.47146827
0.039863467 0.13467218 0.47430509
0.073521465 0.16434804 0.44997245
0.070077658 0.16398442 0.45028448
0.066851556 0.16136159 0.45286247
0.063535273 0.15875924 0.45557454
0.06031293 0.15626723 0.45823401
0.056965072 0.15362699 0.46096325
0.05366236 0.15111664 0.463718
0.050197762 0.14841227 0.4665609
0.047029786 0.1460586 0.46923915
0.043692499 0.14332227 0.47189075
0.0403319 0.14061144 0.47459033
0.03935967 0.13849962 0.47719324
0.073332377 0.16802394 0.45322561
0.069796123 0.16792801 0.45326754
0.066545673 0.16538981 0.45593405
0.063263938 0.16270043 0.45854244
0.059997562 0.16011378 0.46119818
0.056502912 0.15753001 0.46416095
0.053126276 0.15486377 0.46691149
0.049758524 0.15223756 0.46967655
0.046480965 0.14968368 0.47236893
0.043232206 0.14719057 0.47506297
0.040120214 0.14461637 0.47752061
0.03880126 0.1424709 0.48032412
0.072889343 0.17193571 0.45639327
0.06938374 0.17180884 0.45638406
0.066028915 0.16907656 0.45906177
0.062744275 0.16662207 0.4618293
0.059446454 0.1639066 0.46444193
0.056035772 0.161441 0.46737057
0.052727383 0.15875384 0.47001603
0.049388763 0.1561584 0.47276253
0.046057351 0.15349559 0.47545487
0.042644754 0.15092374 0.47831586
0.039510712 0.14838159 0.48082414
0.038648386 0.14617185 0.48376715
0.07246206 0.17577419 0.45951065
0.068710037 0.17540069 0.4596588
0.065532193 0.1728559 0.46222389
0.062180758 0.17025283 0.46498248
0.058913626 0.16760617 0.46759957
0.055707939 0.16524598 0.47032392
0.052297063 0.16254888 0.4730998
0.048949417 0.15983745 0.47578171
0.045759253 0.15752475 0.47851667
0.042445067 0.15496355 0.48125318
0.03907302 0.15239725 0.4840636
0.038009506 0.15005139 0.48657477
0.072058402 0.17963958 0.46268228
0.068338029 0.17939743 0.46279794
0.065166786 0.1767742 0.46530235
0.061857857 0.17420557 0.46802691
0.058483701 0.17175747 0.4709183
0.055166826 0.16896114 0.47350293
0.051939163 0.16640288 0.47612572
0.048513636 0.16401067 0.47912276
0.045283534 0.16123173 0.48160291
0.041980579 0.15875331 0.48437908
0.038719524 0.15621606 0.48706037
0.037722856 0.15391007 0.48983684
0.071385942 0.18382376 0.46582893
0.067909144 0.18322983 0.46590447
0.064665236 0.18050599 0.46843952
0.061357349 0.17797917 0.4711903
0.058126166 0.17562366 0.47395182
0.054763846 0.17294884 0.47667754
0.051508255 0.17037384 0.47932655
0.048161477 0.16775626 0.48206934
0.044838637 0.16513997 0.48478097
0.041493304 0.1624864 0.48749802
0.038288631 0.16006717 0.49018198
0.037097324 0.15793873 0.49289954
0.07120724 0.1875549 0.46914709
0.067487068 0.18700925 0.46896687
0.06426356 0.18448681 0.4716078
0.060984429 0.18198577 0.47433719
0.057628177 0.17947289 0.47716182
0.05435773 0.17688411 0.47982162
0.050971195 0.17420472 0.48257667
0.047630027 0.17157927 0.48530674
0.04433655 0.16905946 0.48804292
0.040949389 0.16649157 0.4908725
0.037836846 0.16395691 0.49335703
0.036799945 0.16160813 0.4960624
0.070729606 0.19135556 0.47216734
0.067102522 0.19097018 0.47209913
0.063851744 0.18838684 0.47473621
0.060548928 0.18605623 0.47760993
0.057141013 0.18319938 0.48027626
0.053961419 0.18081927 0.48295254
0.05046336 0.17801315 0.48577288
0.047170252 0.17555895 0.48855191
0.044039749 0.17298904 0.49103713
0.040660664 0.17062925 0.49399352
0.037423223 0.16794266 0.49654454
0.036205761 0.16550329 0.499075
0.070111305 0.19535878 0.4752084
0.066813648 0.19489735 0.47533831
0.063565232 0.19227347 0.4779833
0.060179383 0.1898396 0.48060474
0.05685759 0.18712042 0.48324698
0.053275518 0.18436277 0.48621163
0.050192423 0.18201807 0.48878238
0.046816908 0.17923555 0.49145451
0.04351877 0.1767365 0.49421063
0.040317506 0.17439795 0.49705753
0.036959369 0.17168204 0.49976873
0.036002569 0.16939124 0.50247359
0.068226025 0.19580582 0.4782148
0.065193206 0.19322377 0.48097879
0.061767872 0.19075577 0.48354793
0.058087274 0.18813448 0.48627067
0.054946158 0.18553397 0.48904237
0.051633328 0.18297145 0.49174359
0.048333056 0.18030018 0.49458066
0.045084879 0.17771511 0.4973186
0.041795753 0.17517951 0.49998987
0.038465358 0.17266193 0.50263304
0.036010735 0.17131993 0.50394803
