# .PCD v0.7 - Point Cloud Data file format
VERSION 0.7
FIELDS x y z
SIZE 4 4 4
TYPE F F F
COUNT 1 1 1
WIDTH 1294
HEIGHT 1
VIEWPOINT 0 0 0 1 0 0 0
POINTS 1294
DATA ascii
0.3825984 -0.14556885 0.74233723
0.38300368 -0.14296302 0.74253619
0.38407624 -0.13828373 0.74394184
0.38510168 -0.13361068 0.74534935
0.38605142 -0.12894006 0.74690354
0.38705373 -0.12426641 0.74835306
0.38805455 -0.11964747 0.74981958
0.38923746 -0.11477159 0.75122213
0.39012748 -0.11010797 0.75281304
0.39125395 -0.10549469 0.754161
0.39224356 -0.10100611 0.75552475
0.39297232 -0.098021649 0.75664717
0.37886378 -0.14582407 0.74592501
0.37912288 -0.14325657 0.74644345
0.3802349 -0.13860616 0.7477991
0.38132116 -0.13401641 0.74914926
0.38230884 -0.12930577 0.75067282
0.3834289 -0.12456412 0.75206995
0.38462284 -0.11993713 0.75332385
0.38554007 -0.11521453 0.75493038
0.38650957 -0.11052001 0.75646472
0.38768908 -0.10589415 0.75773364
0.3886784 -0.10127414 0.75920552
0.38974532 -0.098370939 0.76014888
0.37572211 -0.1461571 0.74932981
0.37575924 -0.14359555 0.74990213
0.37670234 -0.13904245 0.75138724
0.37782684 -0.13434553 0.75275493
0.37898102 -0.12954077 0.75414985
0.38000122 -0.12494162 0.75557673
0.38102171 -0.1204017 0.7569707
0.38208273 -0.11558601 0.75847262
0.38318694 -0.11092371 0.75984323
0.38415822 -0.10632032 0.76132548
0.38537157 -0.10151172 0.76265842
0.3860147 -0.09867835 0.76391298
0.37214583 -0.14643592 0.75287795
0.37237218 -0.14399764 0.75335133
0.37319547 -0.139401 0.75499028
0.37427941 -0.13480239 0.75634778
0.37563607 -0.12984139 0.75760931
0.37644207 -0.1252148 0.75928348
0.3775509 -0.12068351 0.76057696
0.37866369 -0.11586519 0.76202422
0.37972879 -0.11125357 0.76340932
0.38059214 -0.10672052 0.76496983
0.38183698 -0.10183117 0.76631302
0.38270971 -0.098892435 0.7674579
0.36849803 -0.14680584 0.75677651
0.36888522 -0.14427316 0.75697857
0.36980727 -0.13946317 0.75862795
0.37088937 -0.13482195 0.76001096
0.37198392 -0.13030276 0.76131326
0.37295732 -0.12563825 0.7628268
0.37408903 -0.12106462 0.76411885
0.37523317 -0.1162736 0.76551706
0.37610796 -0.11178798 0.76703906
0.37725985 -0.1068983 0.76848322
0.37836322 -0.10199035 0.76999003
0.37896743 -0.099265791 0.77109462
0.36539772 -0.14706664 0.75991476
0.36537927 -0.14447431 0.76066732
0.36642566 -0.1398817 0.76206225
0.36737192 -0.13527787 0.76357186
0.36836851 -0.1305016 0.76512188
0.36946005 -0.12602088 0.76640624
0.37069654 -0.12131573 0.7676571
0.37161785 -0.1165237 0.76929742
0.37274262 -0.11180732 0.77067554
0.37390232 -0.10715984 0.77197784
0.37474972 -0.10279404 0.77346355
0.37534651 -0.099750511 0.77477723
0.36174306 -0.14737993 0.76363337
0.36195627 -0.14495151 0.76411414
0.36282298 -0.14038153 0.76569134
0.36391664 -0.13571 0.76707846
0.36486894 -0.13092995 0.76867861
0.3661972 -0.12615006 0.76987118
0.36697766 -0.12161946 0.77152014
0.36816904 -0.1167008 0.77293748
0.3693369 -0.11202297 0.77424771
0.37035048 -0.10737108 0.77571076
0.37144408 -0.10284984 0.77701527
0.37197298 -0.099881679 0.77835459
0.35797611 -0.14777896 0.76771486
0.35846522 -0.14524674 0.76773494
0.35927981 -0.1404389 0.7694996
0.36037821 -0.13587821 0.77082056
0.36150891 -0.13118875 0.77217746
0.36259478 -0.12662394 0.77351427
0.36362538 -0.12181015 0.77504808
0.36470005 -0.11709806 0.77647817
0.365758 -0.11248021 0.77787447
0.36695176 -0.10766412 0.77923268
0.36799505 -0.10298049 0.78068113
0.36889562 -0.10013853 0.78180152
0.35450196 -0.14809598 0.77131248
0.35485315 -0.14559589 0.7714572
0.35597467 -0.14088011 0.77283853
0.35713854 -0.13610384 0.77420723
0.35808682 -0.13146362 0.77573472
0.35918212 -0.1267392 0.7771492
0.36025342 -0.12214327 0.77851897
0.36131042 -0.11726565 0.78005934
0.3623012 -0.11272779 0.78148437
0.36339462 -0.10817263 0.78280771
0.3644512 -0.10347575 0.78424901
0.36520943 -0.10054013 0.78536457
0.35094282 -0.14833932 0.77473205
0.35146511 -0.14593406 0.7749427
0.35245639 -0.14119679 0.77647704
0.35352027 -0.13661526 0.77784687
0.35457239 -0.13183571 0.77933854
0.35578835 -0.12723729 0.78055286
0.35682556 -0.12253356 0.78201896
0.35781351 -0.11777668 0.78356761
0.35881364 -0.11320105 0.78500336
0.35989255 -0.10852097 0.78641117
0.36099151 -0.10364741 0.78790385
0.36170799 -0.10081157 0.78916448
0.34780699 -0.14873926 0.77835119
0.34801942 -0.1461883 0.77853692
0.34889638 -0.14153624 0.78014821
0.34999272 -0.13696939 0.78147477
0.35108662 -0.13226736 0.78287852
0.35232502 -0.1273094 0.78426647
0.35338226 -0.12286098 0.78557026
0.35415149 -0.1181538 0.7873286
0.35535347 -0.11347647 0.78860158
0.35630065 -0.10882941 0.79013395
0.35748303 -0.10414907 0.79142988
0.35811323 -0.10119167 0.79284918
0.34438461 -0.14909202 0.78202742
0.34449077 -0.14673011 0.78206265
0.34544241 -0.14187275 0.78370607
0.34649211 -0.13738787 0.78503811
0.34753722 -0.132614 0.78653419
0.34882385 -0.1277346 0.78782666
0.34973335 -0.12306807 0.78941065
0.35068691 -0.11840328 0.79094595
0.35192868 -0.11380102 0.7921344
0.35292968 -0.10915488 0.79360801
0.35403836 -0.10444681 0.794999
0.35504904 -0.10148852 0.79603606
0.34061688 -0.14933375 0.78559554
0.34110954 -0.14693829 0.7856124
0.34209204 -0.14214998 0.78718436
0.34324205 -0.13737364 0.78856808
0.3441982 -0.1327014 0.79010469
0.34532994 -0.12803316 0.79144877
0.34643346 -0.12350561 0.79274589
0.34732768 -0.11880876 0.79436314
0.34835529 -0.11391096 0.79594648
0.34957856 -0.1094039 0.79710257
0.3505615 -0.10458512 0.7986908
0.35140163 -0.10187078 0.79964143
0.33741617 -0.14964049 0.78895795
0.33757147 -0.14693144 0.78945047
0.33868754 -0.14225729 0.79081476
0.33955908 -0.13788983 0.79227519
0.34065545 -0.13326173 0.79363549
0.34174418 -0.12848651 0.79508513
0.34281164 -0.1236816 0.79657412
0.34399295 -0.11897953 0.79788309
0.34489134 -0.11431916 0.79947567
0.34609395 -0.10961525 0.80076259
0.34693918 -0.105088 0.80233955
0.34804073 -0.10216774 0.8031562
0.33396244 -0.14997043 0.79258275
0.33409685 -0.14769416 0.79279608
0.33513653 -0.14286458 0.79432869
0.33612692 -0.13818607 0.79583162
0.33720177 -0.13339527 0.79730487
0.33830214 -0.12891386 0.79858005
0.3393811 -0.12413171 0.80004406
0.34035835 -0.11949287 0.80153936
0.34153059 -0.11479985 0.80285311
0.34245098 -0.11016777 0.80440634
0.34354216 -0.10533781 0.80588341
0.34429491 -0.10245523 0.80704755
0.33021855 -0.15022799 0.79618502
0.3307434 -0.14759597 0.79648435
0.33159524 -0.14307703 0.79804951
0.33271182 -0.13831379 0.79946238
0.33359069 -0.13373424 0.80103165
0.33494797 -0.12918496 0.80206579
0.33604079 -0.12453979 0.80343932
0.33687878 -0.119886 0.80509377
0.33798945 -0.11493646 0.80661559
0.33904269 -0.11046319 0.80793732
0.33990213 -0.10575797 0.8095969
0.34098929 -0.1027549 0.81034851
0.32684511 -0.15051216 0.79960114
0.32719979 -0.14789121 0.80016208
0.3283115 -0.14343397 0.80141169
0.32916397 -0.13875858 0.80306238
0.33031699 -0.13404019 0.80441099
0.33151847 -0.12912989 0.80581278
0.33254308 -0.12451423 0.80724394
0.33347845 -0.1198779 0.80878329
0.33453971 -0.11530079 0.81015354
0.33556569 -0.11035898 0.81176287
0.33657789 -0.10614979 0.81298375
0.3375892 -0.10308279 0.81395131
0.32386774 -0.15086995 0.80296564
0.32372332 -0.14823189 0.80374205
0.32474661 -0.14360708 0.80517972
0.32583326 -0.13877472 0.8066631
0.32674223 -0.13424605 0.80817169
0.32778865 -0.12964603 0.80957067
0.32901794 -0.12473661 0.81094182
0.32994318 -0.12027166 0.81239778
0.33099303 -0.11579362 0.81372583
0.33229384 -0.11106461 0.81492013
0.33319673 -0.1062369 0.81660002
0.33410287 -0.10343122 0.81755745
0.31987548 -0.15120959 0.80701923
0.32020542 -0.14867947 0.80730808
0.32116193 -0.14402977 0.80883187
0.322449 -0.13935742 0.81000984
0.32331884 -0.13467963 0.811643
0.32451865 -0.129934 0.81295592
0.32543883 -0.12532483 0.81449676
0.32651505 -0.12072004 0.81586599
0.32765296 -0.11596501 0.81725121
0.32874659 -0.11121455 0.81868184
0.32974327 -0.10666256 0.82010829
0.33087885 -0.10357822 0.82102025
0.31661797 -0.15155856 0.81056154
0.31682754 -0.1490428 0.81076872
0.31773442 -0.14448993 0.81229293
0.31890538 -0.13980481 0.81360382
0.31999609 -0.13490255 0.81512117
0.32090083 -0.13043495 0.8166008
0.32186627 -0.12562214 0.8182047
0.32310432 -0.1208688 0.81948042
0.32417557 -0.11637923 0.82079166
0.32516563 -0.11159564 0.82235277
0.32615641 -0.1070835 0.82376367
0.32720608 -0.10404541 0.82466125
0.31312004 -0.15187493 0.81417459
0.31318253 -0.14934936 0.8145501
0.31437993 -0.14456567 0.81588662
0.31530479 -0.13981497 0.81750029
0.31655467 -0.13536084 0.81859845
0.31751996 -0.13038175 0.82029402
0.31846669 -0.12586609 0.82175457
0.31974882 -0.12112767 0.82297432
0.32065862 -0.11659256 0.8244856
0.32171395 -0.11184034 0.82595873
0.32271585 -0.10734206 0.8273499
0.32381833 -0.10433795 0.8283357
0.30963957 -0.15219028 0.81777143
0.30987915 -0.14949951 0.8180474
0.31077749 -0.14512217 0.81948423
0.3119626 -0.14027344 0.82086986
0.313045 -0.13555756 0.82229364
0.31395289 -0.13087998 0.82388544
0.31507382 -0.12628448 0.82520115
0.31609544 -0.12166049 0.82664019
0.31716219 -0.11679743 0.82816201
0.31805927 -0.11228916 0.82967228
0.31932181 -0.10756411 0.83090585
0.32016543 -0.10461791 0.83199555
0.30587417 -0.15249403 0.82154047
0.30629998 -0.14997578 0.82166404
0.30730298 -0.14536422 0.82311642
0.30831015 -0.14085612 0.8245073
0.30942398 -0.13593313 0.82601106
0.31034562 -0.13133451 0.82754445
0.31147528 -0.12671064 0.82886636
0.31267315 -0.12196645 0.83018059
0.31357759 -0.1173398 0.83174807
0.31473568 -0.11258659 0.83311039
0.31593433 -0.10780939 0.83444196
0.31668052 -0.10497649 0.835554
0.30300388 -0.15278588 0.82461059
0.30279353 -0.15028763 0.82529235
0.30395558 -0.14563628 0.82659429
0.30478287 -0.14107059 0.82821184
0.306104 -0.13617815 0.82947409
0.30698109 -0.13149646 0.83110154
0.30819196 -0.12684084 0.83235294
0.30913967 -0.12230831 0.83382165
0.31022263 -0.11757771 0.83525294
0.31128389 -0.11298291 0.83663297
0.31241256 -0.10809879 0.83809924
0.31338233 -0.10515149 0.83901322
0.29864323 -0.15312064 0.82891989
0.29954693 -0.15035966 0.82877117
0.30053949 -0.14581175 0.83019978
0.30141059 -0.14133307 0.8317219
0.30261695 -0.13648315 0.83308518
0.30364719 -0.13185014 0.83451986
0.30458364 -0.12730978 0.83600515
0.30576843 -0.12259156 0.83731925
0.30662441 -0.11800227 0.83891869
0.30774006 -0.11308593 0.84041679
0.30877993 -0.10874599 0.84167963
0.30961329 -0.10567173 0.84292293
0.29557142 -0.15341246 0.83213854
0.29602617 -0.15075111 0.83237112
0.29692769 -0.14632249 0.83383274
0.29815 -0.14149314 0.83516741
0.29918903 -0.13670197 0.83667964
0.30017668 -0.13198622 0.83820599
0.30112535 -0.12743786 0.83968246
0.30230471 -0.12278615 0.84096581
0.30321053 -0.118177 0.8425222
0.30440393 -0.11347523 0.84381789
0.30545378 -0.10865119 0.8453365
0.30648875 -0.1058241 0.84613127
0.29204121 -0.15365815 0.83554447
0.29247788 -0.15109771 0.83602571
0.29344893 -0.14655365 0.83747554
0.29459178 -0.14179134 0.83885932
0.29553553 -0.13714465 0.84039527
0.29675937 -0.1324209 0.8416701
0.29762781 -0.12778932 0.84327936
0.29882959 -0.1229955 0.84461665
0.29989862 -0.11846451 0.84595311
0.30078369 -0.11386921 0.84752429
0.30205572 -0.10910511 0.84876913
0.30256397 -0.1062009 0.85030651
0.28869584 -0.1540481 0.83928543
0.28883332 -0.15166163 0.83966488
0.29011732 -0.14676206 0.84097135
0.29102927 -0.142189 0.84250116
0.29204541 -0.13748476 0.84399033
0.29323694 -0.13286148 0.84524488
0.29429367 -0.12814182 0.84669852
0.29529729 -0.1235012 0.84816623
0.29628268 -0.11867316 0.8497569
0.29732433 -0.11406015 0.85116822
0.29832518 -0.10957318 0.85255432
0.29947567 -0.10648303 0.85333031
0.28547147 -0.15433112 0.84258777
0.28545505 -0.15175834 0.84327281
0.28656667 -0.14691384 0.84473568
0.28757948 -0.14245254 0.84609473
0.28866234 -0.13789666 0.84742987
0.28968155 -0.1331718 0.84892708
0.29089522 -0.12857693 0.85014194
0.29189774 -0.12380904 0.85168093
0.29284263 -0.1191414 0.85322714
0.29390672 -0.1143826 0.85469443
0.29501596 -0.10985723 0.85598421
0.29604438 -0.10686937 0.85688472
0.28202617 -0.15455309 0.84585357
0.28211284 -0.15186292 0.84683722
0.28317839 -0.14756192 0.84805083
0.28420788 -0.14296128 0.84946847
0.28521562 -0.13833679 0.85092282
0.28627571 -0.13352956 0.8524211
0.28738114 -0.12878358 0.85383648
0.28834802 -0.12419899 0.85531318
0.28939748 -0.11959195 0.8567127
0.29045731 -0.11479681 0.85820454
0.29156846 -0.1099948 0.85964459
0.29221579 -0.10714421 0.86102813
0.2787441 -0.15494755 0.84956264
0.27842945 -0.15246324 0.85051513
0.27978376 -0.14780712 0.85159469
0.2806555 -0.14302485 0.85328329
0.2818144 -0.13833204 0.85461146
0.28290808 -0.13358663 0.85603929
0.28380141 -0.12906526 0.85756087
0.28501934 -0.12447777 0.85876703
0.28605103 -0.11973569 0.86026019
0.28711396 -0.1150589 0.86168355
0.28805479 -0.1104899 0.86322176
0.28901708 -0.10748096 0.86407661
0.27702984 -0.15328625 0.85226208
0.27835554 -0.14792757 0.85401464
0.27928287 -0.1435025 0.85529995
0.28033456 -0.13872716 0.8567363
0.28153396 -0.13411134 0.85830152
0.28240988 -0.12968266 0.85953742
0.28346109 -0.12479681 0.86098301
0.28455144 -0.12040064 0.86242348
0.28576067 -0.11535081 0.86403632
0.28654087 -0.11123711 0.865152
0.28698522 -0.10791096 0.86587369
0.38464695 -0.14663593 0.74431312
0.38672861 -0.14408317 0.74310392
0.38794029 -0.1395234 0.74467611
0.38889319 -0.13479644 0.74601263
0.39000762 -0.13011652 0.74750131
0.39083293 -0.125301 0.7487222
0.39198524 -0.12061116 0.75024837
0.39327848 -0.1159161 0.75191134
0.39413571 -0.11152914 0.75312549
0.39535886 -0.10681173 0.7547226
0.39633399 -0.10198467 0.75608945
0.39534405 -0.098926611 0.75875556
0.3811295 -0.14688437 0.74771857
0.39171487 -0.099278055 0.7626431
0.37757662 -0.14721872 0.75143093
0.38836375 -0.099533446 0.76594859
0.37411886 -0.14753239 0.75500554
0.3850264 -0.099904872 0.7696231
0.37053216 -0.14781405 0.75857061
0.38143522 -0.10014524 0.77305663
0.36742729 -0.14822684 0.76220894
0.37788516 -0.10052399 0.77691197
0.36362556 -0.14853889 0.76603186
0.3743332 -0.10077472 0.78035033
0.36035508 -0.14879748 0.76928842
0.37123045 -0.10114364 0.7838437
0.35664287 -0.14902927 0.7727831
0.3676621 -0.10149555 0.78762478
0.35315567 -0.14938726 0.77652425
0.36436027 -0.10181864 0.79111511
0.34992033 -0.14983033 0.7803576
0.36079621 -0.10212676 0.79474998
0.34653217 -0.15008211 0.78367871
0.35708976 -0.10244194 0.79851288
0.34295589 -0.15040526 0.7873717
0.3537744 -0.10271327 0.80184412
0.33955094 -0.15073346 0.79095483
0.35025626 -0.1029743 0.8052913
0.33595517 -0.1510044 0.79449165
0.34672505 -0.10326282 0.80883789
0.33237243 -0.15127997 0.79803395
0.34335285 -0.10358576 0.81237972
0.32900465 -0.15164517 0.80171055
0.33980113 -0.10393089 0.81612641
0.32549927 -0.15196043 0.80532551
0.33637661 -0.10426338 0.81973797
0.3222146 -0.15232988 0.80895472
0.33275366 -0.10455926 0.82337624
0.31869438 -0.15258859 0.81239581
0.32929087 -0.10489698 0.82703316
0.31507012 -0.15287168 0.81599331
0.32603395 -0.10527958 0.8306849
0.31183994 -0.15328592 0.81972867
0.32244021 -0.10551092 0.83409077
0.3081795 -0.15352663 0.82321435
0.31881991 -0.10578308 0.83764958
0.30490893 -0.15388758 0.82680541
0.31551906 -0.10618065 0.84138268
0.30151615 -0.15416469 0.83021259
0.31201661 -0.10648321 0.84495395
0.29783562 -0.15449423 0.83400333
0.30837667 -0.10673631 0.84846503
0.29422387 -0.15473725 0.8374607
0.30514368 -0.10716578 0.85225219
0.2906746 -0.15501559 0.84098738
0.30164003 -0.10741331 0.85564452
0.28749132 -0.15540116 0.84459448
0.29817939 -0.10772782 0.85922402
0.28398246 -0.15565862 0.84802312
0.29475573 -0.10810928 0.86299503
0.2805436 -0.1560736 0.85191482
0.27883905 -0.14993721 0.85430604
0.28476307 -0.13389863 0.86144376
0.28560841 -0.12894723 0.86269593
0.28597805 -0.120131 0.86382711
0.28614491 -0.11660036 0.86429834
0.28954822 -0.11256695 0.86794436
0.29090422 -0.10830618 0.86647844
0.27911988 -0.15380846 0.85423803
0.28051093 -0.14921834 0.85598636
0.28152466 -0.14429331 0.85739911
0.28240201 -0.13969843 0.85865098
0.28345203 -0.13546655 0.86003804
0.28446019 -0.13071781 0.86142987
0.28571969 -0.12605534 0.86305743
0.28662568 -0.12112182 0.86436665
0.28786421 -0.11660226 0.86596125
0.28869677 -0.1114954 0.8672148
0.28941467 -0.10891541 0.86813563
0.38793638 -0.14831537 0.74737471
0.39005265 -0.14561372 0.74618506
0.39132494 -0.14118844 0.74780405
0.39237204 -0.13649954 0.74922836
0.39330912 -0.13176182 0.75055057
0.39453328 -0.12705469 0.75214773
0.39557591 -0.12220795 0.75358158
0.39655119 -0.11776788 0.75491458
0.3976908 -0.11296769 0.7564382
0.39889333 -0.10857576 0.75798678
0.39977005 -0.10374825 0.75925845
0.39876208 -0.10067218 0.76189095
0.38459769 -0.14869405 0.75107396
0.39513469 -0.10090197 0.76542705
0.38091344 -0.14888692 0.75442088
0.39185295 -0.10128833 0.76910943
0.37752956 -0.14934422 0.75841027
0.38824889 -0.10157527 0.77270448
0.3740378 -0.1496276 0.76191097
0.38469869 -0.10186331 0.77626359
0.37081102 -0.15000631 0.76552778
0.3815847 -0.1022523 0.77983081
0.36726859 -0.15027486 0.76901746
0.37791342 -0.10249771 0.7833398
0.36369845 -0.1505845 0.77266175
0.37455547 -0.10287374 0.78704464
0.36014271 -0.15081672 0.77604246
0.37126985 -0.1032477 0.79068917
0.35685501 -0.15112464 0.77947295
0.36764887 -0.10351013 0.79421675
0.35367137 -0.15158232 0.7833159
0.36435163 -0.10386943 0.79782206
0.34990311 -0.15183169 0.7869094
0.36067787 -0.10413947 0.80141336
0.34638324 -0.15214922 0.79054236
0.35717067 -0.10448091 0.80511516
0.3430171 -0.15241912 0.79390645
0.3537319 -0.10474374 0.80850965
0.33942723 -0.1527714 0.79770464
0.35033518 -0.10512224 0.81225109
0.33595461 -0.15305552 0.80119365
0.34676051 -0.10540891 0.81582367
0.33233824 -0.15332748 0.80474895
0.34327966 -0.10571433 0.81938839
0.32906228 -0.15367097 0.80828691
0.33973467 -0.10596921 0.82283521
0.32579634 -0.15407482 0.81201476
0.33636802 -0.10638483 0.82667571
0.32209986 -0.15433437 0.81558853
0.33278275 -0.10663029 0.83012152
0.31873193 -0.15459348 0.8189187
0.32908556 -0.1069123 0.8337692
0.31529799 -0.15501757 0.82283652
0.32588491 -0.10729325 0.83737409
0.3116717 -0.15525171 0.82627553
0.32243729 -0.10761106 0.84095478
0.30838025 -0.15564966 0.8300029
0.31913251 -0.10797962 0.84459591
0.30481327 -0.15592903 0.83354598
0.31538624 -0.10822178 0.84814966
0.30143839 -0.15624326 0.83706129
0.31186467 -0.10850907 0.85168511
0.29790899 -0.15657432 0.84074557
0.30847335 -0.10879544 0.85512149
0.29426268 -0.1568426 0.84431094
0.3050687 -0.10919359 0.85893303
0.2906855 -0.1571587 0.84798151
0.30166206 -0.10950975 0.86247802
0.2874828 -0.15753908 0.85158604
0.29803079 -0.10981803 0.86616302
0.2837671 -0.15776886 0.85507679
0.28777927 -0.13380057 0.86437005
0.2895667 -0.12662794 0.86672843
0.29046747 -0.12330725 0.86789113
0.28979537 -0.1176962 0.86773336
0.29079759 -0.11305247 0.86911029
0.29455608 -0.11009339 0.86962491
0.2827923 -0.15527722 0.85766149
0.2838937 -0.15061179 0.85913628
0.28479356 -0.14606762 0.8604055
0.28595775 -0.14176883 0.86190885
0.28697902 -0.13692044 0.86332226
0.28793746 -0.1319526 0.86468518
0.28891349 -0.12765144 0.86600673
0.28995347 -0.12282918 0.86743587
0.29124188 -0.11823962 0.86908495
0.29244277 -0.11373395 0.87064195
0.2925835 -0.11067083 0.87104684
0.3915785 -0.15013519 0.75063497
0.39367807 -0.14735007 0.74953967
0.39471942 -0.14304481 0.75092477
0.39577985 -0.13818191 0.75237721
0.39684418 -0.13359964 0.75380886
0.39794883 -0.1290473 0.75527686
0.39914796 -0.12439337 0.75684512
0.40012911 -0.11973757 0.75820279
0.40112555 -0.1149717 0.75958484
0.40208474 -0.1103188 0.76092094
0.40317649 -0.10549342 0.76240045
0.40213349 -0.10238961 0.7650224
0.38807356 -0.15043718 0.75420618
0.3984682 -0.10261856 0.76857752
0.3843717 -0.15066171 0.75766951
0.39507779 -0.10301337 0.7723676
0.38116205 -0.15108298 0.76141274
0.39164329 -0.10328611 0.77579129
0.37770447 -0.15140031 0.76499921
0.38816035 -0.10357483 0.77930295
0.37415299 -0.15173355 0.76870686
0.3847084 -0.10390337 0.78292185
0.37055963 -0.15200269 0.77223599
0.38119859 -0.10424173 0.78661549
0.36734611 -0.15239151 0.77587599
0.37771529 -0.10452607 0.79011315
0.36365858 -0.15262365 0.77935368
0.37417042 -0.10481086 0.79365766
0.36029178 -0.15291493 0.78278804
0.37074804 -0.10511541 0.79717636
0.35691166 -0.15332977 0.78663599
0.36746806 -0.1054879 0.80081207
0.3532584 -0.15356709 0.79010528
0.36389089 -0.10581605 0.80452204
0.34988791 -0.15388681 0.79363531
0.36058515 -0.10616875 0.80811203
0.34638286 -0.15422228 0.79731601
0.35702825 -0.10648616 0.81177199
0.34296638 -0.15449104 0.80071348
0.35383627 -0.1068721 0.81538671
0.33920306 -0.15478128 0.80443686
0.35025579 -0.10711685 0.81882662
0.33584994 -0.15519474 0.80826038
0.34672588 -0.10743773 0.82247794
0.33258545 -0.1555033 0.81167573
0.34316555 -0.10775732 0.82614756
0.32889459 -0.15577701 0.81529164
0.33976346 -0.10807589 0.82969713
0.3255049 -0.15603706 0.81864089
0.33624125 -0.10839017 0.83332127
0.32211244 -0.15646249 0.82253253
0.3328867 -0.1086897 0.83677357
0.31862032 -0.1566945 0.82586563
0.32936421 -0.10899206 0.84035897
0.31528395 -0.1570408 0.8294574
0.32605231 -0.10940674 0.84415603
0.3116354 -0.15733291 0.83310223
0.32234895 -0.10965414 0.84769523
0.30821726 -0.15768947 0.83678776
0.31892592 -0.10990569 0.85104132
0.30464953 -0.1579929 0.84040999
0.31552261 -0.11029293 0.85481608
0.30124426 -0.15830202 0.84393108
0.31213379 -0.1106343 0.85843039
0.29762462 -0.158554 0.84742349
0.3085483 -0.11091569 0.86199373
0.29421732 -0.15889983 0.85106593
0.30514148 -0.11124822 0.86559242
0.2908037 -0.15927513 0.85480934
0.30163407 -0.11156684 0.86921978
0.2873916 -0.1596238 0.85846466
0.29033384 -0.13613622 0.86663616
0.29111418 -0.13415378 0.86756498
0.29517302 -0.119523 0.87277496
0.29698765 -0.11435316 0.87498397
0.29814586 -0.11184511 0.87268436
0.28616145 -0.15725894 0.86074668
0.28708667 -0.15289603 0.86202449
0.28822285 -0.14799051 0.86355406
0.28938952 -0.14343235 0.8650825
0.2904917 -0.1388863 0.86654758
0.2912091 -0.13375703 0.86769164
0.29249254 -0.12921497 0.86933166
0.29351479 -0.12465152 0.87072092
0.29454082 -0.12017171 0.87210649
0.29555461 -0.115383 0.87350738
0.29617289 -0.1125534 0.87435377
0.39501804 -0.15194772 0.75402069
0.39708543 -0.14935242 0.75265998
0.39815974 -0.14455931 0.75411975
0.3992655 -0.13987878 0.75560004
0.40039715 -0.13519268 0.75710595
0.4013772 -0.13068618 0.75844938
0.40254372 -0.12594388 0.75999391
0.4035525 -0.12130977 0.76137632
0.40460294 -0.11661831 0.76280409
0.40574518 -0.11193214 0.76432025
0.40663141 -0.1071768 0.76559478
0.4059681 -0.104257 0.76799726
0.39140806 -0.15218808 0.75746804
0.40219304 -0.10445032 0.77181566
0.38799196 -0.15243793 0.76080334
0.3987599 -0.10481915 0.77555233
0.38453984 -0.15280296 0.76454169
0.39511046 -0.10504542 0.7789827
0.38112366 -0.15313168 0.76813477
0.39166003 -0.1053998 0.78268492
0.37767127 -0.1534466 0.77170956
0.38814992 -0.10566988 0.78615576
0.37417048 -0.15379539 0.77543062
0.38452601 -0.10599595 0.78989339
0.37071949 -0.15409946 0.77896887
0.38109136 -0.10627675 0.79334354
0.36714721 -0.15440138 0.78258955
0.377931 -0.10668567 0.79701006
0.36381078 -0.15474281 0.78616536
0.37434211 -0.10693473 0.80047029
0.36044368 -0.1550471 0.78964251
0.37068397 -0.10724486 0.8041811
0.35669971 -0.1552233 0.792979
0.3673175 -0.10760628 0.8078444
0.35312659 -0.15557937 0.79677725
0.36397892 -0.10793296 0.81137365
0.34991854 -0.15597798 0.80044526
0.36056009 -0.10826463 0.81497836
0.34632188 -0.15627667 0.80407333
0.35696113 -0.10853165 0.81850469
0.34278452 -0.15655436 0.80758905
0.35357186 -0.10884836 0.82203871
0.33912593 -0.15679339 0.81106788
0.35009494 -0.10915786 0.82561386
0.33582094 -0.15721697 0.81488895
0.34670737 -0.10947964 0.82916319
0.33233279 -0.15751749 0.81844306
0.34320161 -0.10984506 0.83294225
0.32857358 -0.15773554 0.82192749
0.3397162 -0.11011636 0.83639884
0.3254219 -0.15815592 0.82562506
0.33622241 -0.11047597 0.84015012
0.32208571 -0.15847786 0.82913709
0.33267283 -0.110757 0.84368581
0.31851196 -0.15878046 0.83276105
0.32940143 -0.11105593 0.84707481
0.31497633 -0.1590943 0.83639365
0.32601294 -0.11146969 0.85092539
0.31164104 -0.15942055 0.83991909
0.32252014 -0.11176552 0.85446757
0.30809307 -0.15966035 0.84331882
0.31882492 -0.11203402 0.85806966
0.30464542 -0.16002716 0.84705961
0.31574014 -0.11244388 0.86168355
0.30123615 -0.16037692 0.85071635
0.31210756 -0.11265734 0.86505961
0.29768893 -0.16063973 0.85419083
0.30848026 -0.11290574 0.86854601
0.29430473 -0.1609956 0.85784906
0.30531782 -0.11330282 0.8721754
0.29081571 -0.16130108 0.86141992
0.29309896 -0.1483701 0.8682375
0.2927025 -0.14314088 0.86831278
0.29419839 -0.14084142 0.86996156
0.2973696 -0.1270881 0.87423599
0.29739743 -0.12140452 0.87476158
0.29900619 -0.11618495 0.8767758
0.30152529 -0.11365073 0.87599134
0.28967527 -0.15886813 0.86400449
0.29066905 -0.15441966 0.86535609
0.29158106 -0.14981182 0.86664265
0.29282415 -0.14529176 0.86824173
0.29373771 -0.14056732 0.86954004
0.29471499 -0.13564397 0.87091738
0.29594076 -0.13108993 0.87250268
0.29704541 -0.12640446 0.87398237
0.29804176 -0.12161113 0.87536675
0.29909936 -0.11727409 0.87677038
0.29969871 -0.11428686 0.87761223
0.39835754 -0.1536309 0.75705761
0.40055448 -0.15110725 0.75586164
0.40162835 -0.14622955 0.75732845
0.40271473 -0.14173612 0.75877362
0.40382197 -0.13713603 0.7602483
0.40477806 -0.13255188 0.7615754
0.40572742 -0.127583 0.76292974
0.40701339 -0.1229998 0.76457584
0.40803567 -0.11847733 0.76596159
0.40930873 -0.11368011 0.76761395
0.41032374 -0.10920757 0.76898825
0.40958813 -0.10599528 0.77085406
0.39487848 -0.15389277 0.76047868
0.40572798 -0.10623179 0.7750296
0.39135757 -0.15416647 0.7639693
0.4021779 -0.10658844 0.77881271
0.38795409 -0.1545506 0.76773405
0.39866176 -0.10682371 0.78217423
0.38448226 -0.15485948 0.77130342
0.39515984 -0.10720076 0.78598845
0.38105556 -0.15524331 0.77508438
0.39173138 -0.10752643 0.78958064
0.37764078 -0.15553108 0.77854264
0.38818392 -0.10778257 0.79303348
0.37414336 -0.15576096 0.78187275
0.38463944 -0.10802843 0.7964505
0.3705669 -0.15614323 0.78575903
0.38151389 -0.10847686 0.80022043
0.36712998 -0.15647291 0.78937054
0.37767577 -0.10864571 0.80360234
0.3637591 -0.15680598 0.79294449
0.37420964 -0.10897839 0.80724525
0.36006048 -0.15699145 0.79627782
0.37089902 -0.10933077 0.81083781
0.35661355 -0.15734011 0.79995883
0.36734283 -0.10965937 0.81453383
0.35318917 -0.15765969 0.80352813
0.36394545 -0.10998685 0.81810904
0.34969795 -0.15791334 0.80693132
0.36056828 -0.11032395 0.82170075
0.34624138 -0.15829755 0.81073552
0.35700268 -0.11061704 0.82528764
0.34275514 -0.15855905 0.8141607
0.35364699 -0.11101487 0.82906193
0.33919427 -0.15891264 0.81794178
0.35002166 -0.11126626 0.83255666
0.3356404 -0.15917155 0.82140833
0.34654313 -0.11155674 0.83607084
0.33228683 -0.15956713 0.82517374
0.34305432 -0.11188836 0.83972698
0.32894206 -0.15988606 0.82868218
0.33958974 -0.11222042 0.84336668
0.32553142 -0.16022168 0.83229381
0.33608872 -0.11252082 0.84692985
0.3221367 -0.1604626 0.83558422
0.3326641 -0.11281366 0.85041201
0.31850761 -0.16085167 0.83953154
0.3292976 -0.11318868 0.85411978
0.31505036 -0.16116418 0.84310198
0.3256118 -0.11344807 0.85768515
0.31158376 -0.16149928 0.84675312
0.3223896 -0.11379038 0.86117959
0.30812183 -0.16180851 0.85031629
0.31888309 -0.11415058 0.86494225
0.30450591 -0.16206959 0.8538357
0.31546444 -0.11445656 0.86846292
0.30112791 -0.16239887 0.8574025
0.31172058 -0.11465399 0.87186867
0.29773629 -0.16272023 0.86095351
0.3084687 -0.11499895 0.87539375
0.29427662 -0.16302639 0.86450493
0.29514077 -0.1589601 0.86928332
0.29463208 -0.15140946 0.86945379
0.29452467 -0.14571032 0.86984998
0.30254823 -0.12406843 0.87951034
0.30271554 -0.12034573 0.8799988
0.3049891 -0.11535782 0.87913209
0.29308105 -0.1608514 0.86712492
0.29419801 -0.15605566 0.86862624
0.29534757 -0.15152478 0.87013578
0.29639235 -0.14686099 0.87155563
0.29718679 -0.14223211 0.87273031
0.29825222 -0.13757649 0.87416941
0.29939473 -0.1328709 0.87568748
0.30043352 -0.12812151 0.87710911
0.30138105 -0.12319636 0.8784579
0.30258167 -0.11863086 0.8800199
0.30295706 -0.11598366 0.88061523
0.4017809 -0.15527172 0.75989425
0.40405431 -0.152753 0.7591027
0.40516794 -0.14811049 0.76058733
0.40600199 -0.14331162 0.76181519
0.40719527 -0.13867804 0.76337606
0.40830484 -0.13403028 0.76485723
0.40920994 -0.12943195 0.76613623
0.41038114 -0.12473971 0.76768088
0.41133943 -0.1199515 0.76902801
0.41247931 -0.11565465 0.77050763
0.41357043 -0.11089642 0.77198064
0.41293624 -0.10772291 0.77402592
0.39841798 -0.1556991 0.76377052
0.40901953 -0.10800235 0.77838737
0.39488417 -0.15593685 0.76715308
0.40540919 -0.10825205 0.78186548
0.391388 -0.15630791 0.77094358
0.40207955 -0.10860349 0.785469
0.3878184 -0.15656754 0.77442414
0.39879408 -0.10895324 0.78903449
0.38441244 -0.15689974 0.77802104
0.39511037 -0.10918493 0.79250783
0.38095906 -0.157253 0.78172177
0.39155066 -0.1095438 0.7963053
0.37730476 -0.15751556 0.78527433
0.38789183 -0.10977034 0.79974353
0.37389386 -0.15780099 0.7887221
0.38495734 -0.11022683 0.80339891
0.37063035 -0.15815955 0.79230016
0.38149336 -0.11049948 0.80684406
0.36707857 -0.15843607 0.79582274
0.37790659 -0.11080757 0.81049562
0.36348054 -0.15878324 0.79961026
0.37412119 -0.11106437 0.81412601
0.36020729 -0.15911156 0.80309665
0.37098899 -0.11151168 0.8178972
0.35659406 -0.15938404 0.80665135
0.36739278 -0.11172907 0.82125932
0.35311398 -0.15971826 0.81030953
0.3638818 -0.1120637 0.82494164
0.34952515 -0.15999253 0.81385207
0.36056224 -0.11240529 0.82850558
0.3460384 -0.16027066 0.81733197
0.35706717 -0.11268258 0.83198887
0.34273487 -0.16073915 0.82129866
0.35357323 -0.11304785 0.83575869
0.33929485 -0.16096109 0.82456052
0.35012215 -0.11332022 0.83919346
0.33596388 -0.16135474 0.82830292
0.34658095 -0.11363254 0.84282517
0.33245632 -0.16172527 0.83210003
0.34307086 -0.11398673 0.84657079
0.32898968 -0.1619405 0.83535957
0.33967501 -0.11420296 0.84978139
0.3253763 -0.16228178 0.83913916
0.33628863 -0.11460914 0.85360563
0.32183564 -0.16260688 0.84281224
0.33280507 -0.11488876 0.85708803
0.31846935 -0.16294606 0.84640276
0.32916614 -0.11513495 0.8605758
0.3149609 -0.16320862 0.84984779
0.32570216 -0.11548942 0.86428827
0.31154394 -0.16353394 0.85343039
0.32232291 -0.11587065 0.86802578
0.30816388 -0.16387516 0.85703766
0.31878114 -0.1161769 0.871638
0.30455047 -0.16411573 0.86048824
0.31534132 -0.1164418 0.87504005
0.30101404 -0.16445731 0.86421204
0.31180292 -0.11675835 0.87868351
0.29768088 -0.16484371 0.86793244
0.29687783 -0.16340651 0.87057346
0.29720986 -0.1584215 0.87133205
0.30614686 -0.12636925 0.88278949
0.30442047 -0.1202167 0.88165939
0.30852032 -0.11713003 0.88231856
0.29636765 -0.16244134 0.87016463
0.29751387 -0.15776634 0.8716836
0.29850504 -0.15342918 0.87302297
0.29962489 -0.14873795 0.87451792
0.30075836 -0.14400113 0.87602997
0.30179083 -0.13936764 0.87743527
0.30285767 -0.13458419 0.878887
0.3037619 -0.13000508 0.88016355
0.30493289 -0.12519287 0.88171852
0.30615637 -0.12057301 0.8833074
0.30668566 -0.11787905 0.88405567
0.40519202 -0.15708055 0.76328892
0.40751114 -0.15527363 0.76477045
0.40855658 -0.15068956 0.7662015
0.40962908 -0.14592466 0.76746905
0.41055223 -0.14134395 0.76885301
0.41170827 -0.13644245 0.77020341
0.41276157 -0.13175878 0.77156621
0.41381106 -0.12723283 0.77288222
0.414803 -0.12248425 0.77390796
0.41593254 -0.11769123 0.77535874
0.41689911 -0.11301409 0.77677518
0.41688088 -0.10991044 0.77769303
0.40177202 -0.15746577 0.76706946
0.40401006 -0.15580358 0.76922989
0.4050681 -0.15128577 0.77057099
0.40615278 -0.1465977 0.77197695
0.40714446 -0.14190668 0.77348536
0.40828109 -0.13723868 0.77482402
0.40922093 -0.13260184 0.77635872
0.41034961 -0.12775573 0.77780408
0.41125891 -0.12322548 0.77931327
0.41239217 -0.11853983 0.78066522
0.41348112 -0.11370952 0.7821449
0.41302499 -0.11017337 0.7819069
0.39827657 -0.15770689 0.7704348
0.40058449 -0.15607795 0.77279121
0.40153313 -0.15152642 0.77426946
0.40259147 -0.14702047 0.77560365
0.40372592 -0.14220802 0.77702421
0.40482393 -0.13766529 0.77833575
0.40576807 -0.13284607 0.77996629
0.40688351 -0.12817459 0.78132975
0.40771702 -0.12348661 0.78300792
0.40897593 -0.11882852 0.78420854
0.41001698 -0.11406225 0.78570491
0.4095391 -0.11050047 0.7856074
0.39485517 -0.15800063 0.7739175
0.39695844 -0.15646973 0.77650511
0.39809242 -0.15215991 0.7776494
0.39908054 -0.14732274 0.77924216
0.40018454 -0.14254351 0.78067738
0.40131167 -0.1377482 0.78209645
0.40229258 -0.1331799 0.78354895
0.40357795 -0.12836863 0.78480524
0.40442213 -0.12385759 0.78637439
0.40551427 -0.11913288 0.7877925
0.40653971 -0.11449654 0.78923416
0.40619665 -0.11093214 0.7892803
0.39121324 -0.15834139 0.77771646
0.39348313 -0.15707482 0.77993822
0.39469466 -0.15239675 0.78120124
0.39564264 -0.14756477 0.78283465
0.39671582 -0.14285825 0.78426325
0.39777446 -0.13816777 0.78569877
0.39885861 -0.13345131 0.787121
0.40009364 -0.1287993 0.78834414
0.40113205 -0.12406963 0.78982323
0.40198505 -0.11939624 0.7914722
0.40298155 -0.11485919 0.79289061
0.40287641 -0.11127278 0.79281229
0.38782874 -0.15865292 0.78123003
0.39013827 -0.15735957 0.78340638
0.39120436 -0.15266709 0.78483498
0.39219576 -0.14801505 0.78632218
0.39316127 -0.14339639 0.78781909
0.39426264 -0.13852879 0.78930587
0.39547801 -0.13378206 0.79060251
0.39645952 -0.12894295 0.79220349
0.39754087 -0.12431112 0.79358214
0.39837781 -0.11971548 0.79520571
0.39961755 -0.11510767 0.79639947
0.39934435 -0.11157762 0.79652643
0.38420343 -0.15891682 0.78476554
0.38657665 -0.15762945 0.7871176
0.38782185 -0.15285638 0.78839642
0.3887611 -0.14825535 0.7899121
0.38975063 -0.1435494 0.79143107
0.39084679 -0.13861763 0.7929588
0.39197022 -0.13407063 0.79424512
0.39303195 -0.12932307 0.79570872
0.39400721 -0.12474044 0.79717523
0.39497536 -0.11998114 0.79874671
0.39604938 -0.11560656 0.79999167
0.39571404 -0.11188723 0.80009943
0.38096422 -0.159283 0.78835058
0.38309005 -0.15793942 0.79072547
0.38435677 -0.15313578 0.79199779
0.38528857 -0.1485164 0.79353166
0.38635114 -0.14390655 0.79491854
0.38745761 -0.1390574 0.79638958
0.38849747 -0.13433515 0.79786301
0.38956356 -0.12964949 0.7992878
0.390688 -0.12497178 0.80064499
0.39158651 -0.12034398 0.80221951
0.39274284 -0.11571506 0.80351532
0.3922866 -0.11213665 0.80353832
0.3771821 -0.15949388 0.79182857
0.37970585 -0.15831921 0.79418391
0.38083386 -0.15351689 0.79560584
0.3817578 -0.14890075 0.79714644
0.38283524 -0.14399216 0.79868168
0.38381878 -0.13944119 0.80012178
0.38505027 -0.13480401 0.80134064
0.38593143 -0.12983988 0.80311918
0.38715878 -0.12531808 0.80427903
0.38812798 -0.12064999 0.80579913
0.38918188 -0.1160114 0.80721128
0.38874638 -0.11244212 0.80720419
0.37378296 -0.15982188 0.79540676
0.37628537 -0.15847017 0.79780769
0.37725604 -0.15380609 0.79932398
0.37854159 -0.14904755 0.80055106
0.37929881 -0.14443421 0.80227083
0.3803874 -0.13978335 0.80365205
0.38161346 -0.13483614 0.80504757
0.38260722 -0.13019019 0.80652887
0.38356623 -0.12574038 0.80793983
0.38465789 -0.12114055 0.80928969
0.3857536 -0.11629704 0.81076932
0.38553289 -0.11286966 0.81081265
0.37056443 -0.16021135 0.79905266
0.37277058 -0.15881661 0.80142599
0.37386912 -0.15402453 0.80287421
0.3750056 -0.14938855 0.80419534
0.37590602 -0.14469801 0.80580246
0.37701204 -0.14009441 0.80713874
0.37794369 -0.13528478 0.80877751
0.37907732 -0.13052218 0.81017154
0.38017884 -0.12595469 0.81149286
0.38128072 -0.12142257 0.81279433
0.3823638 -0.11662404 0.81426287
0.38171303 -0.11304861 0.81433129
0.36713326 -0.16055188 0.80269539
0.3693707 -0.15897082 0.80502558
0.37026873 -0.15438305 0.80657864
0.37142751 -0.14970182 0.80790061
0.37237206 -0.14498445 0.80947459
0.37345609 -0.14030874 0.81087446
0.37450457 -0.13572432 0.81226259
0.3756012 -0.13113819 0.81359953
0.37661237 -0.12643394 0.81509405
0.37767884 -0.12177601 0.81650317
0.37865293 -0.11705772 0.81804568
0.37858745 -0.11339428 0.81776047
0.36364457 -0.16089183 0.80637872
0.36585847 -0.15928456 0.8086592
0.36700356 -0.15459976 0.80999792
0.36798847 -0.15005811 0.81143141
0.36904743 -0.14539507 0.81285149
0.37004074 -0.14056706 0.81443352
0.37112692 -0.13584548 0.81585634
0.37221426 -0.13144056 0.81710351
0.37317628 -0.12659331 0.81873012
0.37428939 -0.12214354 0.81997406
0.37542918 -0.11733682 0.82138568
0.37478498 -0.11370465 0.8215158
0.36003458 -0.16116267 0.80992562
0.36223844 -0.15953808 0.81244272
0.36342219 -0.15523334 0.81353027
0.36438018 -0.15051849 0.81508827
0.36559096 -0.145762 0.81639528
0.36664674 -0.14089923 0.81792879
0.36760911 -0.13630222 0.81941718
0.36873674 -0.13152421 0.82082617
0.3697015 -0.12717547 0.82217526
0.3708297 -0.1222314 0.82367504
0.37176871 -0.11753111 0.82524562
0.37148809 -0.11406545 0.825252
0.35648149 -0.16144387 0.81346446
0.35879973 -0.16022088 0.8157934
0.35990471 -0.15538955 0.81725621
0.36089346 -0.15076785 0.81872964
0.36208576 -0.14606053 0.82002962
0.36300245 -0.14128239 0.82166725
0.3640925 -0.13658962 0.82307005
0.36526015 -0.13199832 0.82433277
0.36624235 -0.12734564 0.82583034
0.36724138 -0.12255437 0.82738602
0.368377 -0.11785828 0.82874119
0.36793068 -0.11429228 0.82862037
0.35300219 -0.16176656 0.81708437
0.35546923 -0.16023651 0.81939411
0.3564755 -0.15556982 0.82087332
0.35758862 -0.15083192 0.82227594
0.35857022 -0.1462253 0.82374877
0.35967895 -0.14155929 0.82511657
0.36074647 -0.13687716 0.82653785
0.36158806 -0.13232532 0.82813227
0.3627077 -0.12760344 0.82951897
0.36390078 -0.1228741 0.83083028
0.36482024 -0.11817187 0.83242309
0.36474445 -0.11481844 0.83239466
0.3498252 -0.16215807 0.82070631
0.35207903 -0.16048852 0.82292944
0.35308355 -0.15598761 0.82431924
0.35406351 -0.15117174 0.82590908
0.35509041 -0.14646339 0.82738882
0.35621777 -0.14179797 0.82873613
0.35723919 -0.13723576 0.83014131
0.35836896 -0.13255827 0.83149266
0.35912344 -0.12803473 0.83316588
0.36036941 -0.1231401 0.8345108
0.36142474 -0.11850421 0.83591986
0.36124444 -0.11510661 0.83587956
0.34639215 -0.16242814 0.82412022
0.3484349 -0.16099094 0.82660204
0.34941298 -0.15633775 0.82810432
0.35059467 -0.15159614 0.82943463
0.35173073 -0.14677612 0.83085763
0.35269704 -0.14220789 0.83232594
0.35379887 -0.1374889 0.83373034
0.35478419 -0.13289843 0.83519024
0.35586688 -0.12815073 0.83663124
0.35684907 -0.12362565 0.83805859
0.35804781 -0.11879617 0.83941883
0.35766745 -0.11533131 0.8394115
0.34275827 -0.16269398 0.82766843
0.34497669 -0.16125461 0.83020461
0.346003 -0.15651026 0.83170485
0.34705102 -0.15174633 0.83319235
0.34809792 -0.14717963 0.83457243
0.34922987 -0.14252166 0.83591062
0.35044494 -0.13769315 0.83725262
0.35137883 -0.13318942 0.8387205
0.35240465 -0.12846667 0.84020942
0.35330087 -0.12390983 0.84174734
0.35449257 -0.11919253 0.84305346
0.35409129 -0.11565125 0.84301686
0.33924443 -0.16302109 0.83132833
0.34128246 -0.16158673 0.83402526
0.34263122 -0.15681548 0.83519089
0.34361023 -0.15217473 0.83668536
0.3446773 -0.14751568 0.83809441
0.34574234 -0.14286813 0.83949941
0.34674495 -0.13820659 0.8409797
0.34789467 -0.13341677 0.84237123
0.34896728 -0.12882543 0.84373707
0.34998226 -0.12409293 0.84524304
0.35108179 -0.11952619 0.84656614
0.35049123 -0.11597028 0.84679431
0.33592084 -0.16340467 0.83503246
0.33797616 -0.16187337 0.83745056
0.3390145 -0.15734895 0.8388167
0.3401469 -0.15250097 0.84025902
0.34117302 -0.1479397 0.84165865
0.34225863 -0.14319731 0.84309351
0.34336311 -0.13847515 0.84449685
0.34447286 -0.13380018 0.84586847
0.3454906 -0.12934414 0.84721923
0.34645003 -0.12440973 0.84889656
0.34751737 -0.1198907 0.85022825
0.34711981 -0.11625049 0.8502233
0.33238587 -0.16365421 0.83845443
0.33454943 -0.1622052 0.84098154
0.33557993 -0.15766333 0.84236574
0.33661795 -0.15310903 0.84374863
0.33769912 -0.14828877 0.84523124
0.33885491 -0.14329611 0.84672785
0.33994079 -0.1387638 0.84804678
0.3410148 -0.13400269 0.84950453
0.34195647 -0.12938961 0.85102421
0.34297118 -0.12473263 0.85248893
0.34412754 -0.12006508 0.85380596
0.34347469 -0.11649564 0.85383582
0.32904786 -0.16409393 0.84235257
0.33100927 -0.16243173 0.84469336
0.33213213 -0.15785243 0.84599805
0.33320597 -0.15316579 0.84741503
0.33421794 -0.14862001 0.84882146
0.33531323 -0.14388587 0.8502413
0.33631289 -0.13923635 0.85171819
0.3374224 -0.1343433 0.85321015
0.33833474 -0.12989543 0.85467064
0.33951613 -0.12515321 0.85600168
0.34066749 -0.1203877 0.85737801
0.34023833 -0.1169242 0.85738361
0.32542759 -0.16429129 0.845667
0.32752892 -0.16295227 0.84817851
0.32857069 -0.15836143 0.84957743
0.32973123 -0.15369846 0.85088742
0.330809 -0.14907719 0.85226411
0.3318046 -0.14417344 0.85388535
0.33291212 -0.13939789 0.85531479
0.33398843 -0.13464217 0.85676712
0.33503419 -0.13001426 0.85818213
0.33603793 -0.12543547 0.85961568
0.33715892 -0.1210084 0.86083859
0.33680692 -0.11726718 0.86112434
0.32192534 -0.16461134 0.84929526
0.32405668 -0.1632967 0.8517518
0.32522845 -0.15853363 0.85310471
0.32618654 -0.15391883 0.85460752
0.32736382 -0.14923017 0.85591352
0.32828739 -0.14445662 0.85754114
0.32943669 -0.13976109 0.85888124
0.33049679 -0.13504829 0.86032748
0.33161718 -0.13032956 0.86171168
0.3326312 -0.12553021 0.8632555
0.33371702 -0.12108288 0.8645277
0.33302167 -0.11736782 0.8644765
0.31847793 -0.164922 0.8528524
0.32074106 -0.16325332 0.85536897
0.32181382 -0.15875107 0.85668552
0.32287601 -0.1540207 0.85813916
0.32400498 -0.14938526 0.85946822
0.32490975 -0.14488919 0.86096346
0.32603177 -0.14006436 0.86240423
0.32718819 -0.13531478 0.86376637
0.32805765 -0.13084844 0.86528349
0.32909688 -0.1261735 0.86673152
0.33012033 -0.12142565 0.86823678
0.32990152 -0.11783651 0.86813527
0.31496775 -0.16522272 0.85642338
0.31718352 -0.1636734 0.85899305
0.31832588 -0.15916204 0.86023921
0.31937337 -0.15449196 0.86167562
0.32029468 -0.14976758 0.86327863
0.32153463 -0.14503744 0.8645395
0.32260159 -0.14047043 0.86589801
0.32345703 -0.13569467 0.86760074
0.3247124 -0.13107598 0.86878353
0.32568458 -0.12643322 0.87028652
0.32672185 -0.12182944 0.87169743
0.32626107 -0.11811407 0.87163991
0.31150931 -0.16565539 0.86038733
0.31374705 -0.16398668 0.86254472
0.31495035 -0.15936302 0.86378676
0.31596231 -0.15470345 0.86525577
0.31685418 -0.15017679 0.86678189
0.31797406 -0.14541709 0.86818916
0.3190456 -0.14081177 0.86956382
0.32012182 -0.13608396 0.87100083
0.32120532 -0.13138613 0.87241352
0.32231292 -0.12665218 0.87381995
0.32326865 -0.12214436 0.87526643
0.32289493 -0.11851647 0.87544894
0.30781546 -0.16584972 0.86374605
0.31035843 -0.16429672 0.86604637
0.31139612 -0.15974277 0.86742944
0.31239602 -0.15512456 0.86888885
0.31337914 -0.1504081 0.87042052
0.31445733 -0.14578131 0.87179983
0.31557268 -0.14099057 0.87322909
0.3166576 -0.13626799 0.87465382
0.31766862 -0.13162784 0.87611324
0.31868812 -0.12686092 0.87763327
0.31977504 -0.12244189 0.87888873
0.31940487 -0.11873129 0.87881494
0.30448106 -0.16618213 0.86729097
0.30682722 -0.16469334 0.86965483
0.30790761 -0.16009215 0.87101763
0.3087531 -0.15548214 0.87263989
0.31001318 -0.15062575 0.87394845
0.31094414 -0.14615765 0.87539995
0.31212923 -0.14120066 0.87684518
0.31308407 -0.13657543 0.87835723
0.31419495 -0.13212636 0.87960327
0.3150388 -0.12741534 0.88128287
0.31621242 -0.12280792 0.88254809
0.31610781 -0.11908999 0.88250303
0.30113587 -0.16658469 0.87107301
0.30317736 -0.16503046 0.87319928
0.30426669 -0.16039813 0.87453634
0.30537942 -0.1558582 0.87608898
0.30655149 -0.15113898 0.87741739
0.30766571 -0.14608848 0.87899095
0.30859998 -0.14174786 0.88036859
0.30980763 -0.13694805 0.8817029
0.31079918 -0.13230671 0.88318408
0.31160653 -0.12774511 0.88472086
0.31275025 -0.12296942 0.88609511
0.31231031 -0.11932566 0.88600039
0.29995954 -0.16421831 0.87348324
0.30082107 -0.15961064 0.87472087
0.30200741 -0.15506901 0.87626702
0.3032968 -0.15023427 0.87793851
0.30422422 -0.14557108 0.8792448
0.30528802 -0.14091913 0.88068205
0.30629137 -0.13610974 0.88207471
0.30729991 -0.13144138 0.88345993
0.30836022 -0.12683545 0.88488972
0.30945763 -0.12224546 0.88635397
0.31051093 -0.11962143 0.88760304
