# .PCD v0.7 - Point Cloud Data file format
VERSION 0.7
FIELDS x y z
SIZE 4 4 4
TYPE F F F
COUNT 1 1 1
WIDTH 495
HEIGHT 1
VIEWPOINT 0 0 0 1 0 0 0
POINTS 495
DATA ascii
0.012532437 -0.031917654 0.54321432
0.015782055 -0.031471305 0.54299998
0.01305827 -0.029645687 0.54400003
0.015880292 -0.029207293 0.54339999
0.0087800473 -0.031536113 0.546
0.010040194 -0.031752408 0.54533333
0.0082822451 -0.02767106 0.54674995
0.011950866 -0.027444212 0.54609084
0.0080571715 -0.02376678 0.54877782
0.011773667 -0.023452507 0.54828566
0.029043004 0.0089770062 0.54900002
0.02828408 0.012105196 0.54888225
0.032261554 0.012198921 0.54889995
0.029213592 0.015459535 0.54900002
0.031601828 0.015886016 0.54900002
0.039278302 0.018700799 0.54900002
0.039278302 0.020236135 0.54900002
0.0034799278 -0.020857012 0.55299997
0.00743856 -0.02114254 0.55037504
0.011737445 -0.021036843 0.55000001
0.0027187092 -0.017682206 0.55235291
0.0070729172 -0.017726706 0.55184001
0.012192179 -0.017689817 0.55067992
0.017189618 -0.016336542 0.55227274
-0.0001285273 -0.011062374 0.55299997
0.0024464233 -0.012600243 0.55259991
0.007059644 -0.012561228 0.55088001
0.012180964 -0.012543918 0.55016011
0.017367773 -0.012584959 0.55195999
0.021741873 -0.012271455 0.55333334
-0.00051599194 -0.0078488775 0.55362499
0.0024464235 -0.0074474975 0.55259997
0.0070695519 -0.0074333684 0.55155998
0.012217787 -0.0074363961 0.55183989
0.017384421 -0.0074462336 0.55251998
0.021216841 -0.0081558879 0.55399996
-0.00012875974 -0.0043686642 0.55400002
0.0028726368 -0.0032382635 0.55345446
0.0071792607 -0.0023852165 0.55337483
0.012252177 -0.0022992934 0.55339986
0.016983733 -0.002735192 0.55363154
0.020528274 -0.0043686642 0.55400002
0.0086504789 0.00079573109 0.55400002
0.012265461 0.00079573115 0.55400002
0.027708128 0.0049183532 0.55299997
0.032986209 0.0046194335 0.55257142
0.037467886 0.0044807731 0.5535714
0.041963853 0.0044652252 0.55366665
0.027480209 0.0073079574 0.55188888
0.032721184 0.0074625178 0.55059993
0.037558381 0.0075663002 0.55158824
0.042231206 0.0074103866 0.55273676
0.046142992 0.0077160215 0.55399996
0.02465968 0.014223159 0.55400002
0.025946481 0.012216112 0.55000001
0.03412034 0.011454369 0.55000001
0.037842974 0.01207883 0.55044001
0.042620182 0.012125602 0.55250001
0.045729853 0.010917947 0.55400002
0.024630005 0.016269935 0.55333334
0.027390467 0.01747462 0.55136371
0.033174425 0.017804036 0.55011773
0.037522234 0.01690506 0.55004776
0.041773077 0.016783411 0.55181819
0.028035527 0.02161379 0.55312502
0.032600068 0.021606104 0.55164707
0.036823101 0.021320341 0.55055565
0.024388961 -0.010943261 0.55566669
0.026386596 -0.011157627 0.55775005
-0.0016830468 -0.0059340065 0.55550003
0.02343815 -0.0071007097 0.5556249
0.027274815 -0.007523464 0.55816674
-0.0011657513 -0.0023096867 0.55576926
0.0019406213 -0.0011573957 0.55511117
0.0050445874 -0.00023757607 0.55500001
0.018840799 -0.00092740514 0.55500001
0.022781638 -0.0022251697 0.55641663
0.026853096 -0.0031560608 0.55880004
0.0342618 -0.00076038891 0.55900002
0.037562679 -0.0020847428 0.55809093
0.042266186 -0.002083824 0.55772728
0.046351086 -0.00093311095 0.55816674
-0.00038906815 0.0015788942 0.55699998
0.002463788 0.0028758005 0.55650002
0.0069847819 0.0030502148 0.55547827
0.012295722 0.0033870463 0.55534995
0.017425233 0.0027919447 0.55658334
0.022617424 0.0021866786 0.55738896
0.033925109 0.002099674 0.55775005
0.037097614 0.002076773 0.55558825
0.042438339 0.001961523 0.55518746
0.047518376 0.0029589639 0.55658323
0.051412102 0.004446636 0.55850005
0.0033320251 0.0066847163 0.55699998
0.0070177238 0.0074547175 0.55599988
0.012341123 0.0070355791 0.55733329
0.016284309 0.0062744692 0.55900002
0.048727449 0.0073183896 0.55519998
0.051343292 0.0075598103 0.55774999
0.04792181 0.012500202 0.55545002
0.051356681 0.012243545 0.55790001
0.018594475 0.019267453 0.55800003
0.02261156 0.017956333 0.55588889
0.044145085 0.016592639 0.55550003
0.047799688 0.016833948 0.55757898
0.051411636 0.015901061 0.55850005
0.018592533 0.022645593 0.55793339
0.022660926 0.022554532 0.55568004
0.027233496 0.024021411 0.55500001
0.032809466 0.024251355 0.55500001
0.035396252 0.02390644 0.55500001
0.018579699 0.027827065 0.55753338
0.022658112 0.027730443 0.55559999
0.027364891 0.026739663 0.55499995
0.018598955 0.032018363 0.55811113
0.021957099 0.031337008 0.55657136
0.02863192 -0.010699443 0.56099999
0.031591024 -0.011165453 0.56339997
0.029102903 -0.0075481748 0.56
0.032121908 -0.0074295173 0.56117392
0.037567921 -0.0065252068 0.56166661
0.042355727 -0.0061019547 0.56129992
-0.016370999 -0.00024057252 0.56199998
-0.013251238 -0.00024100058 0.56300002
0.028168464 -0.0014926378 0.56009996
0.032055791 -0.0024640486 0.56004357
0.035715144 -0.0040679565 0.56
0.044442099 -0.0040705851 0.56033331
0.04771103 -0.0027733278 0.56191665
0.050162166 -0.00024057252 0.56199998
-0.016709922 0.0024648185 0.56166661
-0.013050857 0.0024094095 0.56273687
0.019706562 0.0049806111 0.56
0.020750601 0.0049806111 0.56
0.027559347 0.0023724742 0.5604375
0.03155664 0.0022265019 0.56121427
0.049983658 0.00080434908 0.56
0.052822027 0.0028202028 0.56199992
0.05549958 0.003956391 0.56300002
-0.013268657 0.0055397251 0.56375003
0.018244911 0.0066511161 0.56
0.053686149 0.0075975521 0.56049997
0.056341115 0.0075816023 0.56281817
-0.028521454 0.014479895 0.56400001
-0.0065151611 0.012527066 0.56400007
-0.0036679313 0.012472442 0.56400007
0.053686142 0.012300042 0.56049997
0.056779224 0.012412776 0.56282353
-0.027469959 0.015531418 0.56400001
0.0072293822 0.01973751 0.56400001
0.04433997 0.019118773 0.56125003
0.047093444 0.019402714 0.56040001
0.0525693 0.01755937 0.56158334
0.055849459 0.015854387 0.56300002
0.0081484057 0.022757869 0.56393754
0.012355853 0.023238521 0.56271428
0.016006755 0.022979364 0.56044441
0.044031713 0.020789033 0.56400001
0.047102533 0.020752175 0.56300002
0.007851827 0.027702594 0.56346673
0.01243343 0.027508039 0.56164998
0.01605243 0.02742802 0.56
0.0079855314 0.031741682 0.56306666
0.012414602 0.032169763 0.5607599
0.016656892 0.032612886 0.56007689
0.01325385 0.035518438 0.56079996
0.016081095 0.035844438 0.56099999
0.034133509 -0.011312428 0.56550002
0.036933187 -0.011133839 0.56533331
0.034629546 -0.0091956509 0.565
0.037789624 -0.0091956509 0.565
0.042735904 -0.0087784594 0.56581819
0.047435287 -0.0075409175 0.56640917
0.052387293 -0.0068493141 0.56693751
0.057051424 -0.0058910381 0.56800002
0.049376577 -0.0039287135 0.565
0.052683864 -0.0024397115 0.56562501
0.057117276 -0.0017533395 0.56714278
0.054292258 0.00116266 0.565
0.057388533 0.0020435925 0.56608331
-0.025984533 0.0092549827 0.56599998
-0.023915334 0.0092713349 0.56700003
-0.016574908 0.0093040373 0.56900001
-0.012059798 0.0076661427 0.56549996
-0.0082070725 0.0078341141 0.565
0.057905763 0.0060873623 0.56599998
-0.026550448 0.012553314 0.56521428
-0.022389429 0.012512513 0.56629163
-0.017490184 0.012550227 0.56699997
-0.012778929 0.012404639 0.5652799
-0.0087497123 0.01220727 0.565
-0.025501898 0.018256821 0.56699997
-0.022272868 0.017683558 0.56551999
-0.017517947 0.017672729 0.56519997
-0.012796567 0.017701142 0.56608003
-0.007513782 0.01768731 0.56563997
-0.0030471231 0.017877836 0.56576473
0.0040821219 0.019772505 0.565
0.0051354812 0.019772505 0.565
0.043285042 0.019877493 0.56800002
0.053877313 0.019379146 0.56580001
0.057346758 0.018316597 0.56642854
-0.026122261 0.022564601 0.56900001
-0.022254098 0.022435522 0.56784213
-0.017558239 0.022466391 0.56650001
-0.012825975 0.022501986 0.56739998
-0.0075365244 0.022502083 0.56740004
-0.002250606 0.022531871 0.56814992
0.0025046463 0.022446215 0.56600004
0.0055869208 0.022631699 0.565
0.012508999 0.020825893 0.565
0.043103173 0.0223292 0.56840003
0.047354266 0.022974499 0.56599998
0.052632011 0.022411263 0.56721056
0.057328369 0.022530254 0.56812495
-0.031762369 0.0260916 0.56787503
-0.027666038 0.026233584 0.56806672
-0.021513192 0.025555557 0.5686667
-0.017620228 0.025724977 0.56850004
-0.012075821 0.026754523 0.56860006
-0.0080781421 0.027305242 0.56830001
-0.00058688177 0.026732204 0.56900001
0.0025068372 0.027223464 0.56659997
0.0054364405 0.026694765 0.565
0.052908599 0.025216714 0.56900001
0.055560641 0.025216714 0.56900001
-0.0014961535 0.032339536 0.56900001
0.0025108424 0.031494215 0.56741661
0.0051354812 0.031359766 0.565
0.059481841 0.0034815834 0.57099998
0.060973167 0.0036636989 0.57166666
-0.01819806 0.0093203885 0.56999999
0.05939123 0.0070406827 0.57183337
0.062078454 0.0075390716 0.57241184
-0.020323422 0.010383098 0.56999999
-0.01926074 0.010383098 0.56999999
0.059533931 0.010942709 0.5715
0.062064178 0.011128051 0.57188892
-0.032316539 0.019492036 0.56999999
-0.027769256 0.018808411 0.57015389
-0.035200957 0.022604257 0.56999999
-0.032544259 0.022604257 0.57000005
-0.028160699 0.022604255 0.57000005
-0.024574148 0.024198322 0.56999999
0.038723201 0.024240775 0.57099998
0.041332532 0.023603188 0.57028568
-0.034138277 0.025261031 0.56999999
-0.022436464 0.027746867 0.57153332
-0.017031308 0.028363695 0.57093751
-0.013427918 0.028474733 0.57049996
-0.0054497058 0.027406042 0.5704
-0.0029090825 0.027636675 0.57027781
0.039324228 0.025349667 0.57200003
0.042970754 0.025778444 0.57262498
0.047545534 0.026346875 0.57223076
0.050950762 0.026634194 0.5728333
0.057783648 0.025261031 0.56999999
-0.021001114 0.031859305 0.57399994
-0.018577803 0.031029858 0.57349998
-0.0059772255 0.030574579 0.56999999
-0.0025639609 0.031204829 0.57042855
-0.00013457019 0.019182956 0.579
0.00094489026 0.019182956 0.579
-0.00013433778 0.020227449 0.57800001
0.0020238068 0.020250781 0.57866669
0.043318581 0.028364994 0.57788891
0.047139153 0.029301107 0.57629997
0.052909967 0.028603105 0.5759334
0.056077123 0.027968621 0.5776
-0.022645704 0.031378791 0.57499999
0.043583579 0.03267657 0.579
0.047254331 0.032603484 0.57770002
0.052655321 0.032612648 0.57785004
0.055997372 0.031057335 0.579
0.03978255 0.038590908 0.57866669
0.042522825 0.037588332 0.57810527
0.047201212 0.037407067 0.5770399
0.052458152 0.037592523 0.57773912
0.039736718 0.041779947 0.57800001
0.042402945 0.042292573 0.57762504
0.047230534 0.04227566 0.57740003
0.052682839 0.042330533 0.57814997
0.055997372 0.042391971 0.579
0.043043848 0.045090694 0.579
0.047361691 0.045090694 0.579
0.051139802 0.045090694 0.579
0.00366242 0.009516608 0.58200002
0.0096467603 0.0095329592 0.583
0.010733679 0.0095329592 0.583
-0.00049687451 0.014210072 0.58166665
0.0028006639 0.013089488 0.58194107
0.007467079 0.01278306 0.58247995
0.011229763 0.013606004 0.58457142
-0.00067655212 0.017072046 0.58066666
0.0026778227 0.017493265 0.58026665
0.0074708634 0.017674301 0.58265001
0.012083804 0.017650491 0.58442861
0.015133087 0.018291065 0.58499998
0.0096798539 0.020472417 0.58499998
0.011861146 0.020472417 0.58499998
0.03844237 0.027697729 0.58292854
0.041225865 0.028137254 0.57999998
0.058430031 0.028020564 0.58037496
0.06079435 0.02791496 0.58099997
0.034219399 0.034105863 0.58499998
0.037935264 0.032726608 0.58347368
0.041196797 0.032000553 0.58107692
0.058002837 0.032432072 0.58105552
0.060593005 0.031926248 0.58166665
0.033219635 0.036741655 0.58499998
0.037628904 0.03746713 0.58195239
0.040955536 0.035436388 0.57999998
0.057534657 0.037492294 0.58063644
0.060981832 0.038101137 0.58149999
0.034219395 0.042285923 0.58499998
0.03738071 0.042579245 0.58238888
0.057976883 0.042485707 0.58028567
0.061065141 0.041996792 0.58099991
0.033714578 0.047841866 0.5843572
0.03782272 0.047474235 0.58175999
0.042482115 0.04771293 0.57999998
0.047456227 0.047884658 0.58015001
0.052500263 0.047636811 0.58077782
0.056552071 0.047233492 0.58099997
0.02893124 0.053888869 0.58466667
0.032504059 0.052520514 0.58360004
0.037954602 0.05257884 0.58149999
0.042606883 0.052775521 0.58040005
0.047389153 0.052546121 0.58113641
0.05257038 0.052457623 0.58287501
0.05592012 0.052180812 0.5838334
0.028716439 0.05745719 0.58400005
0.032441955 0.057307463 0.58248001
0.037372001 0.05734504 0.58229995
0.042303666 0.057900265 0.58210528
0.047637746 0.057411972 0.58300006
0.05178652 0.056925882 0.58463639
0.028822599 0.062184345 0.58457142
0.03248271 0.062272262 0.58320004
0.037395205 0.062303968 0.58350003
0.042326771 0.062356658 0.58399993
0.04639829 0.062281642 0.58499998
0.029311491 0.065735452 0.58499998
0.032549761 0.066213429 0.5844
0.037127789 0.065553673 0.58499998
0.041818157 0.065134399 0.58449996
0.013018213 0.0096147163 0.588
0.01523656 0.0096310684 0.58899999
0.012990714 0.011980172 0.58672726
0.015765512 0.012359942 0.58824998
-0.001776944 0.015057551 0.58650005
0.014074448 0.016145812 0.58633333
0.01555886 0.015443746 0.58733332
0.033301041 0.028411632 0.58718175
0.035916664 0.028155193 0.58600003
0.032419715 0.032307189 0.58771425
0.035916664 0.031432815 0.58600003
0.032721747 0.038632959 0.58749998
0.032750528 0.042133007 0.588
0.031391822 0.047456857 0.58824998
0.028897298 0.05178982 0.58766663
0.031052336 0.050091326 0.58700001
0.027192034 0.058780354 0.58633333
0.053246006 0.05835975 0.58700001
0.056105349 0.057635967 0.58766669
0.026429564 0.063135333 0.58709091
0.048618335 0.062881783 0.58671427
0.052647356 0.062074594 0.58906251
0.056327909 0.060980637 0.58999997
0.023695519 0.068680622 0.58999997
0.027052455 0.067799784 0.58747828
0.032656025 0.069161117 0.58630002
0.037700955 0.067763239 0.58733332
0.01938731 0.073722273 0.58999997
0.022490477 0.072379559 0.58978951
0.027285466 0.072694398 0.58835
0.031945251 0.072441921 0.58869225
0.035582133 0.070636898 0.58949995
0.019662302 0.075647272 0.58999997
0.022412224 0.075647272 0.58999997
0.027362078 0.075647272 0.58999997
0.030661985 0.075647272 0.58999997
0.032145545 0.041964117 0.59200001
0.029059643 0.048356112 0.59257138
0.031187035 0.045442667 0.59299999
0.028558532 0.050517999 0.59200001
0.023001129 0.06381242 0.59100002
0.05275061 0.064316124 0.59100002
0.056056108 0.062553145 0.59100002
0.02240013 0.067361273 0.59100002
0.048284061 0.06680385 0.5917778
0.05196359 0.066330962 0.59100002
0.019695628 0.071368046 0.59100002
0.020797463 0.071368046 0.59100002
0.033652175 0.074306339 0.59100002
0.037446108 0.072763048 0.59288889
0.041113548 0.073114634 0.59399998
0.019695628 0.076877356 0.59100002
0.022450214 0.077979207 0.59100002
0.027423916 0.078023821 0.59133339
0.032514021 0.077626437 0.59166676
0.037627529 0.077391855 0.59347826
0.042269833 0.077593327 0.59399992
0.023789437 0.080732368 0.59233332
0.027937623 0.0816902 0.59286666
0.032461416 0.082058504 0.59339994
0.035497282 0.081864253 0.59359998
0.028822303 0.039290387 0.59750003
0.031361509 0.039398711 0.59633332
0.028846733 0.042668473 0.59799999
0.031555366 0.043116882 0.59649998
0.028387215 0.046640877 0.59712505
0.027593965 0.084053591 0.59500003
0.033140413 0.084053591 0.59500003
0.038256157 0.082528785 0.59520018
0.04260515 0.08245977 0.59550011
0.04541881 0.083084919 0.59600002
0.029459482 0.085581012 0.59533334
0.032890577 0.086847268 0.59621435
0.037701853 0.087113068 0.59694993
0.042761832 0.087220535 0.59768754
0.046128664 0.087266535 0.59799999
0.033892799 0.090127245 0.59850001
0.037256964 0.090164892 0.59875
0.040063687 0.09020254 0.59899998
0.026707234 0.038895618 0.60000002
0.02459236 0.044149153 0.60299999
0.026182044 0.042307317 0.60080004
0.024605954 0.046986323 0.60333329
0.026223492 0.04742521 0.60175002
0.027448315 0.052105062 0.60399997
0.03459508 0.092745982 0.60100001
0.037406486 0.092771858 0.60116667
0.042418387 0.092143387 0.60072225
0.04628294 0.090912454 0.60000002
0.037788682 0.095852189 0.60342854
0.042070497 0.095420368 0.60374999
0.021325316 0.044933714 0.60600001
0.023433357 0.048780482 0.60699999
0.023648225 0.052422155 0.60766667
0.026509183 0.052557874 0.60642856
0.024127442 0.056652296 0.60900003
0.026994303 0.056737453 0.60900009
0.038335443 0.098197401 0.60699999
0.042278375 0.097592518 0.60674995
0.045125414 0.097631559 0.60699999
0.020897452 0.049210805 0.61000001
0.017949931 0.053512271 0.6107778
0.02089745 0.052622665 0.61000007
0.01754728 0.057378635 0.6121875
0.021581063 0.057512119 0.61058336
0.027720984 0.058877733 0.61000001
0.017943759 0.061438836 0.61399996
0.02263484 0.061649475 0.61281252
0.026345462 0.062193662 0.61239994
0.038524911 0.099820018 0.61000001
0.042505302 0.099820018 0.61000001
0.046713151 0.0993651 0.61000001
0.038067576 0.10337104 0.61293751
0.042582877 0.10285326 0.61112499
0.04710231 0.10276993 0.61062503
0.050142858 0.10488244 0.61299998
0.032783013 0.10675005 0.61133331
0.03711072 0.10674448 0.61166662
0.042644665 0.10642287 0.61199999
0.04726715 0.1059821 0.61274993
0.050756115 0.10611181 0.6135
0.018775586 0.063946769 0.61500001
0.021068741 0.063946769 0.61500001
0.019348873 0.065093376 0.61500001
0.022215318 0.065093376 0.61500001
0.027251881 0.09026932 0.639
0.02729453 0.089217365 0.63999999
-0.031428296 0.013048544 0.79799998
-0.028452791 0.013048544 0.79800004
-0.018241957 -0.018400325 0.80699998
0.48386592 -0.10226891 0.93400002
0.48560727 -0.10226891 0.93400002
0.4934431 -0.10139824 0.93400002
0.47823188 -0.12168172 0.96600002
0.48063317 -0.12198189 0.96600002
0.47735 -0.1275319 0.97399998
0.46738911 -0.13074192 0.97899997
0.44645071 -0.14041719 0.98799998
0.44737172 -0.13857517 0.98799998
0.46267495 -0.13662934 0.98724997
0.46267498 -0.13478871 0.98724997
0.46621358 -0.13448152 0.98500001
0.45889178 -0.13714832 0.991
0.40454733 -0.16159201 1.029
0.40838417 -0.16159201 1.029
0.41260472 -0.16235939 1.029
0.41701704 -0.16159201 1.029
0.43524203 -0.16159201 1.029
0.40380272 -0.16013904 1.0319999
