# .PCD v0.7 - Point Cloud Data file format
VERSION 0.7
FIELDS x y z
SIZE 4 4 4
TYPE F F F
COUNT 1 1 1
WIDTH 1190
HEIGHT 1
VIEWPOINT 0 0 0 1 0 0 0
POINTS 1190
DATA ascii
0.011290774 -0.018399928 0.56355637
0.012651123 -0.013720207 0.5966174
0.011304252 -0.024396161 0.55523103
0.011444904 -0.024795139 0.5563733
0.011324041 -0.020373305 0.56345713
0.012825169 -0.01565446 0.59783965
0.013479702 -0.017221717 0.60528338
0.013389766 -0.017117223 0.60650134
0.011643767 -0.028628098 0.56036997
0.012005143 -0.028559515 0.56361932
0.011835456 -0.027689451 0.56887788
0.013029553 -0.024043595 0.59479141
0.01350221 -0.023370156 0.60106838
0.013486721 -0.021470876 0.60349822
0.01345066 -0.018224465 0.60628444
0.011791162 -0.030222895 0.56077307
0.012131944 -0.029514959 0.56452823
0.012088433 -0.029525777 0.56871474
0.013147481 -0.025675433 0.59524834
0.013664253 -0.024810666 0.59966022
0.01357957 -0.024320206 0.60298127
0.014430575 0.0015338631 0.56162804
0.014169492 0.0021340991 0.56474876
0.015404634 0.005566007 0.590074
0.015759356 0.0058213882 0.59272778
0.012806162 -0.001800742 0.56086946
0.01277943 -0.00038144784 0.56545997
0.014305867 -0.0012382893 0.56861335
0.015435539 0.0014488548 0.58710426
0.01416754 0.0031208405 0.5897671
0.014370024 0.0031514112 0.59458637
0.014546454 -0.0086523239 0.55864584
0.012873642 -0.0067562927 0.56028438
0.0129335 -0.0063500814 0.56651491
0.014673665 -0.0047968831 0.56879538
0.015845902 -0.0012034783 0.58753657
0.014102593 -0.0024246871 0.59052634
0.014448769 -0.001519205 0.5965873
0.016584881 -0.0033925194 0.59854245
0.014057375 -0.011479691 0.55853289
0.012156621 -0.011725435 0.56190634
0.014457859 -0.010627236 0.56743664
0.015452683 -0.0069915298 0.59101349
0.013740644 -0.0062984899 0.59663606
0.015821353 -0.0061656618 0.59948927
0.01360172 -0.01740641 0.55817306
0.011584811 -0.016446406 0.56229591
0.014409006 -0.015800813 0.56886822
0.015397459 -0.012573948 0.59124446
0.0131047 -0.011263574 0.59741575
0.015632592 -0.01103727 0.60115063
0.013652109 -0.02364696 0.55477142
0.013636999 -0.023157408 0.55795491
0.012248755 -0.022707108 0.56330043
0.014213361 -0.020258756 0.56944227
0.015128829 -0.01703321 0.59187329
0.013348363 -0.016958293 0.59908944
0.015726894 -0.016269321 0.6033985
0.015756346 -0.016393958 0.60646743
0.012961425 -0.025628192 0.55531341
0.014307491 -0.027113484 0.55876607
0.01461795 -0.026277078 0.56412876
0.014999785 -0.025954718 0.56948328
0.016023219 -0.022646995 0.59327525
0.015946351 -0.021484351 0.59824324
0.016166508 -0.020295391 0.60362047
0.01520659 -0.018420858 0.60654628
0.013831444 -0.030949375 0.5601818
0.014133498 -0.029907545 0.5650509
0.014546998 -0.030228695 0.56900424
0.015722074 -0.026562544 0.59501481
0.015674576 -0.025176542 0.59880805
0.015673935 -0.024978193 0.60339504
0.017359592 0.0018485729 0.56130254
0.017438523 0.0026127133 0.56448889
0.018560775 0.0059704464 0.58989638
0.018128566 0.0062158005 0.59266597
0.017625123 -0.0010371711 0.55996764
0.018323839 0.0019518849 0.5669331
0.017530635 -0.00038137194 0.5686962
0.018252596 0.0020141434 0.58672768
0.019382559 0.0047543012 0.58775151
0.019290872 0.0041708373 0.59450477
0.016097605 -0.0088145807 0.55868775
0.017838463 -0.0063359449 0.55919176
0.018887632 -0.0070990967 0.56830573
0.018071473 -0.004762629 0.56891847
0.018965051 -0.0015619844 0.58738053
0.019219823 -0.003757203 0.58843547
0.019580506 -0.0010097902 0.59691185
0.017556198 -0.0034243409 0.5984019
0.018010199 -0.011970263 0.55859208
0.019184709 -0.011437023 0.55988789
0.018159069 -0.010692054 0.56801587
0.019139528 -0.0074835075 0.59005743
0.020289481 -0.0055615222 0.59799254
0.019478582 -0.0065020677 0.59911358
0.017614722 -0.016935656 0.55821383
0.019632362 -0.016161149 0.56214261
0.018545732 -0.015319558 0.56725746
0.019620076 -0.011463001 0.59188581
0.021167368 -0.011170866 0.59682786
0.019500114 -0.010527501 0.60066646
0.017194092 -0.021446558 0.55837172
0.018428832 -0.021325579 0.56275928
0.018401422 -0.02076936 0.5675087
0.019520327 -0.016907239 0.59331006
0.019924209 -0.016229058 0.59782165
0.018990062 -0.014955563 0.60193688
0.017320104 -0.02589806 0.56015527
0.017906025 -0.024621496 0.56224018
0.017942891 -0.024717437 0.56791621
0.019020982 -0.021032581 0.59409761
0.019337766 -0.01972398 0.59892666
0.01915437 -0.019915251 0.60139388
0.020206347 0.0017946735 0.56192762
0.02022215 0.0022364431 0.56366432
0.022308297 -0.0015625823 0.55996114
0.023021191 0.00055474043 0.56524551
0.021823995 -0.0014195889 0.56798208
0.022309557 0.0010567904 0.58714241
0.023753569 0.0036827717 0.58903837
0.02395954 0.0033836216 0.5941112
0.022887833 -0.0062562833 0.56016552
0.023864076 -0.0067085298 0.56653506
0.023200475 -0.0041219611 0.56870413
0.023882143 -0.0016185166 0.5870567
0.025180861 -0.0033618528 0.58955437
0.024343163 -0.00089563709 0.59574062
0.021870494 -0.010283982 0.56184441
0.022600688 -0.0089633521 0.56568021
0.02366022 -0.005570285 0.59136438
0.023322143 -0.0054516383 0.59531039
0.026991934 -0.0018814215 0.56143534
0.027530909 -0.00037601544 0.5644362
0.028632417 0.0030085696 0.58967924
0.027677543 0.0025280798 0.59289432
0.027479924 -0.0049543325 0.56153339
0.027794003 -0.0050694067 0.56592238
0.026218571 -0.0038452353 0.56792438
0.026900537 -0.0010274919 0.58732229
0.028622404 -0.0017716307 0.58934039
0.028779387 -0.00036970619 0.59365124
0.029964909 -0.0075209709 0.56377316
0.03071475 -0.0036742855 0.59131801
0.031273872 -0.0035811272 0.59280139
0.03182818 -0.002272198 0.56205922
0.03242261 -0.0010130573 0.56401831
0.033449002 0.0026102988 0.5898056
0.032971472 -0.0048999563 0.56107306
0.033278778 -0.0038485508 0.56611061
0.034242511 -0.00060367584 0.58846855
0.034319416 -3.8267579e-05 0.59346896
0.033512384 -0.0087238587 0.5617578
0.033558659 -0.0083812438 0.5650453
0.035079144 -0.0050967336 0.59036434
0.034741141 -0.0042005042 0.593988
0.036965929 -0.0012961607 0.56398481
0.037512951 0.0022073975 0.5893622
0.037909761 -0.0046586413 0.56034398
0.038195573 -0.0027757632 0.56525326
0.039069511 -0.0045209182 0.56783324
0.040020786 -0.0018367004 0.58636695
0.039189115 0.00078900717 0.58893615
0.039471813 9.1452152e-05 0.59370649
0.038189039 -0.0098340455 0.5607481
0.037735976 -0.0095693544 0.56629366
0.039396927 -0.00737256 0.56829244
0.040117547 -0.0051387912 0.58681035
0.038492896 -0.0065398701 0.5895744
0.039586872 -0.0047406089 0.59498823
0.04019735 -0.012480034 0.56208974
0.040181242 -0.012033759 0.56527799
0.04126443 -0.0086201001 0.59068018
0.041089304 -0.0079552364 0.5941174
0.04274106 -0.0043468364 0.55957299
0.042816542 -0.001838916 0.56442589
0.043330535 -0.0036629587 0.5681175
0.04390721 -0.0012819385 0.58553177
0.043840364 0.0014267648 0.58875096
0.044378109 0.00052079046 0.59391648
0.043054469 -0.0097249858 0.55884755
0.043461747 -0.007618947 0.56925738
0.044012293 -0.0054197405 0.58550513
0.044641457 -0.0043818336 0.59627533
0.043884456 -0.014016816 0.56128561
0.043805398 -0.014165256 0.56580722
0.045013845 -0.012339626 0.56916481
0.045059636 -0.0097112451 0.5869444
0.044698529 -0.010789284 0.5910235
0.045311876 -0.0091990735 0.59523726
0.046241835 -0.016706688 0.56355238
0.046309084 -0.016372291 0.56465864
0.047372811 -0.012631437 0.58807141
0.047248311 -0.012657717 0.5916664
0.047410704 -0.012076311 0.59439123
0.047645301 -0.0043285079 0.55985487
0.047839977 -0.0025878297 0.56432253
0.047961198 -0.0039008642 0.56793505
0.048558958 -0.0013577845 0.58553559
0.048815653 0.00064584427 0.58867562
0.049058728 0.00026232982 0.59330487
0.047866434 -0.0092517938 0.55807763
0.048800617 -0.0074079437 0.56938672
0.04936669 -0.0052022282 0.58484632
0.049952812 -0.0036400128 0.59628165
0.048457384 -0.014143569 0.55923283
0.046573766 -0.015768858 0.56622094
0.049123876 -0.012063082 0.56979007
0.049690947 -0.0098761469 0.58570713
0.04982695 -0.0089785848 0.59670597
0.049085476 -0.01832819 0.56199133
0.049395993 -0.018457754 0.56640249
0.049932286 -0.016233033 0.5691638
0.050503701 -0.013755456 0.58752185
0.05043377 -0.015148809 0.59071499
0.050702073 -0.01354664 0.59541929
0.051123522 -0.021876818 0.56331557
0.051049724 -0.02180187 0.56566072
0.051998504 -0.017983397 0.59227717
0.052476555 -0.017309859 0.5949589
0.051176615 -0.0053685494 0.56071275
0.051445283 -0.0044709779 0.56418252
0.051270843 -0.0048722364 0.56728798
0.052475341 -0.0011855718 0.58900267
0.052227497 -0.0007920675 0.59234118
0.052718684 -0.0088486299 0.56004614
0.054112278 -0.0075151026 0.56467909
0.0526274 -0.0076708728 0.56826335
0.053143062 -0.0049361009 0.58580649
0.05501838 -0.004071502 0.58939302
0.053928643 -0.0038503818 0.5939343
0.05369173 -0.013273062 0.55953836
0.055830128 -0.010742258 0.56535995
0.053565711 -0.012051309 0.56916344
0.054440051 -0.0095562767 0.58605254
0.056869976 -0.007543711 0.58989698
0.055247962 -0.0081629679 0.59549558
0.053737499 -0.018800439 0.56027204
0.053021938 -0.018742928 0.56828624
0.054857209 -0.017073158 0.5689922
0.055479653 -0.014763521 0.58757228
0.053471155 -0.015572472 0.58875299
0.055303544 -0.013404958 0.59659821
0.05455257 -0.023088578 0.56241024
0.054450631 -0.023427801 0.56688178
0.055689402 -0.020717008 0.5691455
0.056229785 -0.018055486 0.58833098
0.055153951 -0.019964011 0.59117073
0.055946544 -0.018194411 0.59573323
0.056667618 -0.025284993 0.56544536
0.057235979 -0.021485528 0.59315389
0.057306364 -0.021182325 0.59434509
0.058380514 -0.014284629 0.56148505
0.058281228 -0.013216954 0.56503069
0.058823943 -0.013318066 0.5684042
0.059795961 -0.010545289 0.58673418
0.059323624 -0.0097300764 0.59008068
0.059704222 -0.0098739173 0.59368801
0.058880717 -0.018540753 0.56030256
0.058376141 -0.01512943 0.5644576
0.05903662 -0.016921682 0.56929266
0.059738472 -0.014336396 0.58672905
0.059605308 -0.011408918 0.59093529
0.060365804 -0.013053564 0.59585422
0.059114091 -0.02282851 0.56225175
0.059507944 -0.023539929 0.56702644
0.059469 -0.020476041 0.56941473
0.060110509 -0.018192878 0.58775598
0.060930319 -0.020238178 0.59111929
0.060547113 -0.017907524 0.59545738
0.057927474 -0.025204388 0.56544256
0.059096895 -0.021443905 0.59220397
0.058751918 -0.020890942 0.59463954
0.0636805 0.0062312917 0.56415534
0.063447289 0.007471533 0.56713307
0.063743606 0.0086128041 0.57197094
0.063693464 0.0093140192 0.57672596
0.063970476 0.00884776 0.5817765
0.065344661 0.008894207 0.58447528
0.064445972 0.0029229578 0.56250542
0.064223006 0.0078149084 0.5833118
0.064685218 0.0063946233 0.58719659
0.065701939 0.0048050089 0.59039241
0.064936481 -0.00018319022 0.5608902
0.065827854 0.0038230752 0.58957374
0.066175863 0.0031784852 0.59125245
0.065023176 -0.0091483053 0.56146353
0.063850798 -0.0079566445 0.56384611
0.064503483 -0.007612044 0.5684787
0.065032989 -0.0055525228 0.58491373
0.065277733 -0.0042866543 0.58931476
0.066347532 -0.0049984371 0.59171021
0.063663803 -0.012710895 0.56095952
0.061801128 -0.010312393 0.56437999
0.064010836 -0.011187537 0.5703876
0.064615726 -0.0095033739 0.58361238
0.063119881 -0.0067754183 0.58975351
0.065094493 -0.0082881004 0.59333861
0.063900717 -0.017923847 0.56037825
0.064055137 -0.016398396 0.57040578
0.065017104 -0.014026353 0.58488166
0.065560713 -0.012745829 0.59530056
0.063691549 -0.020854374 0.56233627
0.064306416 -0.021189319 0.56598711
0.064856619 -0.019873261 0.56927747
0.065441668 -0.017579002 0.58721763
0.065284595 -0.017885713 0.59093732
0.065207683 -0.01629764 0.59455234
0.067564853 0.0067577306 0.56269127
0.067106374 0.0086507555 0.56661874
0.067387201 0.0099933427 0.5716359
0.067376062 0.010072563 0.57638878
0.067922577 0.010480648 0.58161616
0.068826333 0.0098473178 0.5846135
0.067306437 0.00082393736 0.56004959
0.066985324 0.0035734591 0.56206679
0.068243779 0.0048835273 0.56617498
0.068918414 0.0066184239 0.57221389
0.068989933 0.0071946774 0.57684296
0.06845659 0.0058993604 0.58220983
0.067963339 0.0072127283 0.58712608
0.069126353 0.0052608727 0.59040964
0.067015447 -0.0021173153 0.55974948
0.068061367 -0.0020185392 0.56339669
0.069239169 -0.0020254217 0.56782061
0.070657991 -0.0020690979 0.5707655
0.070023119 0.00050637685 0.58339822
0.068778522 0.0014593527 0.58745718
0.068923056 0.0024667117 0.59194309
0.068455137 -0.0075764768 0.55989677
0.066790015 -0.0053135753 0.56298655
0.067062534 -0.0052690227 0.56908745
0.069124311 -0.0061574504 0.57198477
0.069446318 -0.0047709113 0.58052474
0.067808181 -0.0033005625 0.58314306
0.068173461 -0.0015969463 0.58942646
0.069491021 -0.0030638631 0.59300739
0.069060296 -0.011732019 0.55962908
0.068813339 -0.012038186 0.57148826
0.068783596 -0.0094616748 0.57207662
0.069395915 -0.00820015 0.58135587
0.069448493 -0.01050405 0.58250833
0.070568353 -0.00706523 0.59405756
0.068711177 -0.017329572 0.56117457
0.070132419 -0.018199334 0.56486213
0.069128871 -0.01602762 0.56991023
0.069894589 -0.01370926 0.58492279
0.071402594 -0.014593631 0.59065086
0.070096031 -0.012730194 0.5941174
0.068118155 -0.0197684 0.56656444
0.067639612 -0.01920424 0.5688476
0.069290444 -0.016567506 0.58739805
0.069208652 -0.016574373 0.58977276
0.068667568 -0.015409935 0.59341133
0.072097637 0.0072696772 0.56230474
0.072158858 0.01016588 0.56613398
0.072426476 0.011654249 0.57107061
0.072285414 0.011868078 0.57583392
0.072501846 0.011896523 0.58096224
0.073172554 0.010456532 0.58542109
0.072811998 0.0025781589 0.55896467
0.072118483 0.0048022922 0.56022555
0.07247512 0.0033365921 0.56763649
0.073456541 0.0051868604 0.57156265
0.072985046 0.0059468411 0.57692659
0.073785901 0.0044700187 0.58078086
0.073274046 0.0083286501 0.58810741
0.074047826 0.0063913232 0.59036785
0.073306747 -0.0021436643 0.55843264
0.070458628 0.00076426845 0.56514829
0.071770757 0.00062286761 0.56834209
0.073099688 -0.001008464 0.57156652
0.073403016 -0.00015240815 0.57918024
0.072279394 0.0025161826 0.58217633
0.074240409 0.0032374645 0.59201646
0.072907165 -0.0072984211 0.55827171
0.072936654 -0.0048330873 0.57237273
0.07348261 -0.0041648373 0.5795719
0.074888781 -0.0018259734 0.59392756
0.072710991 -0.012587268 0.55901176
0.074250847 -0.011050055 0.57093322
0.074398182 -0.010748956 0.57353908
0.074653558 -0.0099388901 0.5789625
0.074677587 -0.0095534101 0.58266187
0.074912734 -0.006958345 0.59454674
0.073461406 -0.016329795 0.56092739
0.073953122 -0.016540146 0.5649038
0.073473781 -0.015198965 0.56985521
0.073820829 -0.014412601 0.5748567
0.074130714 -0.012864869 0.57968467
0.074610621 -0.013325384 0.58516812
0.075151399 -0.013214868 0.59004337
0.074394062 -0.010916261 0.59354186
0.077233829 0.013063663 0.57130837
0.078856289 0.013650784 0.57486743
0.077217713 0.0078367367 0.56215227
0.077352554 0.010817563 0.56594115
0.077197999 0.012187777 0.57028013
0.076827943 0.012754535 0.57546556
0.078295738 0.013083972 0.58133566
0.078131154 0.011431836 0.58567059
0.077343836 0.0026665935 0.55891877
0.077491254 0.0050476906 0.55997789
0.075821027 0.0032690421 0.56934357
0.07807371 0.0038348571 0.5720576
0.078023776 0.0043928614 0.57671666
0.078153461 0.0094096074 0.58819777
0.079082012 0.0073901112 0.59008533
0.077350333 -0.0013336549 0.55849576
0.078289948 0.00026679039 0.57206768
0.078709573 0.0014470527 0.57781136
0.079226442 0.0033740618 0.59209925
0.078265294 -0.0067517105 0.55874193
0.079170763 -0.0046028979 0.57175303
0.07906127 -0.0033609923 0.57945895
0.081163689 -0.0053543299 0.58078921
0.079456717 -0.0019067563 0.5936538
0.078056842 -0.011297103 0.55965084
0.080303505 -0.01283659 0.56344658
0.078635253 -0.0092784408 0.57021606
0.079191998 -0.0095069036 0.57439548
0.079299748 -0.0096331034 0.57908875
0.079097629 -0.0075586326 0.58193719
0.081331 -0.0082743596 0.59082717
0.079619877 -0.0064239539 0.59333116
0.077287674 -0.014468823 0.5618127
0.078007743 -0.014165113 0.56475639
0.078615174 -0.013464013 0.56966579
0.07875973 -0.012669802 0.57371968
0.078830332 -0.011531642 0.57892919
0.079395875 -0.011815388 0.5843358
0.079576537 -0.010538118 0.58870137
0.07824257 -0.010324301 0.5919717
0.08425533 0.013307886 0.56718677
0.082799643 0.01357897 0.57055306
0.083012626 0.01405508 0.57418144
0.084459856 0.014548931 0.57823515
0.082452253 0.0085732909 0.56211895
0.081856146 0.010943885 0.56526935
0.08227782 0.012795072 0.57048178
0.083190143 0.01368625 0.57659638
0.082638092 0.013523624 0.58058834
0.08304131 0.011781609 0.58536601
0.082494974 0.0023571085 0.55891311
0.082642779 0.0049836719 0.55993801
0.083765268 0.0097207874 0.58799309
0.083633751 0.0073420941 0.58963126
0.082728043 -0.0012397766 0.55901277
0.082592621 0.00027343724 0.5731883
0.082701281 0.0005969475 0.57655531
0.084193677 0.0034119985 0.59114289
0.083256133 -0.0058386298 0.55970818
0.084931672 -0.0080924984 0.5611642
0.083050109 -0.0043459199 0.57279027
0.083269365 -0.0033480693 0.57802153
0.084858298 -0.0016080663 0.59182906
0.082188547 -0.0098920316 0.56069678
0.083767921 -0.010933459 0.56345177
0.083962776 -0.011692734 0.5687266
0.084337205 -0.010575509 0.57416677
0.084627837 -0.010551892 0.57881963
0.085740946 -0.0092627648 0.58401787
0.08527156 -0.007414653 0.58864337
0.084094211 -0.0056332937 0.59179354
0.083063662 -0.012820985 0.56866312
0.083528087 -0.012108125 0.57312572
0.084964842 -0.01090263 0.57957959
0.083569609 -0.010691017 0.58394283
0.0831725 -0.009907309 0.58703107
0.087394506 0.012729494 0.56191224
0.087034971 0.014028193 0.56512445
0.087009311 0.015504346 0.56979364
0.087136514 0.015888136 0.57488459
0.087628379 0.016027132 0.579723
0.087761104 0.015787628 0.58306175
0.086845368 0.0096664475 0.56055135
0.08595217 0.012112212 0.56356448
0.085089728 0.014070952 0.57609892
0.085901991 0.014403671 0.5813157
0.087850221 0.013219608 0.58558619
0.087460637 0.0036233899 0.55833262
0.086711064 0.0049719363 0.55930644
0.086684011 0.0090606157 0.58772629
0.089002475 0.0083485823 0.58922613
0.087681085 -0.0007948 0.55895406
0.088722847 0.0035207479 0.59030056
0.087736174 -0.0041424977 0.55978525
0.088604912 -0.0062583908 0.56150329
0.089980982 -0.0025648344 0.58889198
0.088779561 -0.00014397409 0.59050411
0.088715285 -0.0089372266 0.56445414
0.08893469 -0.010194117 0.56834996
0.088565946 -0.010674296 0.57307887
0.088566214 -0.0098780729 0.57890242
0.089768425 -0.0080721676 0.58368975
0.089222476 -0.0057038581 0.58717877
0.090666607 -0.01136378 0.57433087
0.09041591 -0.01078268 0.57855219
0.09097673 -0.010048011 0.5816648
0.090874344 0.014059444 0.56541991
0.092021801 0.015168075 0.56978434
0.092197388 0.016088292 0.57449633
0.091543548 0.015948256 0.57908487
0.091449425 0.0089277122 0.56113839
0.092646122 0.011666647 0.56441408
0.093963742 0.013525774 0.56807745
0.094371304 0.014784765 0.57665169
0.093303204 0.014287134 0.58046359
0.09283556 0.012464475 0.58439004
0.091221198 0.011536519 0.58802605
0.090932459 0.0040735174 0.55842936
0.092636369 0.0052060904 0.56068009
0.094537467 0.0091953781 0.58582705
0.0923758 0.0084276041 0.58896101
0.090955362 -0.00058559887 0.55920702
0.093838304 0.00012781657 0.56091654
0.095290586 0.0036462969 0.58714932
0.092726678 0.0046772929 0.5894109
0.091435544 -0.0033823419 0.55970025
0.093322992 -0.0048541212 0.56220812
0.094882324 -0.0058749551 0.56660116
0.095757023 -0.0034611495 0.58356196
0.095032334 -0.0011461955 0.58749259
0.092171684 0.00038489839 0.59003443
0.092821896 -0.0083302418 0.56421328
0.093282357 -0.0091302376 0.56832272
0.09388604 -0.0086564347 0.5730806
0.094155014 -0.0078669377 0.57829911
0.094118237 -0.0071306694 0.58289462
0.094140038 -0.0051441472 0.58682418
0.092182122 -0.011395408 0.57322806
0.092325106 -0.010599978 0.57843566
0.092393652 -0.0098098572 0.58191919
0.10055542 -0.059304044 0.58076227
0.10041879 -0.058716565 0.58454698
0.10046126 -0.062656663 0.58149588
0.10042355 -0.06195385 0.58505374
0.10090382 -0.065356165 0.58283538
0.10081108 -0.065161645 0.58468717
0.097083867 0.015272728 0.57080954
0.096849173 0.015694721 0.57332706
0.095343955 0.0083724502 0.56249112
0.097139478 0.010746595 0.56502324
0.097169384 0.013345076 0.56833833
0.097891718 0.014510825 0.57608807
0.097742304 0.013171728 0.57959849
0.097241692 0.011418687 0.58299005
0.096500777 0.0053094872 0.56234044
0.099155545 0.0064023174 0.5636363
0.099910118 0.0091517046 0.5826084
0.097658992 0.0084636714 0.58420092
0.096334502 0.00070620421 0.56283897
0.099100538 0.00060554035 0.56522793
0.099737927 0.0031007617 0.58270341
0.097491607 0.0040140147 0.58495837
0.095903635 -0.0027533816 0.56387633
0.098124057 -0.0036785416 0.56735599
0.10038874 -0.0047665816 0.57255375
0.10064389 -0.0041608401 0.5771749
0.098809242 -0.0014844453 0.58184254
0.096837908 -0.00017002504 0.58495986
0.096876591 -0.0065443525 0.56949019
0.09788844 -0.0064739455 0.57276165
0.098348469 -0.0057024965 0.57718635
0.097221449 -0.0048563071 0.58104992
0.1019934 -0.026805231 0.56186414
0.10220593 -0.026436245 0.56281704
0.103538 -0.022197615 0.59214526
0.1033613 -0.02209777 0.59324056
0.10187807 -0.02919958 0.56205624
0.10209354 -0.029487802 0.56513506
0.10359497 -0.027901242 0.58813781
0.10321258 -0.025657812 0.59098911
0.10326643 -0.024643892 0.59377861
0.10248797 -0.032785036 0.56330532
0.10231392 -0.033785738 0.56663477
0.10258181 -0.033974916 0.56982732
0.10334067 -0.031384587 0.58770007
0.10336684 -0.030337455 0.59076464
0.10377774 -0.028283028 0.59357524
0.10287742 -0.037772559 0.56815273
0.1028524 -0.03834448 0.57199633
0.10351042 -0.039693221 0.57485801
0.1042748 -0.037880458 0.58432949
0.10344307 -0.036208779 0.5869146
0.10373417 -0.0346459 0.59038204
0.10335623 -0.042095058 0.57425344
0.10305812 -0.042916089 0.57698035
0.10344914 -0.042029187 0.58338982
0.10383422 -0.040103592 0.58623636
0.10426726 -0.048096716 0.57568645
0.10334546 -0.047249235 0.57858002
0.10381225 -0.046255998 0.58318073
0.10470828 -0.046254434 0.58602703
0.10467379 -0.050400347 0.57617545
0.10327712 -0.052473702 0.57891476
0.10380103 -0.051999412 0.58392602
0.10483535 -0.049159363 0.58630925
0.10305835 -0.05750604 0.58047122
0.10335936 -0.056892686 0.58420533
0.10168579 -0.061869808 0.58128703
0.10173409 -0.061502695 0.5847016
0.10184468 -0.065316781 0.58244461
0.10171707 -0.064974435 0.58472157
0.10231937 0.01533178 0.57050502
0.10220215 0.015755422 0.5728389
0.10223433 0.01026886 0.56564236
0.10217554 0.013220347 0.56857133
0.10272531 0.014105322 0.57565916
0.10249458 0.012405818 0.57891417
0.10429224 0.0044774786 0.56254107
0.1028001 0.0067121065 0.56405288
0.10327347 0.0092653083 0.58166188
0.10504149 0.0074519897 0.58333611
0.10413878 0.00095886691 0.5626713
0.10198411 0.00088202953 0.565139
0.10279531 0.0033838181 0.58233839
0.10508102 0.0040739719 0.58436781
0.10433891 -0.0016556233 0.56375837
0.10355207 -0.0030144593 0.56727666
0.10233028 -0.0046579968 0.57075369
0.10256516 -0.0035185479 0.57879627
0.10414701 -0.0011133794 0.58124405
0.10528462 0.0013587214 0.58411115
0.10548726 -0.0059774872 0.56852376
0.10403235 -0.0062297694 0.5724631
0.10402117 -0.0054490948 0.57730049
0.10598655 -0.0043230858 0.58060533
0.10492419 -0.025264753 0.56025296
0.10434294 -0.025730642 0.56358963
0.10562329 -0.021684844 0.59101272
0.10636708 -0.020288952 0.59417033
0.10459924 -0.029814774 0.56005472
0.1046457 -0.027725542 0.56618685
0.10579793 -0.029289199 0.56929588
0.10649009 -0.02656755 0.5867306
0.10554211 -0.024146238 0.58933163
0.10616462 -0.024517173 0.59563506
0.10577715 -0.034230001 0.56222564
0.10406044 -0.035843819 0.56469059
0.10548397 -0.032747701 0.57164723
0.10613024 -0.030860903 0.58510762
0.10531032 -0.031522125 0.5931744
0.1072484 -0.029469298 0.59481454
0.10734868 -0.036751188 0.56391585
0.10628432 -0.03873124 0.56670308
0.10502204 -0.036600471 0.57322627
0.1062154 -0.038255334 0.57515496
0.10657789 -0.03677883 0.58346128
0.10504917 -0.034840025 0.58486754
0.10714353 -0.034960434 0.5919615
0.10838395 -0.032277226 0.59385598
0.10729864 -0.041013807 0.56932324
0.10652545 -0.043076672 0.57266527
0.10673391 -0.04210072 0.57843155
0.10672331 -0.041420162 0.58150059
0.10713204 -0.041069761 0.58771342
0.10774618 -0.038188301 0.59001428
0.10712591 -0.047741592 0.57466495
0.10777733 -0.046030782 0.58039004
0.10789832 -0.046420097 0.58074909
0.10757242 -0.045909025 0.58699918
0.10791144 -0.052450329 0.57535726
0.10730295 -0.052350737 0.57977366
0.10768174 -0.052030243 0.58284378
0.10828546 -0.050612032 0.58734465
0.10865775 -0.057120845 0.57617122
0.10702898 -0.057186112 0.58009094
0.10793049 -0.056545302 0.58358026
0.10885677 -0.055736676 0.58775681
0.10926716 -0.060120486 0.57735461
0.10877533 -0.062097006 0.58054948
0.10858262 -0.061547086 0.5850504
0.10936862 -0.059063904 0.58793133
0.10916239 -0.066667743 0.58154762
0.1087072 -0.066168562 0.58536553
0.10959187 -0.070593141 0.58216363
0.10907741 -0.070145801 0.58605129
0.10732828 0.015860181 0.57009047
0.10728672 0.016192511 0.57294464
0.10861509 0.0096568801 0.56172788
0.10730637 0.011199592 0.565364
0.10667177 0.013307745 0.56794643
0.10695474 0.014520632 0.57548946
0.10788655 0.013079217 0.57890338
0.10923128 0.012505246 0.58258092
0.10768801 0.0062904791 0.56137174
0.10557288 0.0083381981 0.56375486
0.10627885 0.010966893 0.58102274
0.10860121 0.0096040238 0.58376706
0.10731944 0.00096926326 0.56173265
0.10564449 -0.0010241531 0.56400633
0.10657351 0.0020334553 0.5836426
0.108524 0.0044791335 0.58511144
0.10868451 -0.0030035907 0.56301618
0.10725485 -0.0043437835 0.56536925
0.10802312 -0.0018423768 0.58310008
0.10963652 0.00023894943 0.58479083
0.10903808 -0.0070775533 0.56732154
0.10850814 -0.0080123534 0.57219249
0.1086036 -0.0072163465 0.57751727
0.10945795 -0.0048331507 0.58199614
0.11127976 -0.0097093154 0.57254332
0.11107312 -0.0089419 0.57699943
0.11148798 -0.021515016 0.5558328
0.11054392 -0.020573933 0.55830634
0.11277629 -0.01658768 0.59089577
0.11212513 -0.015547402 0.59385723
0.11323512 -0.015567442 0.59639752
0.11106734 -0.024696017 0.5559454
0.10896448 -0.023571922 0.55856621
0.1100596 -0.024272835 0.56399715
0.11126763 -0.020126911 0.5898729
0.11058936 -0.018368153 0.59489059
0.11282259 -0.018576639 0.59744686
0.11029644 -0.027821342 0.55702072
0.1099591 -0.029840326 0.56007189
0.11060962 -0.028679518 0.56557536
0.10927551 -0.029534185 0.56859875
0.11013372 -0.026871895 0.58688039
0.11173141 -0.025115 0.58967853
0.11137457 -0.02464073 0.59539622
0.11223325 -0.021800678 0.59751558
0.10935328 -0.034121439 0.56172097
0.11144255 -0.032779783 0.56564677
0.11010456 -0.032985777 0.57051343
0.11080919 -0.031132812 0.5858562
0.1125346 -0.029194387 0.59065974
0.11074915 -0.029253053 0.59498477
0.10918652 -0.036528178 0.56363571
0.11019389 -0.037962615 0.5667851
0.11091402 -0.037711561 0.57131875
0.10947292 -0.03891664 0.57493472
0.10983789 -0.036870718 0.58374858
0.11152749 -0.035448708 0.58643985
0.11121348 -0.034430265 0.59119111
0.1100857 -0.032097809 0.59393823
0.11021361 -0.042212002 0.57326728
0.11112691 -0.042660832 0.57662499
0.11124059 -0.041674241 0.58282334
0.11086303 -0.040890872 0.58608115
0.11008434 -0.038087584 0.58946669
0.1120603 -0.047239691 0.57443589
0.11185634 -0.045569621 0.57957244
0.11188487 -0.045447208 0.58092761
0.11280836 -0.045433991 0.58685946
0.11243026 -0.05220744 0.57517672
0.11262107 -0.051952831 0.5804323
0.11266468 -0.051479504 0.5820294
0.11304259 -0.050307356 0.5876314
0.11265302 -0.055778027 0.57621562
0.11271034 -0.057177857 0.57839835
0.11348345 -0.056128405 0.58231473
0.11315556 -0.05505728 0.5877316
0.11320867 -0.060267486 0.58015078
0.11363339 -0.059775501 0.58519793
0.11520534 -0.058341138 0.58739632
0.11218229 0.016060058 0.56918758
0.11234355 0.016785715 0.57306844
0.11209001 0.01005186 0.5617153
0.11214121 0.012336793 0.56403798
0.11133377 0.014490565 0.56692082
0.11186337 0.015917752 0.57592493
0.11284585 0.014489532 0.57929111
0.11291678 0.012839446 0.58221304
0.1122928 0.0069417502 0.56072146
0.11105882 0.011984414 0.58186525
0.11316858 0.01027917 0.58386928
0.1124478 0.0015045865 0.55974871
0.11384525 0.0057263481 0.58620763
0.11493579 -0.0033497699 0.55854934
0.11271145 -0.004094841 0.56097597
0.11385738 -0.00018544542 0.58685434
0.11627418 0.00034395419 0.58874035
0.1143962 -0.0075823283 0.56322551
0.11246163 -0.0088038426 0.5664385
0.11301424 -0.006190273 0.58304459
0.11516508 -0.0042723622 0.58541179
0.11552136 -0.016278433 0.55493194
0.11467355 -0.015589282 0.55734241
0.11599012 -0.010443084 0.56467998
0.11479106 -0.012079937 0.56757373
0.11443369 -0.011892129 0.57319105
0.11443259 -0.011222908 0.57762277
0.11536667 -0.0099146701 0.58257276
0.11698944 -0.0095242672 0.58722126
0.1165297 -0.01055637 0.59277499
0.11758641 -0.010731135 0.59527737
0.1138953 -0.020013496 0.55437368
0.11270929 -0.018253472 0.55822158
0.11508685 -0.018816743 0.56250882
0.1167427 -0.014570843 0.56993085
0.1173793 -0.013109621 0.58120453
0.11609919 -0.014998486 0.58903033
0.1144737 -0.012842102 0.59357631
0.11578514 -0.013829032 0.5971216
0.11382988 -0.023943085 0.5550046
0.11575093 -0.025701275 0.55830711
0.11444327 -0.022946918 0.5648753
0.1155686 -0.019346936 0.58807749
0.11740415 -0.020160681 0.59524858
0.11555575 -0.017672408 0.59787053
0.1127152 -0.027226558 0.55687356
0.11438943 -0.027960291 0.56074411
0.11469636 -0.02729653 0.56440997
0.11594794 -0.023584809 0.59009141
0.11544479 -0.023373937 0.5937283
0.11429682 -0.02136402 0.5973084
0.11659098 -0.04765553 0.5746333
0.11732561 -0.045801409 0.57764822
0.11753874 -0.045417428 0.58218783
0.11704149 -0.046023987 0.58636844
0.11719669 -0.04973346 0.57545125
0.11760215 -0.052230477 0.57789177
0.11806902 -0.05210457 0.58263063
0.11773881 -0.049979396 0.58643347
0.11584033 -0.056334049 0.57652169
0.11832429 -0.05594185 0.57887268
0.11804461 -0.055074126 0.58381504
0.11713056 -0.055020817 0.58728004
0.11838182 -0.061167888 0.57983327
0.1181372 -0.060907699 0.58487362
0.11743812 -0.059667252 0.58762598
0.11959517 -0.065764807 0.58081424
0.11917286 -0.065459259 0.58545482
0.12053591 -0.070177473 0.58144754
0.12040398 -0.069752164 0.58595955
0.11669667 0.016793121 0.5689432
0.11685128 0.017584762 0.57315427
0.11626336 0.0098466668 0.56177592
0.1170262 0.012321576 0.5637998
0.11712491 0.014759246 0.56708795
0.11776424 0.016090319 0.57532847
0.11777882 0.014510456 0.57897985
0.11838808 0.0126877 0.58163327
0.1184416 0.0047718282 0.55664355
0.11735298 0.0070905145 0.56017482
0.120254 0.012738917 0.58135331
0.11830199 0.01054415 0.58390146
0.11988048 0.0092963502 0.58789515
0.1181533 0.0012616734 0.55593938
0.11581505 0.0025429446 0.55860478
0.11701365 0.006429859 0.58689815
0.11961062 0.00629501 0.5895139
0.1178195 -0.0035541113 0.55712169
0.11918036 0.0013914453 0.58980989
0.1203327 -0.011157105 0.55345243
0.11995419 -0.0089970976 0.55796832
0.11869632 -0.0084060114 0.56172848
0.11986643 -0.004722557 0.58696938
0.12137029 -0.0040027685 0.59059536
0.12218563 -0.0048721535 0.59500366
0.11896247 -0.014656402 0.55302799
0.11754657 -0.012882335 0.55778456
0.11942444 -0.012650538 0.5627405
0.11754417 -0.012883425 0.5657447
0.11892937 -0.013307801 0.57464218
0.11945178 -0.013007833 0.57565475
0.11859296 -0.010163153 0.58452666
0.12031233 -0.0091432016 0.5871017
0.1192967 -0.0077628316 0.59236848
0.12084682 -0.0082122236 0.59662032
0.11878105 -0.019103877 0.5538848
0.11956099 -0.017648926 0.56292909
0.1198233 -0.01557813 0.56800473
0.12016734 -0.014467409 0.572707
0.12026214 -0.01379301 0.57813483
0.12006372 -0.013458494 0.58329535
0.12052737 -0.014006969 0.5879392
0.12042028 -0.012733845 0.59709698
0.11931422 -0.022266971 0.55571097
0.11964788 -0.023452984 0.55906528
0.11957854 -0.022945285 0.5634492
0.12091313 -0.019075755 0.58916718
0.12088452 -0.018415671 0.59370124
0.12092113 -0.016091006 0.59643561
0.11757257 -0.026173918 0.56135786
0.11809719 -0.025914522 0.56319755
0.12272774 -0.027892398 0.57565969
0.12274849 -0.027661776 0.57810658
0.11947767 -0.021825742 0.59040177
0.1189245 -0.021639179 0.59243393
0.12190707 -0.032248117 0.57485116
0.1221741 -0.031605318 0.57954955
0.12228925 -0.034566425 0.57585561
0.12259483 -0.033789203 0.57960641
0.12004037 -0.048428908 0.57503277
0.12180732 -0.04757677 0.57714021
0.12165352 -0.046879366 0.58267415
0.12083896 -0.047049344 0.58527547
0.12063779 -0.049436189 0.57530558
0.12282857 -0.051021434 0.5783484
0.12312359 -0.050471216 0.58284914
0.12115287 -0.049082071 0.58567947
0.12476184 -0.053631842 0.57992023
0.12433744 -0.053155087 0.58334607
0.12202026 -0.066664115 0.58050978
0.12185591 -0.067525156 0.58603537
0.12288596 -0.070120901 0.58129257
0.1222628 -0.069816723 0.58582652
0.12034764 0.016955771 0.56977522
0.12051483 0.01735645 0.57219392
0.12129343 0.011887275 0.56432605
0.12221912 0.013918754 0.56834412
0.12265157 0.014978492 0.57370907
0.12196499 0.013822062 0.57840103
0.12046443 0.0048988918 0.55702376
0.12213589 0.0069060167 0.55946934
0.12310524 0.0094678076 0.56300843
0.12373782 0.011823401 0.58035898
0.1231437 0.010466816 0.58425748
0.12153168 0.0095746834 0.58722574
0.12223699 0.0011944487 0.55632025
0.12387365 0.0031195562 0.55811226
0.12494554 0.007245787 0.58654147
0.12351196 0.005922718 0.58892304
0.12514551 -0.0052047409 0.55343497
0.12321844 -0.0029462129 0.5545733
0.12467897 0.0023766486 0.59169924
0.12655191 0.00040173158 0.5932976
0.12370246 -0.009733079 0.55254823
0.12206973 -0.0077852421 0.55588561
0.12137768 -0.0097790901 0.56208873
0.12243381 -0.006317771 0.58648157
0.12343033 -0.002447065 0.59177423
0.12542173 -0.0031811036 0.59534794
0.12341636 -0.01417923 0.55149978
0.12251116 -0.012212509 0.56284744
0.12553088 -0.013005279 0.57541013
0.12361125 -0.0089104399 0.58644682
0.12522738 -0.0072918199 0.59784174
0.12391467 -0.018836955 0.55295533
0.12369648 -0.017585767 0.56408888
0.1247748 -0.016113518 0.5677284
0.1246902 -0.014872631 0.57293391
0.12488932 -0.014345441 0.57762587
0.12549634 -0.014186395 0.58281589
0.12460223 -0.014034372 0.58660501
0.12565559 -0.012490483 0.5978049
0.12391439 -0.021866797 0.55522764
0.12439647 -0.022299008 0.55839252
0.12411649 -0.021168796 0.56223786
0.12721665 -0.022725953 0.57438827
0.12717271 -0.022188969 0.57755911
0.12515068 -0.017216755 0.58957303
0.12587622 -0.017106339 0.59346974
0.12570626 -0.015770812 0.59640139
0.12619339 -0.027670188 0.57135564
0.12569392 -0.025305135 0.57399994
0.1258481 -0.024974423 0.57918453
0.12777476 -0.026328688 0.58201927
0.12579222 -0.031291008 0.57121855
0.12399608 -0.031562343 0.57301134
0.1248019 -0.029972864 0.58138132
0.12738763 -0.029557401 0.58344686
0.12698573 -0.036817707 0.5707283
0.1256597 -0.036585838 0.57530379
0.12591809 -0.035650946 0.58077478
0.12742601 -0.034529001 0.58509791
0.12852547 -0.038739726 0.57249814
0.12772655 -0.039006904 0.57689458
0.12809847 -0.038147822 0.58074641
0.12829205 -0.037082292 0.58413202
0.12674604 -0.051514357 0.57870722
0.12699078 -0.050921075 0.58264637
0.12827785 -0.055187352 0.57929885
0.12812194 -0.054843493 0.58302087
0.12966163 -0.058158614 0.58033425
0.1296328 -0.057943814 0.58371186
0.12633689 0.012308017 0.56979722
0.12665957 0.013104716 0.57280368
0.12664875 0.0063983495 0.56057245
0.12744771 0.0080461502 0.56396288
0.12818392 0.010351921 0.56838793
0.12878017 0.011430258 0.57478595
0.12807716 0.010287819 0.57913935
0.12759183 0.0096000358 0.58289772
0.12625039 0.00022759754 0.55721605
0.1277377 0.0027988022 0.55939054
0.12979734 0.0052976892 0.56292862
0.13052927 0.0077934824 0.58078551
0.128892 0.006464527 0.58496636
0.12745517 0.0047222762 0.58791685
0.12671676 -0.0052780826 0.55318147
0.12769364 -0.0026592575 0.55538368
0.1294215 -8.5121952e-05 0.55837351
0.1304462 0.0038593702 0.58704889
0.12913722 0.0025088163 0.59040445
0.12858224 0.00054023927 0.59355152
0.12717086 -0.0084970277 0.55295998
0.12968162 -0.0082396725 0.55550683
0.13127984 -0.0029894272 0.59184331
0.12888403 -0.0022422122 0.59463888
0.12847438 -0.013737831 0.55281782
0.13063452 -0.011260612 0.55646741
0.13099967 -0.013829144 0.5625034
0.12999047 -0.012183862 0.56774098
0.13007158 -0.012936698 0.56989765
0.13046663 -0.011905532 0.57963032
0.13075194 -0.010503829 0.58136731
0.13217328 -0.010317121 0.58704323
0.13214162 -0.0062845806 0.59206986
0.13037331 -0.0074574081 0.59610349
0.12862144 -0.018052761 0.55401123
0.13057303 -0.018591369 0.55779082
0.12978847 -0.017174713 0.56276613
0.12781247 -0.015105832 0.56736481
0.1290531 -0.01580343 0.57198483
0.12943478 -0.015304711 0.57837558
0.12872325 -0.012835586 0.58237952
0.13089764 -0.013633436 0.58759403
0.13196285 -0.013461031 0.59263438
0.1304964 -0.011723049 0.59623742
0.12671593 -0.021048615 0.55561519
0.1280746 -0.020784365 0.55836654
0.1279767 -0.020364499 0.56154597
0.13182037 -0.02247107 0.5704385
0.13010626 -0.020568298 0.57326829
0.13034594 -0.019689217 0.57824749
0.13217184 -0.020959249 0.58114219
0.12903705 -0.016193504 0.58953547
0.12952167 -0.015664587 0.59293723
0.13066004 -0.026207494 0.57003319
0.12926397 -0.024032418 0.5721398
0.12963454 -0.023103019 0.58003968
0.13134824 -0.024502655 0.58258528
0.13063456 -0.031303696 0.56891692
0.13123263 -0.029125674 0.58459026
0.12977219 -0.036085181 0.56801015
0.13052297 -0.036092348 0.56882942
0.13115357 -0.03401655 0.58563781
0.13155247 -0.039423354 0.5719502
0.13175794 -0.041048974 0.57618034
0.1320789 -0.039989449 0.58119178
0.13155805 -0.037456125 0.58412689
0.13150281 -0.055890068 0.57970613
0.13158932 -0.055807106 0.58263808
0.13227485 -0.058007345 0.57992125
0.13219213 -0.057849437 0.58342022
0.13027078 0.0064829648 0.56629956
0.1305829 0.0092661334 0.57002121
0.13077274 0.01000614 0.57329255
0.13065855 0.0085296836 0.57689464
0.13082564 0.001924207 0.56083673
0.13169183 0.0034523371 0.56453156
0.13314034 0.004653994 0.5698899
0.13359232 0.0052623153 0.57450545
0.13223866 0.0056377156 0.57975721
0.13196792 0.0050058756 0.58353776
0.13164808 -0.0037808269 0.55700624
0.13247581 -0.0020027133 0.5602079
0.13402285 -0.0011824677 0.56515026
0.13504145 -0.00010863738 0.57020557
0.13541131 0.00056199823 0.57497698
0.13453704 0.00097854855 0.58026201
0.13353708 0.0015688837 0.5851208
0.1330106 0.00081896223 0.58906889
0.13199092 -0.0067689745 0.55738372
0.13387519 -0.0065694973 0.56114244
0.13550799 -0.0057381885 0.56473237
0.13626686 -0.0034448421 0.5727818
0.13619804 -0.0022469675 0.57367551
0.13624696 -0.0031384453 0.58142662
0.13485587 -0.0029877676 0.58581632
0.13331874 -0.0021699388 0.5896982
0.13133244 -0.014943652 0.55452651
0.13158786 -0.01288634 0.55734873
0.13289049 -0.01178617 0.56166685
0.13412616 -0.011584897 0.56702381
0.13662474 -0.011867194 0.5695256
0.13700372 -0.010763504 0.57851142
0.13499001 -0.0093747694 0.58172458
0.13404663 -0.0082877418 0.58663815
0.13305606 -0.0078624599 0.59082675
0.13297866 -0.0092325713 0.59445536
0.13128884 -0.016273061 0.55470198
0.13181305 -0.016533867 0.55685699
0.13418812 -0.014086051 0.56938219
0.13533705 -0.015733421 0.57060218
0.13608579 -0.014357479 0.57862431
0.13474175 -0.012612524 0.58005208
0.13316859 -0.011142557 0.59300685
0.13542894 -0.020943826 0.57003903
0.13452064 -0.01913948 0.57070786
0.13417743 -0.018406902 0.58008486
0.13603428 -0.019177051 0.58108681
0.13541405 -0.02676508 0.56817502
0.1357757 -0.024389049 0.58416164
0.1362396 -0.030109989 0.56828064
0.13660151 -0.027729629 0.58497149
0.13615006 -0.035542049 0.5698033
0.13662466 -0.033530876 0.58475357
0.13643117 -0.04006514 0.57156694
0.1368022 -0.042040192 0.57526791
0.13707499 -0.040829249 0.58204418
0.13719426 -0.038093999 0.58455956
0.13753989 -0.042266019 0.57732791
0.13738649 -0.041906804 0.57984608
0.13622428 -0.0022596484 0.57028973
0.13641636 -0.0015713871 0.57551825
0.13638741 -0.0057908576 0.56713164
0.1366546 -0.0051556043 0.57040203
0.13688785 -0.0043572858 0.57610017
0.13691023 -0.0042913817 0.57954925
0.13664858 -0.008699378 0.56776416
0.1370521 -0.009905966 0.57186961
0.13721314 -0.009250002 0.57597929
0.13714075 -0.0070314473 0.57959408
0.13792895 -0.015068118 0.57245487
0.13824205 -0.014724728 0.5766986
0.13940264 -0.021084549 0.56982106
0.14026745 -0.018705079 0.5720318
0.14025307 -0.017680604 0.57807124
0.13987005 -0.019556439 0.58106482
0.14176729 -0.028044505 0.56622231
0.14002264 -0.026498361 0.56788039
0.14047551 -0.023954017 0.58410299
0.14133151 -0.025125446 0.58629978
0.14102568 -0.028578984 0.56636804
0.14027056 -0.029993052 0.56826931
0.14080507 -0.027641883 0.58497405
0.14123824 -0.025762113 0.58647358
0.14108858 -0.035270877 0.57029724
0.14142761 -0.033165358 0.58426821
0.1413306 -0.03952688 0.57164907
0.14182548 -0.041264407 0.57564598
0.14209402 -0.040379874 0.58099306
0.1420119 -0.03754244 0.58406121
0.13955018 -0.042065822 0.57681102
0.13975412 -0.041714177 0.57923543
0.14391768 -0.020828158 0.57330883
0.14399864 -0.020267949 0.57734579
0.14470792 -0.025737917 0.56983089
0.14645143 -0.023843529 0.57287049
0.14652891 -0.022931481 0.5785203
0.14512447 -0.023878917 0.58192784
0.14558652 -0.029876934 0.56952155
0.14834137 -0.025661679 0.58028352
0.14611132 -0.027935991 0.58356845
0.14581059 -0.034522921 0.57091856
0.14803629 -0.036149673 0.57285005
0.14828677 -0.035168819 0.58186084
0.14634719 -0.032838084 0.58345962
0.1449886 -0.038150698 0.57222229
0.14656448 -0.038837679 0.5751735
0.14676212 -0.038200617 0.58012086
0.14558627 -0.036305219 0.58310521
0.14872554 -0.025684213 0.57465917
0.14861776 -0.025020065 0.5769853
0.14842686 -0.02939192 0.57098436
0.1513561 -0.029919246 0.57462698
0.15168856 -0.029448418 0.57800978
0.14937977 -0.028774781 0.5816924
0.14888272 -0.032375224 0.57139581
0.15187612 -0.033574671 0.57523477
0.15211801 -0.033429436 0.57883292
0.14947963 -0.031549901 0.58203781
0.14938897 -0.036767997 0.57620692
0.14966831 -0.036187418 0.57884049
0.15715222 -0.01371311 0.57730025
0.15741183 -0.013236998 0.57875842
0.1573732 -0.015612198 0.57714665
0.15499026 -0.030576637 0.57581633
0.15535302 -0.030370669 0.57694155
0.1557606 -0.032975182 0.57552242
0.15581307 -0.032777064 0.57812816
0.15537669 -0.03591308 0.57681936
0.15545225 -0.035695024 0.57771045
0.15870161 -0.0090856869 0.57712412
0.15887229 -0.0088183004 0.57832503
0.15935108 -0.012775656 0.57647437
0.15885343 -0.012118556 0.57905906
0.16082592 -0.018775728 0.57370585
0.15984859 -0.017498691 0.57675743
0.15959905 -0.015505983 0.57925183
0.1622355 -0.022129554 0.57348555
0.16179171 -0.021015139 0.57645416
0.1616624 -0.028614881 0.57414907
0.16163096 -0.028961988 0.57641566
0.16107604 -0.03268484 0.57471108
0.16096227 -0.032209627 0.57735038
0.16392085 -0.01920585 0.57347751
0.16384673 -0.018043008 0.57593042
0.16520618 -0.022892825 0.57295477
0.16509694 -0.022177704 0.57616872
0.16604576 -0.02779294 0.57344639
0.16486359 -0.027263055 0.57599604
0.16504522 -0.031173492 0.57468796
0.16445047 -0.030599872 0.5762459
