# .PCD v0.7 - Point Cloud Data file format
VERSION 0.7
FIELDS x y z
SIZE 4 4 4
TYPE F F F
COUNT 1 1 1
WIDTH 1190
HEIGHT 1
VIEWPOINT 0 0 0 1 0 0 0
POINTS 1190
DATA ascii
0.35058045 -0.070823327 0.89278346
0.34056216 -0.090336144 0.91799587
0.34875196 -0.06432952 0.8850534
0.34789065 -0.064860187 0.88573188
0.34885901 -0.070039071 0.89221179
0.33829397 -0.090341665 0.91834342
0.33364516 -0.093994923 0.9231742
0.33323923 -0.094579339 0.92417228
0.34275579 -0.065551668 0.8876965
0.3413842 -0.067494772 0.88994074
0.33996779 -0.07034833 0.89421731
0.33207408 -0.085732989 0.91389555
0.32994431 -0.089520611 0.91849935
0.33061284 -0.091464415 0.92079854
0.33233428 -0.094090693 0.92370415
0.34114027 -0.065254554 0.88752502
0.34012809 -0.067682818 0.89031738
0.3383584 -0.069754511 0.89349622
0.3304078 -0.085425958 0.91377366
0.3292284 -0.088381588 0.91699123
0.3282775 -0.090178423 0.91966414
0.36862066 -0.079956062 0.89422441
0.36788183 -0.08155784 0.89688075
0.360039 -0.096595392 0.91603881
0.35908636 -0.098305181 0.9178834
0.36624452 -0.077033669 0.89384067
0.36557525 -0.079872653 0.89765906
0.36322352 -0.082311817 0.8988952
0.35762033 -0.093537316 0.91278774
0.35819912 -0.094542578 0.91597342
0.35615769 -0.097139269 0.91948867
0.36078715 -0.074620143 0.88944644
0.36206615 -0.074882582 0.89216179
0.35978755 -0.078224748 0.89691848
0.35991502 -0.081317425 0.89794815
0.35500622 -0.093050957 0.91222215
0.35295007 -0.092739277 0.91524613
0.35113952 -0.096409649 0.91982049
0.3482855 -0.098324962 0.91953552
0.35839891 -0.073096208 0.88897753
0.35707617 -0.073231786 0.89262247
0.35533181 -0.078220598 0.89564824
0.34844911 -0.092269853 0.91368496
0.34698129 -0.094046146 0.91913605
0.3455444 -0.097143732 0.92004615
0.35334858 -0.070280135 0.88755375
0.35280305 -0.071167879 0.89212561
0.35012752 -0.076911733 0.89550751
0.34338859 -0.090193637 0.91254461
0.34233683 -0.092035197 0.91891342
0.34053564 -0.095958762 0.920237
0.34921759 -0.066201769 0.88345253
0.34831223 -0.067982718 0.885979
0.3466906 -0.069776289 0.89096475
0.34594738 -0.07533291 0.89498317
0.33919647 -0.088585488 0.91210592
0.33651683 -0.090873823 0.91865051
0.33491048 -0.095149413 0.92060983
0.3334989 -0.096670561 0.92287445
0.34734049 -0.06517785 0.8838048
0.34433305 -0.067386299 0.885225
0.34276178 -0.070650607 0.88927835
0.34072405 -0.073768012 0.89315778
0.3334536 -0.087821469 0.91125989
0.33240479 -0.090713076 0.91533148
0.33115664 -0.094050646 0.91953611
0.3317529 -0.095504642 0.92278051
0.34039894 -0.066254348 0.8856566
0.33922043 -0.069342539 0.88939273
0.33719572 -0.071530588 0.8920415
0.32928234 -0.086957224 0.91180933
0.32892349 -0.089365602 0.91503161
0.32716379 -0.091752797 0.91853654
0.36854476 -0.082177877 0.89226437
0.36786693 -0.084138721 0.8948018
0.35994232 -0.099101886 0.91407299
0.35906449 -0.10025772 0.91648358
0.3664932 -0.080599211 0.89039922
0.36609724 -0.085800305 0.89594281
0.36340833 -0.085176848 0.89719296
0.35780805 -0.095743306 0.91091812
0.35962608 -0.098188125 0.91166049
0.35627085 -0.10129537 0.91666478
0.36036354 -0.07577806 0.88849044
0.36206511 -0.078332566 0.88840449
0.3573609 -0.083442211 0.89444679
0.35932091 -0.084019735 0.89597178
0.35422707 -0.09524592 0.91011095
0.35178345 -0.09512905 0.91022003
0.35059136 -0.10073707 0.9170506
0.34815279 -0.098992877 0.91882801
0.35727078 -0.075993314 0.88648695
0.35700074 -0.077759713 0.88687408
0.35440576 -0.081349157 0.89380616
0.34779316 -0.094449192 0.91059154
0.34596136 -0.10007682 0.9163323
0.344787 -0.099652529 0.91744578
0.35307434 -0.07358472 0.88524461
0.35176557 -0.077422604 0.88715869
0.350539 -0.079483829 0.89188075
0.34339571 -0.09420947 0.91071457
0.34130877 -0.098008491 0.91356331
0.34054229 -0.098901384 0.91763073
0.34906068 -0.07160183 0.88453144
0.34710807 -0.074813887 0.88711208
0.34560305 -0.077400066 0.89084226
0.33796197 -0.092753343 0.91053414
0.33659333 -0.095600083 0.91385078
0.33614779 -0.097441852 0.91783059
0.34432146 -0.070883639 0.88472348
0.34447959 -0.072878823 0.88624465
0.34199166 -0.075730413 0.89047629
0.33403918 -0.091175355 0.91043669
0.33311269 -0.094357513 0.91419804
0.33193165 -0.095385253 0.91612327
0.36775309 -0.084673114 0.89098191
0.36741075 -0.08573056 0.89238763
0.36523867 -0.08401449 0.88740414
0.36477357 -0.088043764 0.89146173
0.3620615 -0.087736681 0.8937791
0.35609651 -0.098720327 0.90851909
0.35739174 -0.10180343 0.90969908
0.35494897 -0.10440359 0.9133237
0.360874 -0.082757927 0.88607031
0.35761765 -0.08654803 0.89016414
0.35911763 -0.088124052 0.89282912
0.35348475 -0.098862708 0.90684694
0.35065863 -0.10045397 0.9075141
0.35038483 -0.1038732 0.91328365
0.35674915 -0.08126618 0.88698488
0.35618302 -0.084272139 0.88974792
0.34818366 -0.099339813 0.90927452
0.34668046 -0.10111243 0.91248345
0.36354297 -0.088255763 0.88557452
0.36352617 -0.090764314 0.88786989
0.35569841 -0.10563889 0.9070363
0.35407406 -0.10633558 0.90992689
0.36068228 -0.08749903 0.88460797
0.35867396 -0.089909077 0.88769555
0.35918465 -0.090171218 0.89046305
0.35339034 -0.1015579 0.90534437
0.35158536 -0.10361948 0.90563273
0.35098773 -0.1064529 0.90912384
0.35703176 -0.089560464 0.88415664
0.34870312 -0.10550097 0.9053843
0.34806561 -0.1067166 0.90618277
0.36211646 -0.092158869 0.8829934
0.36231077 -0.094090506 0.88441032
0.35447857 -0.10927323 0.90409052
0.35999954 -0.091533929 0.88091671
0.35875756 -0.094714738 0.88477886
0.35204658 -0.10797526 0.90182167
0.35042623 -0.11077208 0.90567935
0.3562133 -0.090824515 0.88017857
0.3551228 -0.092648745 0.88271034
0.34710321 -0.10784703 0.90165377
0.34642866 -0.10975674 0.90480757
0.36130705 -0.097477347 0.88153899
0.35362199 -0.11203676 0.90117443
0.35969001 -0.095077619 0.87740624
0.3592464 -0.098497406 0.88138574
0.3564555 -0.099801049 0.88237423
0.3508617 -0.11090905 0.89640737
0.35225597 -0.1125718 0.89948601
0.34957314 -0.1149254 0.90273952
0.35486254 -0.093504056 0.87629026
0.35283351 -0.096049987 0.88081014
0.35366645 -0.099187359 0.88183141
0.34771699 -0.10993559 0.89588493
0.34557593 -0.10953265 0.89862281
0.34470865 -0.11379932 0.9024682
0.35160086 -0.094713844 0.87543446
0.35065508 -0.096479751 0.87795466
0.34278914 -0.11143156 0.89725924
0.34195977 -0.11328416 0.9001171
0.35947898 -0.098544627 0.87394673
0.35965139 -0.1020141 0.87816322
0.35638157 -0.10356917 0.88019043
0.35105342 -0.11370674 0.89353585
0.35211834 -0.11632028 0.89665669
0.34904003 -0.11898996 0.90000176
0.35494202 -0.096350215 0.87190968
0.35235456 -0.10272149 0.88001388
0.34736136 -0.11218103 0.8924523
0.34363297 -0.11849409 0.90043443
0.3499501 -0.096567579 0.87220311
0.34792233 -0.098727629 0.87562293
0.3479273 -0.10205688 0.87785518
0.34275475 -0.1120633 0.89186019
0.34013331 -0.11342432 0.89489454
0.33966747 -0.11663417 0.89807892
0.34619996 -0.098496497 0.87182039
0.34601945 -0.099234685 0.87269366
0.33928806 -0.11329504 0.89059001
0.33776793 -0.11500012 0.8933689
0.33710811 -0.11672255 0.89546335
0.35854977 -0.10248554 0.87116516
0.35818133 -0.10555758 0.87483317
0.35546628 -0.10696591 0.8771643
0.3502003 -0.11727604 0.89067632
0.35061607 -0.11982833 0.8933695
0.34827918 -0.12220114 0.8966167
0.35487756 -0.099864975 0.86850178
0.35158813 -0.10699578 0.87689811
0.34693083 -0.1160727 0.8887347
0.34339592 -0.12288952 0.89737093
0.34993315 -0.099020034 0.86782962
0.34585276 -0.10045893 0.87385488
0.34721699 -0.10565618 0.87588024
0.34234968 -0.11495712 0.8880564
0.33848286 -0.12095007 0.89647853
0.34493542 -0.099284068 0.86851382
0.34290546 -0.10169694 0.87161684
0.34363091 -0.10435975 0.87390709
0.33799124 -0.11500597 0.88799024
0.3354139 -0.11602424 0.89010274
0.33480975 -0.11921912 0.89387071
0.34087211 -0.10016044 0.86740875
0.33996123 -0.10131393 0.86923921
0.33196586 -0.11692959 0.88963884
0.3313531 -0.11890984 0.89153004
0.35666612 -0.10524756 0.8694014
0.35595548 -0.10754929 0.87206864
0.35431644 -0.10882469 0.87441862
0.34822997 -0.12211737 0.89093614
0.34721279 -0.12375953 0.89369857
0.3535879 -0.10476372 0.86711586
0.35258493 -0.10868922 0.87007713
0.35118327 -0.10928721 0.87364841
0.34612611 -0.11957875 0.88721365
0.34506604 -0.12316886 0.8889786
0.34352946 -0.12469973 0.89312047
0.34969735 -0.10355629 0.86506987
0.34913349 -0.10911767 0.86876065
0.34674343 -0.10877927 0.87269521
0.34168839 -0.11892624 0.88549036
0.34144849 -0.12351718 0.88738775
0.33880672 -0.12484564 0.8924489
0.34445661 -0.10183268 0.86425996
0.34124506 -0.1053398 0.87075067
0.34212503 -0.10775753 0.87056381
0.33623344 -0.11849041 0.8847425
0.33535293 -0.11722089 0.88666487
0.33366275 -0.12342545 0.89197999
0.33959705 -0.10188885 0.86433738
0.33742434 -0.10393251 0.86768746
0.33867443 -0.10707492 0.86929059
0.33285451 -0.11818489 0.88406062
0.33013701 -0.118049 0.88639748
0.3296535 -0.12164225 0.88977844
0.33600289 -0.10420761 0.86480105
0.32759365 -0.12007209 0.88625163
0.32734898 -0.1208435 0.88717943
0.3471843 -0.10777283 0.86342585
0.34665516 -0.10989384 0.86641628
0.34504944 -0.11197436 0.86860228
0.33961704 -0.12302985 0.88249063
0.33901 -0.12466484 0.88549811
0.33729482 -0.12672138 0.88794911
0.3438082 -0.10592467 0.86120117
0.34517765 -0.10894191 0.86546457
0.34142876 -0.11119866 0.86827153
0.33625209 -0.12152281 0.8816064
0.33710635 -0.12466671 0.88556451
0.33343667 -0.12709989 0.88840914
0.33912686 -0.10543597 0.86149186
0.33641106 -0.10787239 0.86467737
0.3381384 -0.11022565 0.86724085
0.33232087 -0.12084271 0.88122147
0.32894105 -0.12238359 0.88276088
0.32925016 -0.12517078 0.88682711
0.33586356 -0.10521131 0.86404812
0.32771814 -0.12104827 0.88440806
0.32724062 -0.12222172 0.88658786
0.36343759 -0.1211171 0.86715204
0.36332446 -0.12291487 0.86983812
0.36224869 -0.12602121 0.87357825
0.3608743 -0.12864843 0.87736148
0.35828012 -0.13122794 0.88088554
0.35695058 -0.13366814 0.88209027
0.36105835 -0.11960349 0.86464179
0.35666946 -0.131799 0.88163865
0.35368645 -0.13356689 0.88394058
0.35075003 -0.13535109 0.88534337
0.35889089 -0.11797263 0.8623746
0.35019982 -0.13465777 0.88441229
0.34885833 -0.13552448 0.88530892
0.35064885 -0.11487599 0.86058873
0.35090205 -0.11562899 0.86338872
0.34914327 -0.1186006 0.86656386
0.34395009 -0.12808445 0.87912256
0.34317839 -0.13097879 0.88259512
0.34135285 -0.13273881 0.88357431
0.3479175 -0.11219899 0.86017966
0.3489238 -0.11340602 0.86447531
0.34523568 -0.11780459 0.86744016
0.34105074 -0.12558457 0.8774429
0.34114006 -0.12857303 0.88364404
0.33794641 -0.13132362 0.88477314
0.34347972 -0.1100817 0.85833794
0.34057915 -0.11584123 0.86616838
0.33641857 -0.12479261 0.87706178
0.333069 -0.13095596 0.88489008
0.34007809 -0.10977799 0.85923368
0.33813486 -0.11196398 0.86152804
0.3378253 -0.11455415 0.863989
0.33219644 -0.12492976 0.87770462
0.3303794 -0.12656447 0.88052964
0.33028072 -0.12893812 0.88368434
0.36386994 -0.1235854 0.863801
0.36397529 -0.12593892 0.8674981
0.36300573 -0.12920116 0.87143147
0.36107165 -0.13161793 0.87503904
0.35913619 -0.13483164 0.87874269
0.3571544 -0.13679677 0.88029593
0.35974339 -0.11976933 0.86053538
0.36139494 -0.12159637 0.86291581
0.3606154 -0.12514392 0.86555856
0.35949758 -0.12937656 0.87011588
0.35804456 -0.13198628 0.87369967
0.35471496 -0.13377932 0.87775725
0.35389245 -0.13638096 0.88208073
0.35057166 -0.13818301 0.88337278
0.35729933 -0.11826041 0.85977685
0.35567132 -0.12094487 0.86190969
0.35359904 -0.12408198 0.86452168
0.35207778 -0.12664603 0.86586285
0.34914565 -0.13351241 0.87639272
0.34849066 -0.13496235 0.8804425
0.34746978 -0.13772242 0.88397789
0.35213196 -0.11734533 0.85768926
0.35312378 -0.11848629 0.86158222
0.35054195 -0.12178825 0.86602384
0.34817997 -0.12450011 0.86673206
0.3457554 -0.1295862 0.87330556
0.34623578 -0.13020518 0.87663525
0.34503898 -0.1343098 0.88155836
0.34199858 -0.13656792 0.88309711
0.34844157 -0.116078 0.85611409
0.34320393 -0.12174474 0.86512792
0.34525549 -0.12301049 0.86621171
0.34235856 -0.12864535 0.87313455
0.33981103 -0.12837946 0.87341458
0.33780959 -0.13638905 0.88226354
0.34286216 -0.11443111 0.85614043
0.34029114 -0.1170531 0.8578403
0.34026349 -0.11965719 0.86278248
0.33586162 -0.12870657 0.87418723
0.33240154 -0.1324182 0.87736821
0.33281806 -0.13387239 0.8812294
0.33851439 -0.1157492 0.8599757
0.33813363 -0.11674693 0.8621251
0.33237258 -0.12838598 0.87573171
0.33137774 -0.12951663 0.87756956
0.33097002 -0.13138014 0.88092351
0.36372519 -0.12709241 0.86086202
0.36467797 -0.13018459 0.86440963
0.3638745 -0.13345216 0.86832553
0.3620778 -0.1358256 0.87205297
0.35990164 -0.13858797 0.87579209
0.35662362 -0.14079867 0.87839437
0.36083606 -0.12415497 0.85677534
0.36240172 -0.12511063 0.85868663
0.35790741 -0.12855616 0.86369938
0.35773256 -0.13200584 0.86650479
0.35622448 -0.13463676 0.87101871
0.35314694 -0.1366293 0.87307692
0.35357708 -0.14141127 0.87984282
0.35076681 -0.14240243 0.88060528
0.3567715 -0.12245095 0.85493165
0.35700649 -0.12475266 0.862436
0.3553111 -0.12732199 0.86400634
0.35227284 -0.12934595 0.86522979
0.34976995 -0.13374656 0.87098861
0.35107142 -0.1354152 0.87457776
0.34722915 -0.14216745 0.88096827
0.35231537 -0.12007575 0.85380989
0.3485533 -0.12815322 0.86501342
0.34601724 -0.13246022 0.87026614
0.34180301 -0.14168169 0.88078928
0.34732515 -0.11826017 0.85321033
0.343402 -0.12604973 0.86162382
0.34254527 -0.12759264 0.86357015
0.34093416 -0.13083482 0.86769658
0.3397117 -0.13286589 0.87056273
0.3369661 -0.14003566 0.88000184
0.34305647 -0.1183643 0.85329127
0.34110752 -0.12066712 0.85593641
0.34029257 -0.12330793 0.86028463
0.33882302 -0.12639926 0.86403137
0.33811116 -0.12966762 0.86785388
0.33530515 -0.13262436 0.87158149
0.33325428 -0.13554156 0.87495142
0.33395237 -0.13760406 0.8786059
0.36421931 -0.13783167 0.86590588
0.3629663 -0.14110555 0.86773771
0.36343175 -0.13119265 0.85775369
0.36446452 -0.13435403 0.86124629
0.36387926 -0.13694853 0.86494142
0.36225733 -0.13949353 0.86921215
0.35982522 -0.14371309 0.87281787
0.35655132 -0.14513385 0.87578624
0.36017045 -0.12766975 0.85399133
0.36181936 -0.1292344 0.85527438
0.35656267 -0.13197725 0.86292374
0.35554123 -0.13530441 0.86372834
0.35407978 -0.13782829 0.86740458
0.35367942 -0.14564571 0.87718868
0.35092726 -0.14653701 0.87755573
0.35678485 -0.1259211 0.85270262
0.3523224 -0.13410255 0.86274213
0.35087818 -0.13777566 0.86709887
0.34647557 -0.14611679 0.87801522
0.35170081 -0.12466598 0.85102034
0.34796929 -0.13274965 0.86079049
0.34584072 -0.13702613 0.86696434
0.34314933 -0.13855428 0.86619997
0.34107679 -0.14504445 0.87777066
0.34730357 -0.12321229 0.85073501
0.34395126 -0.12626909 0.85185009
0.34454384 -0.12976053 0.85883057
0.34248212 -0.13220893 0.86158454
0.34037018 -0.13460851 0.86502492
0.34104949 -0.1366864 0.86779594
0.33628252 -0.14261703 0.87295693
0.33716196 -0.14326839 0.87633693
0.34369546 -0.12248545 0.85206848
0.34260187 -0.12464243 0.85391992
0.3410514 -0.12785581 0.8574174
0.34002301 -0.13031611 0.86057574
0.33882561 -0.133434 0.86473322
0.33619505 -0.13648626 0.86839318
0.33545929 -0.13931759 0.87188101
0.33449391 -0.14001641 0.87521267
0.36499348 -0.14127773 0.85856605
0.36405915 -0.14195284 0.86205822
0.36291555 -0.14412913 0.86477721
0.36140016 -0.14748088 0.86706644
0.36321968 -0.13550669 0.85470605
0.36410168 -0.13754618 0.85801703
0.36347896 -0.14121158 0.86213428
0.36153761 -0.14534119 0.86639947
0.35980049 -0.14686321 0.86970598
0.35616392 -0.14891145 0.87263912
0.35902902 -0.13153045 0.85076296
0.36091098 -0.13317266 0.85207921
0.35309726 -0.15000127 0.87367851
0.35030907 -0.14980899 0.87441903
0.35574391 -0.13037564 0.84982693
0.3511301 -0.13799648 0.86095756
0.34997848 -0.13990167 0.86350656
0.34607595 -0.14949006 0.87426674
0.35126504 -0.12936327 0.8489176
0.34836042 -0.13052441 0.84844613
0.34710652 -0.13637063 0.85926235
0.34574988 -0.13956037 0.86331141
0.34120286 -0.14841634 0.87316519
0.34741721 -0.12747496 0.84933645
0.34506035 -0.12968318 0.85019541
0.34212434 -0.13219932 0.85386789
0.34075969 -0.13566029 0.85800838
0.33876747 -0.13823855 0.86134267
0.33753356 -0.14221495 0.86489069
0.33730608 -0.14489445 0.86910963
0.33776128 -0.14625752 0.87263358
0.34129772 -0.13103767 0.85409737
0.33997044 -0.13391989 0.85734844
0.33807743 -0.13874699 0.86162466
0.33665904 -0.13994828 0.86581677
0.33612028 -0.14149916 0.86857605
0.36617601 -0.14082436 0.85253227
0.36603728 -0.14266509 0.85548633
0.36538523 -0.14556646 0.85937715
0.36355641 -0.14837785 0.86322844
0.36155468 -0.15124966 0.86660743
0.35990947 -0.15294236 0.8689844
0.36411476 -0.13853443 0.85110283
0.36517173 -0.14030401 0.85451019
0.36177012 -0.14670739 0.86495614
0.3597272 -0.15009218 0.86847109
0.35654137 -0.15329431 0.87021214
0.35956514 -0.13556491 0.84759533
0.3604815 -0.1359954 0.84911311
0.35212994 -0.15186931 0.87153357
0.35047179 -0.15414339 0.87107438
0.35533029 -0.13434696 0.8468619
0.34576511 -0.1526093 0.87088913
0.35198826 -0.13351913 0.84664613
0.3492319 -0.13424164 0.84689873
0.34072724 -0.15052864 0.86758882
0.34240544 -0.15134437 0.87012285
0.34558144 -0.13478221 0.84840804
0.34278026 -0.13643081 0.85090619
0.34041831 -0.1383436 0.85457927
0.33866894 -0.14158483 0.85915989
0.33805382 -0.14562207 0.8624686
0.33878237 -0.14787006 0.86600351
0.33892158 -0.1403331 0.85407192
0.33769932 -0.1424901 0.85754657
0.33694515 -0.144775 0.85972667
0.36529329 -0.14579451 0.85336924
0.36424488 -0.14930779 0.8562243
0.36304569 -0.15217221 0.85988998
0.361094 -0.15392482 0.86371374
0.36243302 -0.14210546 0.84855187
0.36328804 -0.14573605 0.85095012
0.36317536 -0.14931668 0.85335416
0.36060831 -0.15443704 0.85987031
0.3587358 -0.15534033 0.86327577
0.35553354 -0.15625528 0.8660804
0.35344404 -0.15648186 0.86958331
0.35934013 -0.13847128 0.84565425
0.35911155 -0.14135899 0.84658211
0.35172823 -0.15703626 0.86533332
0.35008562 -0.15664837 0.86883122
0.35485801 -0.13708656 0.84510118
0.3542859 -0.1404517 0.8447991
0.34610045 -0.15614778 0.86452925
0.34649608 -0.15570207 0.86805004
0.35207775 -0.13662928 0.84450388
0.34939 -0.13878547 0.84488434
0.34636331 -0.14181155 0.846995
0.3412056 -0.15196364 0.85982436
0.3417303 -0.15427542 0.86378849
0.3425031 -0.15393409 0.86782271
0.3455317 -0.13806969 0.84586233
0.34300664 -0.14018828 0.8484844
0.34131831 -0.14323491 0.85181516
0.33977312 -0.14637642 0.85577387
0.33849502 -0.14894713 0.85943729
0.33860183 -0.15170905 0.86286491
0.33910358 -0.140937 0.85230666
0.3375895 -0.14397785 0.85633558
0.33681107 -0.14609045 0.85910964
0.29183882 -0.13275698 0.84129548
0.29078734 -0.13478465 0.84437299
0.28855875 -0.13176271 0.84109628
0.28768909 -0.13379696 0.84397018
0.28551421 -0.1317402 0.84118319
0.28492135 -0.13267648 0.84268236
0.36305219 -0.15377849 0.8539272
0.36240476 -0.15502809 0.85606974
0.36071101 -0.14558436 0.84705609
0.3614541 -0.1491628 0.84843975
0.36236402 -0.15185705 0.85154712
0.36000896 -0.15676942 0.85722703
0.35735938 -0.15790704 0.85964042
0.35445049 -0.15855381 0.86207896
0.35785142 -0.14522326 0.84549558
0.35783035 -0.14834969 0.84511292
0.35214266 -0.15955159 0.85961241
0.35123691 -0.15834856 0.8620227
0.35356879 -0.14357311 0.84486127
0.35200441 -0.14687671 0.84494609
0.34674191 -0.15713604 0.8583281
0.34698197 -0.15688717 0.86162132
0.35012195 -0.14243035 0.84507102
0.3474547 -0.14554416 0.84611219
0.34390956 -0.14949517 0.84838176
0.34245518 -0.15225424 0.85185444
0.34317777 -0.15421839 0.85713989
0.34336475 -0.15477116 0.86101168
0.34421131 -0.14455137 0.84779114
0.34272239 -0.14700925 0.84965485
0.34146404 -0.14989154 0.85289419
0.34077659 -0.15129283 0.85669911
0.32852182 -0.13686214 0.83402318
0.32841238 -0.13764872 0.83470041
0.31958181 -0.15508893 0.85701066
0.31923813 -0.15554267 0.85796821
0.32632747 -0.13594767 0.83366024
0.32473466 -0.13755463 0.83577901
0.31618375 -0.15091716 0.85257852
0.31704271 -0.15292218 0.85550278
0.31675911 -0.15475987 0.85781682
0.32250375 -0.13566782 0.83336282
0.32023618 -0.13682549 0.83573651
0.31867471 -0.13856843 0.83793288
0.31330872 -0.14915849 0.85156298
0.31294328 -0.15112615 0.85410917
0.31351739 -0.15365124 0.85647207
0.31594923 -0.13649067 0.83557314
0.31382138 -0.1381878 0.83834678
0.31130102 -0.13961908 0.83977526
0.3087883 -0.14568068 0.84688318
0.30932611 -0.146984 0.84974343
0.30920529 -0.14955811 0.85255587
0.30944288 -0.13827026 0.83883393
0.30761063 -0.13909762 0.84087288
0.30562884 -0.1429711 0.84567797
0.30607736 -0.14544472 0.84805268
0.30333865 -0.13738537 0.83790749
0.30302727 -0.13845707 0.84085625
0.30189103 -0.14151868 0.84427774
0.30053979 -0.14364624 0.84587514
0.3010118 -0.13705894 0.83747113
0.29824397 -0.13656087 0.83988869
0.29646254 -0.13967367 0.84345925
0.29781175 -0.142768 0.84530866
0.29314137 -0.13523799 0.83998007
0.29206055 -0.13758846 0.84275806
0.28914142 -0.13290727 0.84038025
0.28801876 -0.13480651 0.84301245
0.28555569 -0.13228592 0.84032303
0.28492087 -0.13346641 0.84219956
0.36235097 -0.15769574 0.85051101
0.36176279 -0.15894423 0.8524437
0.35990855 -0.15322997 0.845676
0.36131087 -0.15579705 0.84863192
0.35901421 -0.16013433 0.85385066
0.35616517 -0.16094157 0.85603422
0.35571253 -0.15102805 0.84068215
0.3573162 -0.15149674 0.84327334
0.35207662 -0.16171885 0.85687023
0.3494567 -0.1632311 0.85661304
0.35254934 -0.14961995 0.84002441
0.35180226 -0.14916787 0.84318286
0.34663287 -0.15942499 0.85625207
0.34600565 -0.16248059 0.85655057
0.34972793 -0.14931558 0.84008992
0.3471649 -0.1499567 0.84289414
0.344439 -0.15013111 0.84586442
0.34201899 -0.15480405 0.85205674
0.34286135 -0.15818673 0.85351497
0.34366116 -0.16146299 0.85557699
0.34367305 -0.15094022 0.84193522
0.34203047 -0.15170313 0.84573245
0.34068555 -0.15443259 0.84957308
0.33996204 -0.15805106 0.85113388
0.33008018 -0.13890958 0.83138919
0.32835454 -0.13996202 0.8341465
0.32016525 -0.15632801 0.85500604
0.31995019 -0.15903172 0.85726792
0.32616585 -0.13680616 0.83033967
0.32543015 -0.14073652 0.83543682
0.32253066 -0.1425918 0.83669764
0.31747785 -0.15296012 0.85007012
0.31869623 -0.15447026 0.85319448
0.31559983 -0.15798488 0.85747439
0.32111815 -0.13711041 0.83018923
0.3189294 -0.13640365 0.83270663
0.31851038 -0.14220195 0.83782631
0.31439951 -0.15021069 0.84803027
0.31054318 -0.1533868 0.85445082
0.31135264 -0.15650226 0.85499763
0.3178941 -0.13820618 0.82989329
0.31513315 -0.13802513 0.83216625
0.3144899 -0.14115669 0.8383683
0.31200054 -0.14241387 0.83869243
0.30974793 -0.14744815 0.84508687
0.31113881 -0.14772142 0.84754938
0.30768374 -0.15286887 0.85158569
0.30906487 -0.15581587 0.85290289
0.31182295 -0.13925058 0.83296937
0.30870491 -0.13954231 0.83546245
0.30710477 -0.14298485 0.83991599
0.30641705 -0.14478518 0.8423996
0.30403742 -0.14836669 0.84691614
0.30552912 -0.15111056 0.84897035
0.30360442 -0.13921764 0.83547568
0.30260152 -0.14326492 0.83980483
0.30208278 -0.14338946 0.83990747
0.29995435 -0.14648359 0.84494001
0.29898563 -0.13836041 0.83438003
0.29731241 -0.14015368 0.83810425
0.29623795 -0.14211693 0.84026361
0.29549927 -0.1453978 0.8436287
0.29435614 -0.13754889 0.83340925
0.2929177 -0.13823953 0.83734316
0.29186347 -0.14094153 0.83957613
0.2906644 -0.14407361 0.84235245
0.29108202 -0.13746116 0.83320403
0.2880556 -0.13792956 0.83543503
0.28667775 -0.14026026 0.83907747
0.28754085 -0.14327593 0.84136754
0.28349778 -0.1369715 0.83484679
0.28240728 -0.13873559 0.83812273
0.27966893 -0.13610221 0.83410048
0.27851284 -0.13783565 0.83745271
0.36215246 -0.1615631 0.84726381
0.36125055 -0.1630971 0.84952027
0.35994065 -0.15595527 0.83867717
0.36000028 -0.1573697 0.84258997
0.36089477 -0.15899217 0.84543312
0.35874298 -0.16347882 0.85123724
0.3558608 -0.16536438 0.8528921
0.3535704 -0.16803609 0.85470265
0.35724875 -0.15376258 0.83816266
0.35842308 -0.15411663 0.84174615
0.35335556 -0.16437577 0.85496205
0.35059166 -0.16702931 0.85528111
0.35241884 -0.15161018 0.83737493
0.34996569 -0.15069313 0.83963102
0.34424275 -0.1624833 0.85459882
0.34547234 -0.16567335 0.85510379
0.34810823 -0.15178236 0.83654821
0.34616205 -0.15134652 0.83887184
0.34077519 -0.1618381 0.85236776
0.34164336 -0.16473901 0.85315806
0.34260231 -0.1526562 0.83859265
0.33980265 -0.1543408 0.84236151
0.3382476 -0.15740423 0.84650803
0.33833551 -0.16123943 0.84993637
0.3376759 -0.15600701 0.84052157
0.33651304 -0.15838814 0.84419125
0.33417997 -0.14320134 0.82495064
0.33413306 -0.14408021 0.82761914
0.32354921 -0.16376257 0.85177553
0.32333532 -0.16515194 0.85465652
0.32205796 -0.16728245 0.85588735
0.33136997 -0.14170781 0.82452452
0.33161917 -0.14183542 0.82805663
0.32851753 -0.14514875 0.83131045
0.32108286 -0.1607177 0.85107243
0.32064539 -0.16339895 0.8556931
0.31900415 -0.16633338 0.85620368
0.32826215 -0.14044997 0.82505143
0.32523257 -0.14094904 0.8270694
0.3238335 -0.14467214 0.83109927
0.32202068 -0.14483494 0.83398694
0.31652945 -0.15573555 0.84788179
0.31664377 -0.15905736 0.84943783
0.31471255 -0.16184513 0.85407925
0.31620276 -0.16467071 0.85583723
0.32082522 -0.13966288 0.8276487
0.32001081 -0.14377306 0.82965374
0.31799826 -0.14511144 0.8340894
0.31305274 -0.15410076 0.84566802
0.31246063 -0.15860176 0.84870106
0.3108834 -0.15937798 0.85303771
0.31790125 -0.13957188 0.82861239
0.31512427 -0.14138523 0.83002335
0.31331253 -0.14432313 0.83306015
0.31095549 -0.14456682 0.83637512
0.30899537 -0.15007806 0.843288
0.30884105 -0.15328813 0.84462643
0.30779529 -0.15583163 0.84864479
0.30890316 -0.15724215 0.85196781
0.30859938 -0.14303021 0.83386993
0.30662817 -0.1452554 0.83573347
0.30487102 -0.14884648 0.84057319
0.30425704 -0.15049779 0.84344822
0.30545595 -0.15268123 0.84715253
0.30331656 -0.14311062 0.83240741
0.30267 -0.14618431 0.83680618
0.30220211 -0.14693637 0.83783954
0.29955399 -0.15064442 0.84174824
0.2985166 -0.14185682 0.83153987
0.29649252 -0.1447506 0.83544517
0.29623252 -0.14577134 0.83673632
0.29484788 -0.14933768 0.84100991
0.29486012 -0.14117743 0.83132428
0.29268211 -0.14178251 0.83259606
0.29183322 -0.14475779 0.8353281
0.29055572 -0.14764625 0.83986926
0.28910634 -0.14186096 0.83286589
0.28734225 -0.14492196 0.83652842
0.28742683 -0.14779747 0.83757037
0.36189362 -0.16493806 0.84366393
0.36087441 -0.16729769 0.84666508
0.35971212 -0.15878777 0.83663851
0.36075819 -0.16087765 0.83890927
0.3615956 -0.1625354 0.84209549
0.3589763 -0.16803153 0.84890169
0.35611749 -0.16993727 0.85049278
0.35340226 -0.17082895 0.85225284
0.35732731 -0.15724602 0.83501452
0.35310063 -0.16888788 0.85292017
0.35038012 -0.17087218 0.85272872
0.35286891 -0.15478177 0.8328737
0.34522367 -0.17082024 0.85297763
0.3486321 -0.15423159 0.8292765
0.34731889 -0.15344758 0.83228517
0.33968288 -0.16887878 0.85202998
0.3389509 -0.17190157 0.85210145
0.34297892 -0.1545406 0.83210814
0.34086052 -0.15419339 0.83541715
0.33608475 -0.16399466 0.8482244
0.33643121 -0.16758905 0.84915644
0.33854482 -0.14788258 0.82307041
0.33828393 -0.14870708 0.8255716
0.33954814 -0.15540414 0.83153886
0.33707061 -0.15530477 0.83405733
0.33492666 -0.15793127 0.83855426
0.33365199 -0.16042121 0.84205616
0.33257011 -0.16414145 0.84553123
0.33068189 -0.16788878 0.84813637
0.32749546 -0.16993423 0.85235333
0.3261053 -0.17194484 0.85355079
0.33572769 -0.14490563 0.82274187
0.33587077 -0.14660534 0.8267917
0.33315843 -0.15038693 0.8284328
0.33352789 -0.15704216 0.83403885
0.32996273 -0.16377771 0.84249806
0.32519224 -0.16600378 0.84872192
0.32546774 -0.16786811 0.85366225
0.32287094 -0.1702884 0.85529375
0.33197221 -0.14365961 0.82230836
0.3286882 -0.14613187 0.82319796
0.32858902 -0.14949118 0.82961226
0.32181069 -0.16343878 0.84727818
0.31774914 -0.16815796 0.85136342
0.31917009 -0.16900826 0.85507023
0.32844642 -0.14247501 0.82360542
0.32587668 -0.1454372 0.82532132
0.32486859 -0.14777727 0.82805645
0.31712183 -0.16311479 0.8475405
0.31585908 -0.16463955 0.85063976
0.31633139 -0.16632995 0.85452485
0.30209929 -0.14655294 0.82968569
0.30235413 -0.14935416 0.83195627
0.30074376 -0.15195425 0.83533967
0.29852235 -0.15344271 0.8386476
0.29980102 -0.14663316 0.82942998
0.29647827 -0.14721474 0.83041817
0.29451114 -0.15001203 0.83373427
0.29485425 -0.15249135 0.83731508
0.29369846 -0.14358188 0.82947195
0.29263669 -0.14683805 0.82981962
0.29137018 -0.14944634 0.83392459
0.29010892 -0.15050611 0.83710748
0.28756654 -0.14535393 0.82924634
0.28571165 -0.14780471 0.83325696
0.28577238 -0.14912879 0.83605808
0.28285339 -0.145016 0.82813358
0.2812376 -0.14714547 0.83196265
0.27849704 -0.14436309 0.8269701
0.27699327 -0.1466984 0.83055359
0.36188892 -0.16858764 0.84089673
0.36079022 -0.17113391 0.8441667
0.35880044 -0.16196597 0.83408308
0.36002189 -0.1645287 0.83573949
0.36078838 -0.16720062 0.83874565
0.35838732 -0.17235981 0.84488606
0.35543618 -0.17360252 0.8472473
0.35258976 -0.1747086 0.84843415
0.35607985 -0.15910962 0.82765818
0.35683781 -0.16094023 0.83154476
0.35243911 -0.17602994 0.84709471
0.34973744 -0.17495942 0.8496784
0.34667394 -0.17771167 0.85142154
0.35329917 -0.1571801 0.82645613
0.35370922 -0.15720871 0.83020371
0.34502479 -0.17388883 0.85173076
0.34336272 -0.17716283 0.8520816
0.3485668 -0.15566312 0.82638824
0.33894259 -0.17509088 0.85138357
0.34292018 -0.15282936 0.82025057
0.34300148 -0.15564403 0.82440662
0.34215254 -0.15679379 0.828152
0.3345803 -0.17183545 0.84734708
0.33343723 -0.17510244 0.84933388
0.3306644 -0.17761929 0.85194749
0.34021345 -0.15020844 0.8199234
0.34002417 -0.15219368 0.82480192
0.33782193 -0.15623206 0.82744449
0.33666307 -0.15620238 0.83080173
0.33229539 -0.1615932 0.83655727
0.33204708 -0.16262284 0.83707333
0.33098018 -0.16752474 0.84497106
0.33051178 -0.17054443 0.84610665
0.329689 -0.17294459 0.85102987
0.32723248 -0.17611246 0.85317767
0.33592087 -0.14878713 0.81960601
0.33326715 -0.15450773 0.82629609
0.33292466 -0.15806553 0.83046067
0.33187085 -0.16112867 0.83406204
0.33016413 -0.16419667 0.83825719
0.32831693 -0.16677237 0.84234816
0.32578975 -0.16925959 0.84543175
0.32307565 -0.17428151 0.85270578
0.33224264 -0.14890137 0.81989235
0.32971394 -0.15039277 0.82192969
0.32832709 -0.15274367 0.82539827
0.3206915 -0.16822451 0.84489721
0.31937012 -0.17074125 0.84849089
0.32028019 -0.17304261 0.85109043
0.32667229 -0.1488955 0.82426906
0.32603824 -0.15032803 0.82539731
0.31823501 -0.15942593 0.83147973
0.31740391 -0.16076376 0.83336669
0.31796277 -0.1666777 0.84604114
0.31736425 -0.16734582 0.84795576
0.31483495 -0.15670659 0.83032036
0.31337899 -0.159528 0.83385289
0.31228155 -0.15661538 0.83028376
0.31133884 -0.15904093 0.83311117
0.30066043 -0.14912336 0.82769102
0.30023196 -0.15187958 0.82840461
0.2985428 -0.1548177 0.83283734
0.29743049 -0.15543319 0.83525461
0.29954737 -0.14933482 0.82728815
0.29648158 -0.15195137 0.82785887
0.29502186 -0.1546592 0.83120304
0.29539645 -0.15509662 0.83487624
0.29316705 -0.15323283 0.82723099
0.29221696 -0.15481451 0.8301872
0.28177217 -0.14639127 0.82620436
0.2787002 -0.14871684 0.83026081
0.27821681 -0.14612377 0.82543015
0.27667868 -0.14804366 0.82930124
0.36106724 -0.17189233 0.83933079
0.36037484 -0.17339465 0.84114802
0.35869372 -0.16792589 0.83342218
0.35865086 -0.1714486 0.83637476
0.35725701 -0.17489438 0.84040916
0.35436189 -0.17628236 0.8440854
0.35569158 -0.16091412 0.8267386
0.35616523 -0.16421169 0.8280443
0.35678959 -0.16773103 0.83073723
0.35145625 -0.17786993 0.84399438
0.34870225 -0.17885251 0.84696782
0.34692618 -0.1787582 0.84997475
0.35239026 -0.16050351 0.82423013
0.35307261 -0.16341327 0.82504481
0.34456533 -0.18015602 0.84680945
0.34262305 -0.17973812 0.84916115
0.34741831 -0.15883404 0.81873232
0.34927422 -0.15878743 0.82131368
0.33809581 -0.18067364 0.8496834
0.33534631 -0.18216656 0.84926587
0.3440024 -0.15552756 0.8178528
0.34460363 -0.15669696 0.82183635
0.3403255 -0.15851969 0.82645255
0.33293268 -0.17296033 0.84502459
0.33397803 -0.17788835 0.84933847
0.33147991 -0.18094607 0.85063672
0.34053302 -0.15306579 0.8161639
0.33764672 -0.15884119 0.82574362
0.33112809 -0.16720074 0.83317286
0.3304396 -0.17285469 0.84365237
0.32679838 -0.18046927 0.85164213
0.33568582 -0.15239075 0.81583136
0.33213681 -0.15831387 0.8246569
0.33172995 -0.16154847 0.82709581
0.33065188 -0.16458391 0.83136994
0.32910711 -0.16730508 0.83491129
0.32695541 -0.17045079 0.83848959
0.32564184 -0.1717273 0.84192836
0.32211125 -0.17877971 0.85009712
0.33202788 -0.15236865 0.81681222
0.33022553 -0.15416965 0.81879807
0.32965603 -0.15632604 0.82213998
0.32261705 -0.16424567 0.82902479
0.32176411 -0.16601621 0.83157074
0.32146183 -0.17242131 0.84306115
0.31979281 -0.17498827 0.84558076
0.31977341 -0.17684838 0.84821635
0.31966591 -0.16002232 0.82617104
0.32074028 -0.16187939 0.82904029
0.31882012 -0.16473836 0.83293283
0.31609243 -0.16713481 0.83356404
0.31656626 -0.15824865 0.82543868
0.31587043 -0.15765879 0.82782233
0.31361684 -0.16311143 0.83402091
0.31267911 -0.16631141 0.83409685
0.31164938 -0.15679598 0.82300484
0.31014776 -0.15816554 0.82731962
0.30862725 -0.1614821 0.83151019
0.30754736 -0.16525841 0.834117
0.30893075 -0.15813805 0.82293302
0.30697137 -0.15963276 0.82667005
0.30604777 -0.16219202 0.82955277
0.3055349 -0.16445799 0.83224308
0.29523081 -0.15497121 0.82561511
0.29405504 -0.15737379 0.82857722
0.29145131 -0.15503913 0.82423741
0.29021254 -0.15692648 0.82722062
0.28813446 -0.15548646 0.82345408
0.28690469 -0.15724885 0.82606894
0.35590875 -0.17474419 0.8345632
0.35529476 -0.17681541 0.83682388
0.35448676 -0.16806126 0.82599384
0.35438851 -0.17102192 0.82845819
0.35445011 -0.17470884 0.83189952
0.35260907 -0.17880896 0.83661681
0.34987208 -0.18001905 0.84005135
0.3477546 -0.18127269 0.84301418
0.35047448 -0.16368559 0.82221794
0.35159603 -0.16692142 0.82356817
0.35198104 -0.17125899 0.82557857
0.34654212 -0.18178381 0.8391903
0.3438693 -0.18211278 0.84302104
0.34131402 -0.18181759 0.84570217
0.34719518 -0.15989289 0.81756288
0.34843346 -0.1627664 0.81925756
0.34917286 -0.16660018 0.82107586
0.34040776 -0.18336047 0.84301096
0.33800879 -0.18351911 0.84601384
0.3350203 -0.18391764 0.84824932
0.344345 -0.15889274 0.81634098
0.3430759 -0.16221638 0.81678736
0.33214289 -0.18378328 0.84446037
0.332032 -0.18362732 0.8482123
0.3395173 -0.15781061 0.81417125
0.33981898 -0.16227373 0.81619906
0.33492142 -0.16460831 0.81990415
0.33434582 -0.16710077 0.8248654
0.33275113 -0.16796024 0.8262592
0.32949421 -0.17356691 0.833601
0.32996133 -0.17520256 0.83507401
0.32749188 -0.17923339 0.83852732
0.32896698 -0.18329471 0.84330845
0.32651746 -0.18350832 0.84714603
0.33514532 -0.15686391 0.81393868
0.33274102 -0.16006988 0.81546366
0.33203468 -0.1625158 0.82003474
0.33226907 -0.16410196 0.82520789
0.32948819 -0.16712049 0.82776248
0.3271701 -0.17082784 0.83246547
0.32779896 -0.17324609 0.83651406
0.32452047 -0.17724748 0.83892149
0.3223666 -0.18067722 0.84211016
0.32264072 -0.18202822 0.84614164
0.33212087 -0.15504509 0.81558901
0.33096573 -0.15758368 0.81689543
0.33001396 -0.15927175 0.81945264
0.32373565 -0.16591306 0.82329518
0.32452473 -0.16674642 0.82693511
0.32316527 -0.16977921 0.83075309
0.32050428 -0.17216043 0.83151138
0.3217341 -0.17580128 0.84090388
0.32068744 -0.17809373 0.84329879
0.32077423 -0.16337277 0.82279688
0.32205755 -0.16419248 0.82576311
0.31948784 -0.16881754 0.83171421
0.31687769 -0.17088617 0.83224672
0.31671053 -0.16082796 0.82074052
0.31193295 -0.17002666 0.83271194
0.31297976 -0.15786287 0.81942981
0.31250098 -0.1588534 0.8195864
0.30714768 -0.16860981 0.83236855
0.308043 -0.1599391 0.82050437
0.30477458 -0.16160338 0.82317388
0.30354854 -0.16478476 0.82701004
0.3046537 -0.1668366 0.83015209
0.2901099 -0.15746719 0.82240289
0.28893146 -0.15904339 0.82457948
0.28800309 -0.15735711 0.82158172
0.28668055 -0.15911701 0.82430714
0.35153392 -0.17378004 0.82811558
0.35238916 -0.17696849 0.83140141
0.35163522 -0.17904861 0.83392924
0.34881869 -0.18020675 0.836357
0.34968609 -0.16970079 0.82255882
0.34934136 -0.17282078 0.82518262
0.34790546 -0.17710346 0.82862508
0.34642258 -0.18001288 0.83197379
0.34476799 -0.18175709 0.83684969
0.34265479 -0.18320936 0.83971155
0.34608305 -0.16620946 0.8177917
0.34617567 -0.16914749 0.82012773
0.34455904 -0.17314985 0.82310438
0.34320965 -0.17689823 0.82655054
0.34173036 -0.17984669 0.83008194
0.34001756 -0.18199417 0.83469975
0.33866066 -0.18389666 0.83911514
0.33641464 -0.18519014 0.84223115
0.34320432 -0.16551398 0.81714493
0.3414776 -0.16894162 0.81887358
0.34042734 -0.17233309 0.82078135
0.33894396 -0.17785896 0.82693702
0.33964521 -0.17871742 0.82794183
0.33557063 -0.18231755 0.83353776
0.33408609 -0.18351191 0.83773261
0.33343479 -0.18459442 0.84179521
0.33724022 -0.16041698 0.8134203
0.3378382 -0.16282882 0.81588775
0.33677563 -0.1664355 0.81861103
0.33448508 -0.17016767 0.82194108
0.33275637 -0.17325139 0.82223058
0.32988206 -0.17849723 0.82903689
0.33010191 -0.17909415 0.83302474
0.32915476 -0.18125924 0.83756679
0.32793224 -0.1827677 0.84143156
0.32519302 -0.18400858 0.84388244
0.33598936 -0.15995972 0.81325817
0.33475894 -0.16135046 0.81449866
0.3312512 -0.17044069 0.82307643
0.32907522 -0.17130931 0.82289547
0.32678789 -0.1764603 0.82881522
0.32796592 -0.17681257 0.83113432
0.32407129 -0.18268999 0.84221351
0.32465649 -0.16908997 0.82115668
0.32613438 -0.16941959 0.82265174
0.32288605 -0.17416126 0.83010477
0.32146412 -0.1758052 0.82953858
0.32026085 -0.1658974 0.81835532
0.31556723 -0.1751474 0.83075517
0.31709778 -0.16530071 0.8171224
0.31211066 -0.17490745 0.83005381
0.31163165 -0.16390675 0.81701285
0.30703151 -0.1725814 0.82847452
0.30681092 -0.16327088 0.81707776
0.30342674 -0.16466197 0.81916291
0.30159867 -0.16875367 0.824395
0.30295298 -0.17116672 0.82687813
0.30223161 -0.16618335 0.82020974
0.30151433 -0.16747193 0.82228786
0.34105885 -0.17702678 0.82537133
0.33943221 -0.18007489 0.82936019
0.3392193 -0.1742017 0.82203895
0.33835948 -0.17630079 0.82449347
0.33662564 -0.17965977 0.82883763
0.33522448 -0.1814404 0.83143908
0.33631763 -0.17360222 0.82165354
0.33344167 -0.17551821 0.82420927
0.33226383 -0.17796613 0.82736617
0.33272609 -0.18058597 0.83067018
0.32844883 -0.17450304 0.82286763
0.32691035 -0.17701569 0.82595706
0.32395348 -0.17199829 0.81852889
0.32499385 -0.17469727 0.82024074
0.3233591 -0.17812385 0.82504815
0.32048905 -0.17861369 0.8270852
0.3188749 -0.16933286 0.8126905
0.31984612 -0.16941485 0.81538004
0.31518739 -0.17891912 0.82794255
0.31307232 -0.18023674 0.82879174
0.31846228 -0.16862707 0.81312466
0.31652737 -0.16845667 0.8146776
0.3114793 -0.17819257 0.8275069
0.31244758 -0.18000701 0.82882601
0.31083232 -0.16807841 0.81443119
0.3067525 -0.17619109 0.82526058
0.30642998 -0.16730762 0.81427413
0.30311155 -0.16903509 0.81656396
0.30159682 -0.17227764 0.82064277
0.30284271 -0.17485286 0.8236903
0.30228937 -0.16755427 0.81863946
0.3015447 -0.16906899 0.82042664
0.3219485 -0.17734535 0.81845862
0.32072955 -0.17965783 0.82158661
0.31891039 -0.17431305 0.81416893
0.31902066 -0.17792225 0.81585103
0.31743482 -0.18118022 0.82028145
0.3153891 -0.18144646 0.82347918
0.31520623 -0.17324251 0.81239915
0.31395316 -0.18241858 0.81984276
0.31091645 -0.1814737 0.8231324
0.31044045 -0.17233044 0.81219298
0.30780098 -0.17439802 0.81189483
0.30482835 -0.1795098 0.81876892
0.30655628 -0.17971337 0.82172239
0.3067973 -0.1709547 0.8128019
0.30467388 -0.17339563 0.81389648
0.30311939 -0.17628667 0.81765771
0.30374593 -0.17761123 0.82108331
0.31624275 -0.17987293 0.81536406
0.31587046 -0.18121746 0.81734329
0.314542 -0.17636244 0.81188202
0.31204084 -0.1802596 0.81270874
0.31097606 -0.18240249 0.81516838
0.3104105 -0.18273243 0.81951779
0.31163418 -0.17577331 0.81119299
0.30844069 -0.17956015 0.81196612
0.30701023 -0.18161614 0.81456476
0.307776 -0.18191494 0.81904685
0.30560508 -0.17689721 0.81344819
0.30496332 -0.17866379 0.81540221
0.32437044 -0.19232921 0.81509316
0.32413518 -0.19344802 0.81614822
0.32270652 -0.19169131 0.81438363
0.3103407 -0.18341553 0.81122434
0.30998799 -0.18434232 0.81190026
0.30819854 -0.18293932 0.80995268
0.30726612 -0.18436916 0.81193209
0.30509889 -0.18216458 0.81045526
0.30490419 -0.18275598 0.81113321
0.32830536 -0.1952205 0.81513059
0.32800782 -0.19606054 0.81599575
0.32518354 -0.19397417 0.81335276
0.32476151 -0.19514483 0.81576347
0.32075942 -0.19140878 0.80891585
0.3207733 -0.19268256 0.81212139
0.32153726 -0.19451392 0.81463486
0.31762755 -0.19109598 0.80707806
0.31744173 -0.19267787 0.80985564
0.31166744 -0.18848965 0.80636239
0.31040668 -0.18947375 0.80800581
0.30790383 -0.18675207 0.80616152
0.30723205 -0.18817702 0.80833477
0.31995109 -0.19352096 0.80674767
0.31996381 -0.19514744 0.80892223
0.3166711 -0.19283144 0.80467755
0.31596968 -0.19464181 0.80733895
0.31195748 -0.19184117 0.80335134
0.31155232 -0.19241595 0.8061235
0.30859086 -0.1903913 0.80408233
0.30854431 -0.19093738 0.80575854
