# .PCD v0.7 - Point Cloud Data file format
VERSION 0.7
FIELDS x y z
SIZE 4 4 4
TYPE F F F
COUNT 1 1 1
WIDTH 1190
HEIGHT 1
VIEWPOINT 0 0 0 1 0 0 0
POINTS 1190
DATA ascii
0.038354874 0.18089157 0.47361428
0.049307361 0.1693586 0.50300497
0.030864615 0.18366969 0.4671765
0.030686671 0.18320683 0.46828911
0.036409106 0.18097717 0.47394866
0.0476459 0.16890749 0.50452209
0.047520787 0.16609511 0.51161921
0.047873281 0.16580653 0.51275712
0.027721612 0.18197413 0.47280502
0.028392134 0.1806412 0.47571486
0.030298477 0.17916872 0.48047256
0.038847722 0.17000835 0.50347757
0.040694434 0.16762415 0.50904369
0.043027163 0.16681774 0.51089293
0.046745054 0.16586329 0.51278234
0.026231688 0.18178196 0.47349116
0.027627381 0.18028693 0.47673696
0.028449789 0.17905854 0.48065403
0.037335552 0.16982952 0.5042305
0.038994905 0.16796079 0.50800323
0.040138919 0.16701204 0.51101464
0.057053693 0.17760776 0.46650767
0.058284119 0.17688285 0.46935865
0.066504091 0.16787137 0.49185076
0.067239493 0.16671725 0.49416608
0.053830788 0.17953138 0.46700406
0.056124572 0.17810127 0.47097662
0.055748392 0.17572938 0.4736675
0.061902143 0.16892487 0.48998436
0.064195134 0.16925 0.49246034
0.065156415 0.16759363 0.49688751
0.046527397 0.1788522 0.46594751
0.048879854 0.17986353 0.46753532
0.05050173 0.17789811 0.47323573
0.052277662 0.17548123 0.47451863
0.05935923 0.16852024 0.49085617
0.058949713 0.16932635 0.49441308
0.060993455 0.16711783 0.49976289
0.059323929 0.16457409 0.50138682
0.043803468 0.17947686 0.46660778
0.044437237 0.18027332 0.47035179
0.046352081 0.17635641 0.47460353
0.054450732 0.16809516 0.49548987
0.056423612 0.16798812 0.50106847
0.056892209 0.16513602 0.50310171
0.038007587 0.18028149 0.46771383
0.039976876 0.18090788 0.47192305
0.041600287 0.17619702 0.47709605
0.049063791 0.1683242 0.49695554
0.051809542 0.16857612 0.50307572
0.052495204 0.16502675 0.50578171
0.031249397 0.18154126 0.46590891
0.032357782 0.18056808 0.46877229
0.034004305 0.18024762 0.47405347
0.037391942 0.17640594 0.47867316
0.044872906 0.16858602 0.49860495
0.046566267 0.16808785 0.50582528
0.047832448 0.16448599 0.50900704
0.048314974 0.16353229 0.51188666
0.029501211 0.18212172 0.4670504
0.028591497 0.17985848 0.47021094
0.030433666 0.17789887 0.47493541
0.031765692 0.1758965 0.47974548
0.039584264 0.16755724 0.50089663
0.041708127 0.16607165 0.50529224
0.043906413 0.16417803 0.50997818
0.046415411 0.16412115 0.51256609
0.025186053 0.18005143 0.4725154
0.027131608 0.17824054 0.47673678
0.027556073 0.17666158 0.48037407
0.036146335 0.16748899 0.50347042
0.038252208 0.16632204 0.50671315
0.039352983 0.16492207 0.51094496
0.056978777 0.1749047 0.46529445
0.058345053 0.173829 0.46807277
0.066521265 0.16490328 0.49069038
0.067354999 0.16446349 0.49334157
0.053874541 0.17518443 0.46461225
0.058088943 0.1722739 0.47024316
0.056250475 0.17259696 0.47263008
0.062073357 0.16633281 0.48870018
0.064823136 0.16482562 0.48872435
0.065600656 0.16288956 0.49517435
0.046209663 0.17737022 0.46557742
0.048535679 0.1754508 0.46499968
0.049481653 0.17172047 0.47336257
0.051967513 0.17220822 0.47365108
0.058641389 0.16561452 0.48989522
0.056683846 0.16514887 0.49129096
0.060998343 0.1621123 0.49848062
0.059159953 0.16369361 0.50098419
0.042909279 0.17571814 0.46563751
0.043557975 0.17418347 0.46639046
0.046002794 0.17266059 0.47409597
0.053383116 0.16489771 0.4936499
0.056700911 0.16131058 0.50029117
0.056094177 0.16178381 0.50177675
0.038039804 0.17642863 0.46649656
0.039353155 0.17328188 0.46940845
0.041302599 0.17272705 0.47430152
0.04981583 0.16406131 0.49609634
0.050910622 0.1610761 0.50019431
0.052477334 0.16146991 0.50410825
0.033721883 0.17698032 0.46776196
0.034574069 0.17446841 0.47147062
0.03605853 0.17302886 0.47578239
0.044804413 0.16396452 0.49865654
0.046313941 0.16218123 0.5025959
0.048469901 0.16176549 0.50641799
0.02972427 0.17651579 0.47037277
0.031316981 0.1752691 0.47186571
0.032342434 0.17351601 0.47716692
0.040995218 0.16438305 0.5004462
0.043191165 0.1625585 0.50456703
0.043512776 0.16199288 0.50696158
0.056741714 0.17200777 0.46507236
0.057513971 0.17144626 0.46658888
0.052854337 0.17075202 0.46337891
0.055885352 0.16837655 0.46763164
0.054632891 0.16877295 0.47096244
0.060783479 0.1623877 0.48813468
0.063560553 0.160322 0.48890689
0.064250395 0.15859994 0.49364233
0.04825924 0.17034568 0.46444118
0.048973057 0.16750377 0.47019812
0.051993962 0.16736302 0.47183827
0.057989873 0.16103503 0.4881953
0.056644965 0.15911801 0.49053636
0.060362197 0.15792939 0.4959974
0.044777595 0.17098248 0.46718866
0.046744 0.16906525 0.47026247
0.055016153 0.16011372 0.49314812
0.055949006 0.15923297 0.49689689
0.052328266 0.16586074 0.46347994
0.054330207 0.16437072 0.46578944
0.06250228 0.15551347 0.48825374
0.0627736 0.15546805 0.49163067
0.04930108 0.16550225 0.46411091
0.050023258 0.16387665 0.46813717
0.051782526 0.16471466 0.47018445
0.058291424 0.15805534 0.48744631
0.057779279 0.15583694 0.48899797
0.059980918 0.15431759 0.49266097
0.046974618 0.16257071 0.46605331
0.056090347 0.15332934 0.49066183
0.056414034 0.15234295 0.49186349
0.051547367 0.16108543 0.46276051
0.053097278 0.1598696 0.46413752
0.061617788 0.15090813 0.48707789
0.048668426 0.16041246 0.46209446
0.050656065 0.15854505 0.4664692
0.058136176 0.15070051 0.48631477
0.059667945 0.14908507 0.49082851
0.045019936 0.15985875 0.46342319
0.045999091 0.15880206 0.46639839
0.054043345 0.14952737 0.48883551
0.055669963 0.14871 0.49211183
0.052322939 0.15556778 0.46286556
0.060697541 0.14719227 0.48558789
0.048224617 0.15592262 0.45994484
0.050999269 0.15407783 0.46402234
0.049714867 0.15254022 0.46656239
0.055893548 0.14589268 0.48297098
0.059049927 0.14578876 0.48502362
0.059283469 0.14410307 0.48954314
0.043232258 0.15576273 0.461386
0.044636279 0.15449965 0.46662638
0.046992082 0.1522152 0.46752712
0.052753769 0.14581187 0.48408678
0.05211151 0.14658147 0.48743907
0.054817017 0.14381805 0.49177352
0.040702425 0.15356094 0.46264559
0.041769691 0.15258917 0.46552324
0.050003558 0.14369978 0.48813474
0.051350258 0.14279416 0.49124175
0.047852788 0.1515442 0.45777133
0.051247988 0.14988911 0.46171835
0.050145619 0.14836031 0.46541524
0.055848014 0.14242236 0.48095495
0.059131026 0.14138959 0.48337561
0.059212096 0.13935041 0.48823649
0.042435743 0.15170352 0.45819467
0.046502855 0.14806426 0.46731499
0.051800162 0.14251317 0.48181507
0.054873925 0.13860053 0.49144384
0.038646951 0.1503633 0.46117821
0.03940542 0.14907314 0.46544829
0.041717432 0.1468235 0.46782744
0.047790553 0.14126909 0.48380524
0.047586374 0.14042272 0.48794934
0.04990283 0.13849014 0.49134928
0.036219589 0.14755048 0.46320966
0.03675694 0.14713603 0.46414754
0.044918112 0.13885435 0.48483795
0.045617204 0.13788319 0.48823035
0.046705112 0.1368762 0.49059495
0.047395434 0.14678985 0.45662314
0.049954042 0.14517209 0.46034658
0.049376395 0.14401858 0.46396941
0.055271238 0.13799687 0.47964084
0.057816662 0.1367113 0.4820509
0.058332525 0.13509226 0.48638082
0.042223442 0.14733604 0.45599198
0.046155971 0.14293399 0.4658573
0.051302023 0.13760696 0.47961688
0.055022828 0.13351035 0.48976201
0.037622239 0.14663911 0.45798099
0.037625249 0.14638342 0.46539438
0.041665558 0.14270952 0.46717003
0.046883699 0.13724357 0.48135984
0.049919371 0.13373716 0.49137431
0.034023151 0.14538908 0.46129748
0.034735981 0.1437608 0.46534863
0.037391614 0.14231423 0.4672766
0.043375354 0.13609065 0.48367614
0.042657174 0.13524988 0.48698062
0.045119695 0.13349634 0.49093419
0.03060727 0.14320412 0.46273193
0.031152222 0.14255948 0.46492243
0.040035259 0.13341169 0.48861477
0.041170221 0.13211323 0.49082828
0.046169564 0.14321427 0.45663971
0.047701363 0.14186609 0.45959827
0.047943696 0.14110759 0.46263164
0.055700891 0.13320954 0.48171085
0.056771573 0.13241506 0.48480678
0.042480305 0.14210244 0.45634565
0.044545148 0.13931134 0.45996928
0.045263253 0.13964401 0.46377057
0.051342376 0.13370943 0.47936964
0.052691206 0.130798 0.48198345
0.053923037 0.13044755 0.48648006
0.037964053 0.14152572 0.45657173
0.041349847 0.13761215 0.46082485
0.041072149 0.13867123 0.46530914
0.046749484 0.13260427 0.48024872
0.049207672 0.12903604 0.48268989
0.049887586 0.12890851 0.48851058
0.032719262 0.14150366 0.45846486
0.03443826 0.13975051 0.46612743
0.036005963 0.1377157 0.46588963
0.041864492 0.1313836 0.48251861
0.041527424 0.13297282 0.48437423
0.044992767 0.12875254 0.49068171
0.028876364 0.14026845 0.4611724
0.029441535 0.13902369 0.46544454
0.03239622 0.13703799 0.46659967
0.038726214 0.13058479 0.48373866
0.037545137 0.13083144 0.48711628
0.040085956 0.1286145 0.49075019
0.027107991 0.13743135 0.46388042
0.036229745 0.12831515 0.48870403
0.036753178 0.12787332 0.48972708
0.036856014 0.13651681 0.45726484
0.038608387 0.13548832 0.46036208
0.039118517 0.1339526 0.46337318
0.045340925 0.12734321 0.47956634
0.046848323 0.12674138 0.48264077
0.047380641 0.12529092 0.48592579
0.032421447 0.13658744 0.45696047
0.036621526 0.13565633 0.46022362
0.035760481 0.13363975 0.46493727
0.041652694 0.1275669 0.48041648
0.045351312 0.1262881 0.48372784
0.044639833 0.12414435 0.48845834
0.0286045 0.13596326 0.45965856
0.028813371 0.13417104 0.46415338
0.032275032 0.13334812 0.46571308
0.038058445 0.12707153 0.4821198
0.036642455 0.12536103 0.48547187
0.039812785 0.12430655 0.4891099
0.027049558 0.13622949 0.46349853
0.035880886 0.12683025 0.48727554
0.036938787 0.1263952 0.48952237
0.056797847 0.12975582 0.45369616
0.05862049 0.1290195 0.45626432
0.060657375 0.12721913 0.46043625
0.062286656 0.1257931 0.46472767
0.0628016 0.12401757 0.46945891
0.063231967 0.12188867 0.4715699
0.053165454 0.12967396 0.45267034
0.062071733 0.12335698 0.47104588
0.061406553 0.12180101 0.47484839
0.060380049 0.1199338 0.47788706
0.049766671 0.12983435 0.45171103
0.059247814 0.12010571 0.47730502
0.058914259 0.11929357 0.47891247
0.041136567 0.12997377 0.45420331
0.042895816 0.13031414 0.45649686
0.044077355 0.12827204 0.46055138
0.049277905 0.12269031 0.47526297
0.051355347 0.12106607 0.47901499
0.05101997 0.1193524 0.48109826
0.037713226 0.13157795 0.45491135
0.040928289 0.13220713 0.45810345
0.041024961 0.12831967 0.46326274
0.04521656 0.12365682 0.47504345
0.049251128 0.12309676 0.48059338
0.048272874 0.12019628 0.48370308
0.032493927 0.13175905 0.4554545
0.035947151 0.1285021 0.46441939
0.041017756 0.1230894 0.47711167
0.044267662 0.11935408 0.48638394
0.030048909 0.13149345 0.45798767
0.030378284 0.12981524 0.46128827
0.032251813 0.12823504 0.46390629
0.037972808 0.12213338 0.47995293
0.03842688 0.1211678 0.48353291
0.040697541 0.120074 0.48657328
0.056600526 0.12647954 0.4511008
0.059271406 0.12564066 0.45447442
0.061541572 0.12379172 0.4587734
0.062560238 0.1223567 0.46318918
0.063932806 0.12023237 0.46781459
0.063810915 0.11849066 0.47048917
0.050324973 0.12778911 0.45002496
0.053437497 0.12736127 0.45138922
0.055390302 0.12485905 0.45456767
0.058202166 0.12230794 0.45961928
0.059671622 0.12080985 0.46378604
0.059529167 0.11974628 0.46922791
0.061834708 0.11866607 0.47366133
0.060456827 0.11664896 0.47681999
0.047431625 0.12828705 0.45047918
0.048136152 0.1261805 0.45355681
0.048877139 0.12371741 0.45734397
0.049263567 0.12147532 0.45969149
0.05434062 0.1181328 0.4710789
0.0562068 0.11804377 0.47500852
0.05806002 0.11650059 0.47892553
0.041986361 0.12711312 0.45141077
0.044982523 0.12766057 0.45426798
0.046203379 0.12554806 0.45986649
0.045687806 0.12274572 0.46217212
0.048693269 0.11978675 0.46973315
0.050821081 0.12048661 0.47231838
0.053684335 0.11815715 0.47769353
0.052820992 0.11588129 0.48097777
0.037819408 0.12680185 0.45190671
0.039894011 0.12345208 0.46309906
0.042523775 0.12318807 0.46308625
0.04552225 0.11973401 0.47128066
0.043500017 0.11943601 0.47284934
0.049013827 0.11471393 0.48253247
0.03270961 0.12691242 0.45468533
0.032437902 0.12447916 0.45790711
0.035661012 0.12380674 0.46242002
0.040806741 0.11842036 0.47568068
0.040915094 0.11528603 0.48078275
0.043557785 0.11539552 0.4839766
0.031464111 0.12594919 0.46041864
0.032517247 0.12568699 0.46255928
0.038577236 0.11837058 0.47879332
0.039049193 0.11772821 0.48103172
0.040962052 0.11708777 0.48432091
0.056532055 0.12225977 0.44932699
0.060104571 0.1209117 0.45223811
0.062502258 0.11909336 0.45643356
0.063668199 0.11777288 0.46086657
0.064687043 0.11600956 0.46557829
0.064093642 0.11408184 0.46986037
0.051223285 0.12280046 0.4470464
0.05371464 0.12297978 0.44792867
0.053714234 0.12045638 0.45505822
0.056187309 0.11824924 0.45802703
0.058039933 0.11703691 0.46299389
0.057276953 0.11517037 0.46668327
0.062541045 0.11326411 0.4728058
0.06101704 0.1119273 0.47511917
0.046464276 0.12269952 0.44745278
0.050934248 0.12324434 0.45388633
0.051286265 0.12103258 0.45651808
0.050190985 0.11886135 0.45950311
0.052498408 0.11622463 0.46632347
0.055812627 0.1162672 0.46884823
0.058249734 0.11138305 0.47729808
0.041453745 0.12335633 0.44855741
0.046642043 0.1189408 0.46114719
0.048658215 0.11620724 0.46755308
0.053624623 0.11040967 0.48001319
0.036468804 0.12355208 0.45047319
0.040158167 0.11840127 0.46080333
0.040951084 0.11745705 0.46312338
0.042785574 0.11553261 0.46792608
0.043890383 0.11437023 0.47128212
0.04874438 0.11042565 0.48171854
0.03312042 0.12242186 0.45287108
0.03364893 0.12075658 0.45648298
0.035987012 0.11965123 0.46093902
0.037705015 0.11776859 0.46532741
0.04013446 0.11594036 0.46939635
0.040718667 0.11384009 0.47447163
0.041732278 0.11184122 0.47883621
0.044745781 0.11139905 0.48180601
0.063401915 0.11438317 0.45496443
0.064502351 0.11173303 0.45768648
0.056500003 0.11740753 0.44759068
0.060139008 0.11599791 0.45042434
0.062349051 0.11476796 0.45420995
0.063967131 0.11352177 0.4590241
0.065290473 0.110329 0.46400166
0.064556316 0.10924332 0.46845478
0.050809696 0.11849695 0.44568396
0.053323023 0.11793011 0.44610229
0.053623881 0.11675666 0.45570445
0.054468159 0.113764 0.45746285
0.055938911 0.11237322 0.46169639
0.063083731 0.10854457 0.47125116
0.061389156 0.10717721 0.47319081
0.046828121 0.11879576 0.44617254
0.050970595 0.1137127 0.45819929
0.053211309 0.11151841 0.46317151
0.057859354 0.10660604 0.47591469
0.041499283 0.11808947 0.44733775
0.046068747 0.11318484 0.45873028
0.048815012 0.11089605 0.46566969
0.046908565 0.10857932 0.46674728
0.052997202 0.10614838 0.47846553
0.037273373 0.11821284 0.44924995
0.036281236 0.11499066 0.45248392
0.04126757 0.1143674 0.45848534
0.041811544 0.11257944 0.46227175
0.042605422 0.1110584 0.4666433
0.045211855 0.11029489 0.46889752
0.046031505 0.10550328 0.47670138
0.048514884 0.10629047 0.47911701
0.034694329 0.11842908 0.45218709
0.035494622 0.11683708 0.4546572
0.037083134 0.11473835 0.45890385
0.038643237 0.11333562 0.46246535
0.040775049 0.11163747 0.46704909
0.041506998 0.10947121 0.4719891
0.04359547 0.10791821 0.47572392
0.044595186 0.10818619 0.47910756
0.062064245 0.10893969 0.44905445
0.063151918 0.10929187 0.45254976
0.064310513 0.10796721 0.45576531
0.065436922 0.10533787 0.45901939
0.056644246 0.11240272 0.44589508
0.059641562 0.11190951 0.44847825
0.062430613 0.10984481 0.45280638
0.064409725 0.10708177 0.45804691
0.065100811 0.10640316 0.46196213
0.064305201 0.10464665 0.46668494
0.049949363 0.1136093 0.44426945
0.05269501 0.11304165 0.44460145
0.062738813 0.10325146 0.46938169
0.060759738 0.10298461 0.47147244
0.046439618 0.11351608 0.44509095
0.050732922 0.10927696 0.45800805
0.051702447 0.10813761 0.46104372
0.057169322 0.10216656 0.47358996
0.042039648 0.11300552 0.44660473
0.039950483 0.11106844 0.44797966
0.04610429 0.10916629 0.45852739
0.048087616 0.10732624 0.4631198
0.052342366 0.10154746 0.47514907
0.038401835 0.11390074 0.44872889
0.037761264 0.11160751 0.45107397
0.038044002 0.10985506 0.45610267
0.040168159 0.10779865 0.46081889
0.041080195 0.1061092 0.46506718
0.043243997 0.10341549 0.46930805
0.04601039 0.10237717 0.47334534
0.048496548 0.10246329 0.47622541
0.037029609 0.11077996 0.45655096
0.038556676 0.10895236 0.46041963
0.04085236 0.10557331 0.46575648
0.042072773 0.1055681 0.47017682
0.043490246 0.10497442 0.47299594
0.060117394 0.10757769 0.44336545
0.062057041 0.1068879 0.44617543
0.064421676 0.10543038 0.45020849
0.065788969 0.10374764 0.45483232
0.06682834 0.10180523 0.45917037
0.067241147 0.10067643 0.46229723
0.056923479 0.10864858 0.44293192
0.059999041 0.10847647 0.44545579
0.064480439 0.10540763 0.45695326
0.065748706 0.10303691 0.4615092
0.065229066 0.099939048 0.46519265
0.050530549 0.10900304 0.44202384
0.052118167 0.10936147 0.44284832
0.061726868 0.10058339 0.46844175
0.061078876 0.097952977 0.4693321
0.046325255 0.10879978 0.44351694
0.056618255 0.09810634 0.4714815
0.043222275 0.108643 0.44501624
0.041406728 0.10738824 0.44683635
0.050274566 0.097604975 0.4711535
0.053082071 0.098152451 0.4724654
0.039368737 0.10650613 0.4501476
0.038891196 0.10517073 0.45399389
0.039398856 0.10410804 0.45861363
0.041326635 0.10230564 0.46386558
0.043902956 0.099628977 0.46758354
0.046959609 0.098985404 0.47046846
0.038747385 0.10175914 0.4593305
0.040175781 0.10069125 0.46320856
0.041446578 0.099180572 0.4657864
0.061730262 0.10314241 0.44534257
0.063549533 0.100677 0.44883624
0.06535922 0.09903951 0.45297435
0.066201352 0.098275766 0.45746982
0.055821441 0.10412078 0.44232175
0.059008285 0.10186686 0.44442591
0.061401606 0.099419042 0.44705138
0.064280309 0.096373901 0.45464799
0.064665273 0.096255891 0.45861751
0.063716978 0.095590137 0.46281454
0.063707054 0.096064463 0.46687201
0.050612323 0.10564923 0.44101846
0.051976513 0.10329443 0.44237709
0.060632132 0.093678549 0.46438873
0.060738184 0.094819099 0.4680998
0.046224605 0.10559723 0.44276714
0.046945713 0.10230294 0.44337577
0.05540606 0.092805579 0.46663237
0.057135507 0.094514228 0.46924791
0.043545507 0.10511403 0.44370767
0.04240343 0.10262156 0.44582924
0.042109169 0.099849448 0.44970244
0.047721516 0.093763985 0.46472669
0.050832912 0.093158878 0.46808636
0.053137142 0.095042869 0.47093758
0.039467808 0.10264362 0.44861075
0.039451554 0.10099377 0.45248598
0.040789068 0.098954581 0.45664281
0.042561501 0.09708029 0.46125513
0.044191942 0.09568838 0.46538633
0.046902329 0.094387576 0.46860346
0.038334321 0.10065264 0.45787483
0.04012401 0.098901317 0.46251181
0.041575525 0.097744174 0.46556443
-0.0077561326 0.092512451 0.47309062
-0.0064202361 0.091468178 0.47652763
-0.010867037 0.092527539 0.47454292
-0.0094743744 0.091452844 0.47771457
-0.013279922 0.091819093 0.4762615
-0.012714021 0.091336906 0.47797108
0.063306235 0.095543079 0.44831648
0.064240821 0.09498395 0.45063707
0.05512644 0.10002792 0.44258815
0.057745956 0.097445741 0.44390818
0.060930096 0.096296631 0.44641489
0.063520774 0.09320616 0.45317331
0.062926836 0.092342369 0.4567844
0.061944131 0.091867201 0.46047696
0.051987328 0.099107817 0.44279325
0.053020943 0.096139461 0.44299787
0.059371136 0.089543238 0.45985708
0.059259608 0.091233104 0.4621394
0.047619265 0.099318124 0.44432366
0.047694337 0.095964894 0.44577917
0.053513523 0.089945525 0.46133325
0.055092558 0.091359116 0.4638775
0.044500683 0.099566258 0.4461793
0.044047348 0.096437834 0.44899029
0.043770444 0.092753172 0.45342606
0.045247179 0.091081388 0.45752624
0.048976675 0.091293201 0.46181127
0.051087379 0.092165664 0.46499172
0.041812643 0.097104222 0.4519712
0.042418905 0.095145345 0.45471472
0.043996021 0.09333086 0.45853633
0.045706782 0.093193918 0.46227369
0.020011052 0.095442601 0.44787601
0.020536035 0.094934881 0.4486216
0.030323388 0.084580898 0.4746387
0.030656479 0.084412336 0.47568822
0.017728884 0.09559983 0.44861767
0.018033847 0.09447328 0.45148933
0.023967713 0.085994519 0.47214842
0.026758837 0.085394271 0.47441965
0.028292669 0.084451839 0.47678003
0.014416873 0.094798647 0.45039991
0.014119472 0.093998291 0.45377448
0.014537752 0.092782959 0.45671523
0.020515047 0.086523227 0.47258374
0.022138637 0.085522227 0.47520107
0.024651682 0.084187582 0.47724861
0.010474656 0.093177408 0.45590943
0.010680582 0.092060246 0.45962572
0.0098614804 0.090625182 0.46240258
0.013418566 0.086943701 0.47061065
0.015648648 0.086877152 0.47288913
0.01782573 0.085478961 0.47569194
0.0074186139 0.091061458 0.46241447
0.007190492 0.090554059 0.46522331
0.0092802159 0.088197924 0.47088918
0.01167766 0.086882643 0.4730061
0.0017564297 0.090024568 0.46481609
0.0032543354 0.089986548 0.46759021
0.0050816238 0.08810243 0.47152492
0.0055492297 0.086385861 0.47392052
-0.00043512136 0.089590967 0.46566477
-0.001761917 0.09018077 0.46907726
-0.00036517531 0.088140622 0.47349298
0.0027612075 0.086307555 0.47478962
-0.006333001 0.090138972 0.47170374
-0.0050293133 0.088692375 0.47496223
-0.010274343 0.09139061 0.47382295
-0.0092464164 0.090292379 0.47691056
-0.013420716 0.091040373 0.47561866
-0.012622915 0.090455845 0.47770184
0.062736683 0.090649538 0.44651771
0.063623823 0.090034261 0.44863302
0.056851402 0.092429534 0.44312936
0.060312673 0.091466412 0.44522357
0.062517539 0.088753439 0.4514766
0.061530747 0.088060468 0.45495263
0.050372865 0.091667533 0.44092909
0.053010568 0.092530385 0.4422721
0.058930412 0.086624078 0.45798486
0.057303604 0.084513299 0.45943922
0.046987284 0.09192948 0.44187269
0.047633909 0.093235001 0.44480792
0.053386051 0.087133676 0.46005335
0.054212436 0.084311813 0.46113658
0.044633545 0.091524601 0.44340676
0.044090942 0.091266029 0.44721234
0.043309901 0.091446541 0.45116723
0.045985673 0.088732332 0.45834431
0.048641868 0.08637774 0.45964015
0.051494319 0.084315822 0.46143946
0.041241452 0.089176498 0.44847491
0.041932531 0.08937718 0.45261991
0.043651298 0.087885588 0.45695934
0.045189325 0.084962368 0.45922694
0.020875787 0.093073808 0.44519281
0.02114494 0.092635222 0.44857267
0.030373113 0.08291705 0.47287142
0.0322772 0.081189349 0.47529253
0.016438946 0.093644202 0.44610754
0.019682471 0.091647089 0.45134783
0.018649425 0.089676052 0.45426103
0.024675202 0.083606936 0.4697113
0.027651345 0.083613113 0.47187215
0.0284696 0.081124365 0.47765097
0.012439426 0.092059314 0.44876957
0.0115407 0.093016677 0.45191652
0.015779186 0.089414179 0.45730764
0.020210341 0.08463151 0.46925128
0.021250812 0.082993478 0.47715172
0.023365393 0.080560461 0.47767049
0.010147423 0.090161987 0.45045173
0.0088850223 0.090416811 0.45379293
0.01238808 0.089544892 0.45976403
0.011028204 0.087896891 0.46158537
0.014070708 0.084966324 0.4688971
0.016403276 0.085909098 0.47021762
0.017462645 0.081768461 0.47625566
0.020317223 0.079894453 0.47707227
0.0070698 0.088757135 0.45644897
0.0058049634 0.088570148 0.46024209
0.0078739636 0.086579002 0.46534112
0.0091453008 0.085627809 0.46805429
0.010671545 0.083338171 0.47365052
0.01386746 0.081928223 0.47498167
0.0015908107 0.087597877 0.4629654
0.0043196455 0.085165158 0.46773645
0.0039982945 0.084958225 0.46812254
0.0057679564 0.083349451 0.47392863
-0.0029447079 0.08684808 0.4644267
-0.0019080713 0.086082809 0.46869576
-0.0010294728 0.084776565 0.47137785
0.00117727 0.082773618 0.47508624
-0.0074146651 0.086097017 0.46600419
-0.0065264441 0.086460873 0.47013944
-0.0053094551 0.08451575 0.47299147
-0.0037956722 0.082331106 0.47643986
-0.010168891 0.085290365 0.46759582
-0.011409201 0.084876381 0.47115195
-0.0099621266 0.083669841 0.47528091
-0.0070580728 0.081937894 0.47719151
-0.015706614 0.084406979 0.47298211
-0.014415696 0.083659738 0.47656098
-0.019455522 0.083984643 0.47430119
-0.018194884 0.083274946 0.47797352
0.062627152 0.085984342 0.44457757
0.063520074 0.085143209 0.44717634
0.054789931 0.087570898 0.4377856
0.057153944 0.087645158 0.44120905
0.059787389 0.087372512 0.44333196
0.062430657 0.084760889 0.45001331
0.061600883 0.082901746 0.45324686
0.061623655 0.080531284 0.45641586
0.051540177 0.088710055 0.43846411
0.0542356 0.089909777 0.44083926
0.060136326 0.083882235 0.45615065
0.05910005 0.080899231 0.45834383
0.046467345 0.08918637 0.44008303
0.045156442 0.090178788 0.44312367
0.05191943 0.083201371 0.46048379
0.054381512 0.080791146 0.46075243
0.04270298 0.087673053 0.44176647
0.042017616 0.08837907 0.44466624
0.047879178 0.082157359 0.46041942
0.050066691 0.080016747 0.46107224
0.039547443 0.086210079 0.44657901
0.039657734 0.08527784 0.45147792
0.041476332 0.083536156 0.4562377
0.04459171 0.081258692 0.45964026
0.037773822 0.082608201 0.45138514
0.039425418 0.081418902 0.45542821
0.022943804 0.088001765 0.43836057
0.024452202 0.088108256 0.44072881
0.034541376 0.075918965 0.46958318
0.036211237 0.075594261 0.47230026
0.036574088 0.073767826 0.47435406
0.019912574 0.088508457 0.43928969
0.021753872 0.089665167 0.44208717
0.022026872 0.087005876 0.44699016
0.031054307 0.077821635 0.46984527
0.033833876 0.076867059 0.47432789
0.033894688 0.073974982 0.47611603
0.017163962 0.089053988 0.44120431
0.01583714 0.088538446 0.44459158
0.017986383 0.086198114 0.44927797
0.017896313 0.086588338 0.4526678
0.024013847 0.080106795 0.46887299
0.026106063 0.077659458 0.47063425
0.027737901 0.076243296 0.47596109
0.03083111 0.074657477 0.47706214
0.012058161 0.088803783 0.44724926
0.013915706 0.08556471 0.45001239
0.014822673 0.08537069 0.45497796
0.019586939 0.07996282 0.46866688
0.022238931 0.076777391 0.4722206
0.023230722 0.077167131 0.47677705
0.010110281 0.088487819 0.44961411
0.0092267841 0.08663673 0.45257783
0.010290321 0.084564574 0.45654154
0.0099876747 0.084892325 0.46059185
0.013685059 0.08178024 0.46825001
0.01541993 0.079292633 0.46995935
0.017386097 0.078104883 0.47425282
0.020324051 0.078241795 0.47662109
0.0063671432 0.084838793 0.45955396
0.0064952634 0.082970478 0.46252093
0.0086703785 0.080937982 0.46804756
0.01011895 0.080274262 0.47101921
0.013604108 0.079864383 0.47377828
0.0015002228 0.082948506 0.46122533
0.0041655377 0.081510328 0.46570227
0.00454982 0.081066564 0.46693018
0.0056362301 0.078387111 0.47219136
-0.0032330267 0.082590967 0.46290842
-0.0019659027 0.080803439 0.46769604
-0.0011935309 0.080256425 0.46906748
0.0010157712 0.078145169 0.47392145
-0.0065302216 0.082221419 0.4646025
-0.0074683763 0.081566371 0.46693018
-0.0057548694 0.079595841 0.47012669
-0.0036041923 0.078217015 0.4750329
-0.01018567 0.080696762 0.46910393
-0.0087538473 0.07873936 0.47357768
-0.0070917048 0.076512732 0.47485861
0.062117711 0.081629291 0.44229928
0.063574985 0.080266207 0.44570985
0.054796025 0.084249713 0.4366897
0.057476047 0.083395332 0.43833458
0.060232081 0.08319404 0.44077697
0.06334649 0.079894841 0.44870213
0.062514633 0.078001395 0.45187372
0.061477441 0.07712017 0.45494181
0.051547464 0.084495604 0.43639299
0.060776785 0.079031937 0.4553397
0.059283521 0.076491028 0.45697954
0.04604115 0.084883362 0.43664429
0.055237334 0.07533852 0.45997185
0.040805202 0.083093524 0.4358862
0.040800221 0.084507331 0.4389509
0.049604475 0.075391829 0.46187863
0.050231688 0.072495811 0.46282616
0.037665211 0.082375191 0.44133565
0.037320256 0.083295628 0.44515556
0.043091923 0.077615529 0.45989743
0.045195878 0.07476531 0.46106276
0.027430573 0.084204733 0.43520573
0.028670631 0.084249869 0.4375433
0.034993336 0.080543064 0.4428668
0.034100946 0.08087863 0.44626999
0.035433911 0.079506069 0.45156685
0.036962759 0.078132868 0.45554993
0.039115444 0.075684048 0.45960653
0.040239733 0.072711736 0.46338749
0.040382706 0.071509793 0.46892419
0.040593088 0.069752425 0.47099215
0.023857335 0.086086825 0.43597788
0.026461674 0.085970424 0.43951547
0.026503662 0.082431421 0.44295406
0.031929232 0.078415804 0.44845808
0.035514217 0.074324615 0.45846042
0.035360813 0.07325197 0.46653971
0.038536992 0.073324561 0.47076643
0.03813488 0.071044147 0.47391301
0.02016088 0.0861312 0.43745375
0.018893346 0.083378285 0.44036973
0.023017745 0.082508355 0.44625792
0.030993337 0.074238151 0.46676549
0.031420507 0.070351087 0.47310299
0.034563519 0.07120499 0.47552687
0.017452437 0.086770102 0.44024178
0.017322067 0.084034517 0.44353145
0.018660724 0.08260075 0.44671351
0.027221994 0.07345318 0.46947107
0.028201407 0.072819255 0.47295868
0.030992104 0.072736889 0.47618046
0.00064362958 0.078594536 0.46020159
0.0029668957 0.076898582 0.46239102
0.0042160042 0.075301334 0.46647629
0.004505977 0.074532934 0.47064978
-0.001284536 0.077861577 0.4612498
-0.0032783076 0.076845407 0.4639605
-0.0022686757 0.074957587 0.46821579
0.00058983266 0.074024156 0.47138512
-0.00735645 0.079119302 0.46409646
-0.0067781843 0.076024324 0.46548846
-0.0049247704 0.074752584 0.46998352
-0.0040883645 0.07456889 0.47346365
-0.011685781 0.075908907 0.4675231
-0.010408662 0.074600905 0.47223374
-0.0085799657 0.074376389 0.47472543
-0.016101576 0.074659377 0.46910599
-0.014840111 0.07363978 0.47348502
-0.020377114 0.073766664 0.47040233
-0.019055851 0.072504401 0.47455174
0.062294781 0.077374123 0.44061437
0.063882381 0.075914279 0.44432002
0.054156259 0.08026807 0.43559435
0.056885209 0.078818582 0.43671462
0.0598999 0.077619269 0.43921202
0.06275773 0.074451566 0.44641522
0.061939362 0.073399551 0.45016387
0.060622532 0.072095037 0.45286539
0.047960967 0.079976164 0.43130797
0.051036388 0.07983847 0.43439892
0.060415022 0.070401683 0.45205784
0.058992248 0.071583435 0.45547828
0.058395788 0.0689243 0.45902395
0.044433147 0.080619261 0.43151063
0.04646188 0.081979543 0.43438244
0.055716291 0.07208214 0.45955101
0.055821232 0.06882254 0.46127394
0.040011473 0.080790922 0.43377346
0.051149141 0.069358818 0.46275774
0.031606339 0.079847895 0.43131384
0.034645077 0.078742556 0.43515393
0.036101013 0.078772813 0.43888888
0.04455642 0.069837689 0.46126547
0.045812182 0.06727428 0.46405458
0.045749035 0.065199025 0.46812192
0.028261578 0.081435457 0.43208519
0.031084254 0.081261545 0.43653259
0.032087218 0.077960141 0.44056201
0.032658245 0.078848571 0.44395313
0.033855058 0.074849136 0.45194286
0.034291051 0.074031413 0.45267045
0.038910605 0.072031289 0.46055716
0.040227558 0.069568358 0.46223852
0.042724274 0.068876043 0.46713373
0.042959791 0.066130325 0.47075152
0.024117837 0.081544571 0.43391949
0.027240127 0.077993684 0.44180405
0.030233311 0.076112501 0.4460018
0.032208443 0.074309193 0.4500404
0.033929013 0.07254225 0.4549233
0.035297316 0.071150519 0.45971629
0.0356315 0.069324352 0.46403313
0.038695138 0.066591382 0.47231817
0.02133978 0.080622666 0.43616822
0.0208118 0.079339691 0.43946132
0.022181218 0.07805308 0.44345516
0.03089446 0.068808451 0.46618801
0.032437637 0.067430794 0.47027642
0.035239398 0.066463605 0.4723005
0.018839195 0.080739588 0.44279528
0.019399069 0.079670563 0.44430223
0.01943624 0.071569115 0.4550271
0.020142764 0.070796728 0.45725089
0.028614985 0.069921613 0.46835876
0.029258661 0.069823287 0.47037035
0.015121643 0.072787941 0.45547223
0.016648468 0.071079791 0.45963275
0.013020393 0.072221778 0.45681155
0.014486548 0.070758507 0.46004808
-0.00040425733 0.075224228 0.45975548
0.00065153465 0.072865307 0.46102446
0.0024424344 0.071301766 0.4660725
0.0028796643 0.071295299 0.46876842
-0.0013963021 0.074617282 0.46006116
-0.0025759265 0.071678787 0.46261945
-0.0011814237 0.070008054 0.46660823
0.00094523653 0.070963703 0.46950448
-0.005017437 0.069476992 0.46410728
-0.0038292632 0.068820417 0.46731675
-0.017300501 0.072483182 0.46832544
-0.017028421 0.071001053 0.47371334
-0.020607099 0.071574338 0.4695712
-0.019346334 0.070778348 0.47390872
0.062222555 0.073639378 0.44030657
0.063073315 0.072728649 0.44242445
0.056104198 0.07461641 0.43607703
0.058778036 0.072426401 0.43910745
0.060825024 0.070340127 0.44374964
0.060700953 0.069621056 0.44857568
0.047940962 0.077929787 0.43105397
0.050199229 0.075508155 0.43241006
0.053290229 0.073398516 0.43486419
0.058949195 0.067427792 0.45033413
0.058463141 0.066870317 0.45443833
0.058355737 0.067543454 0.45786473
0.044000868 0.07661967 0.430709
0.0460537 0.074433088 0.43148407
0.055581857 0.064604506 0.45676267
0.054919243 0.065304846 0.45968637
0.036880832 0.075009324 0.42860055
0.039515004 0.076398432 0.42971486
0.051887404 0.063508295 0.46272349
0.050076798 0.061327811 0.46411279
0.032449961 0.076851912 0.42918944
0.035184633 0.077307343 0.43233776
0.034544282 0.076171927 0.43875915
0.042627819 0.067612447 0.46042705
0.04733799 0.064887062 0.46421841
0.047114253 0.061939653 0.46714047
0.027941903 0.077638716 0.42927754
0.032200921 0.074970312 0.43967932
0.033586971 0.068319231 0.45069796
0.039967589 0.066616774 0.46063024
0.043623839 0.061549518 0.47042978
0.023638187 0.076928452 0.43152142
0.027083362 0.0737027 0.44168478
0.029120957 0.071506992 0.44444221
0.031368867 0.069953233 0.44904408
0.032789148 0.068316765 0.4532437
0.033905134 0.066157199 0.45787191
0.034899667 0.065851822 0.46162662
0.038505457 0.061382711 0.47142231
0.021135967 0.07637307 0.43430954
0.02128882 0.074973002 0.43721679
0.023180971 0.074022815 0.44063139
0.023732053 0.067454025 0.45141172
0.024887258 0.066510037 0.45426106
0.032327067 0.064569756 0.46493956
0.033126995 0.062691942 0.46833912
0.035026491 0.061905205 0.47082505
0.018426016 0.06956654 0.44997197
0.021307357 0.069135144 0.452057
0.022638543 0.067400672 0.45677212
0.021671377 0.064766496 0.45916113
0.014914796 0.070149884 0.4507601
0.015199594 0.071327515 0.45300639
0.018316746 0.067950651 0.46022528
0.018850189 0.0648444 0.46131691
0.009304259 0.069406703 0.45118299
0.010578923 0.069270298 0.4557769
0.012544096 0.067323044 0.46059546
0.014329147 0.064526454 0.46394435
0.0076151863 0.067489006 0.45281601
0.0083111599 0.066927247 0.45720217
0.0098698698 0.065366566 0.46049577
0.011556786 0.064107969 0.46336031
-0.0034093075 0.067862913 0.4619391
-0.0020784996 0.066408522 0.46540934
-0.0070364811 0.066387579 0.46286342
-0.0059482493 0.065391436 0.46630138
-0.0098761804 0.064887524 0.46408865
-0.0089955702 0.063880607 0.46719772
0.057050437 0.068137221 0.4396368
0.058386456 0.066882655 0.44217032
0.049434278 0.070900366 0.43225598
0.051623866 0.069038399 0.43482253
0.054665957 0.066893145 0.43822595
0.056917705 0.064336687 0.44377998
0.056742072 0.063735351 0.44829211
0.05686808 0.063087322 0.45208654
0.042801622 0.072570473 0.43060651
0.045575749 0.070381463 0.43163803
0.048487213 0.067237139 0.43379232
0.054372177 0.061012037 0.4496747
0.054081839 0.06136056 0.45433521
0.053123746 0.061909877 0.45788282
0.036589105 0.073593915 0.4279297
0.039470375 0.071880221 0.42912298
0.042382609 0.069214717 0.43084481
0.051787514 0.059364408 0.45640656
0.051277325 0.059651822 0.46020848
0.050042149 0.059312105 0.46373639
0.033360109 0.073371045 0.42830491
0.03384285 0.070197098 0.42990163
0.045973405 0.057418644 0.46215093
0.047513828 0.0588178 0.46527871
0.028085057 0.072404914 0.42895743
0.0309866 0.06913206 0.43119168
0.029638836 0.067066453 0.4372811
0.032387163 0.066365175 0.44208863
0.032071605 0.065666854 0.44424206
0.034958892 0.06229217 0.45297241
0.036637235 0.06143165 0.45419964
0.037788138 0.058348313 0.45904109
0.042714655 0.056675173 0.4628436
0.042561494 0.05718619 0.46737
0.024101466 0.07209339 0.4309819
0.02411318 0.069112763 0.43406415
0.026562566 0.068287358 0.43861333
0.029701862 0.068681464 0.44300902
0.02980192 0.066129558 0.44711369
0.031510781 0.063805133 0.4528507
0.034785446 0.06315846 0.45624077
0.034804337 0.059541851 0.46065384
0.035854131 0.056990959 0.46500823
0.038418919 0.057216771 0.46840292
0.021706427 0.073552743 0.43368617
0.022361072 0.071413033 0.43580243
0.023409726 0.070522957 0.43870121
0.022700528 0.064259261 0.44635314
0.025299691 0.064948156 0.44906166
0.027115239 0.063170381 0.45343959
0.026252909 0.060610197 0.45589477
0.032895759 0.060836788 0.46356341
0.034031563 0.059319988 0.46647814
0.019105811 0.065651685 0.44713455
0.021792755 0.066245258 0.44901752
0.024220962 0.063454472 0.45606911
0.02317545 0.061112743 0.45825979
0.013922811 0.066239715 0.44722843
0.019080702 0.060818601 0.46118417
0.009178482 0.067546859 0.44768807
0.0092522949 0.066583984 0.4482379
0.014531624 0.060792014 0.46326491
0.006513048 0.064804234 0.45158812
0.0057439245 0.063396938 0.45583156
0.0077328458 0.06152406 0.46017632
0.010837961 0.061017368 0.46250126
-0.0079896823 0.063225411 0.46247336
-0.0073381774 0.062249772 0.46516305
-0.010093443 0.06251879 0.46292064
-0.0092384331 0.061528888 0.46617079
0.050257578 0.065711342 0.4365364
0.053671524 0.064162098 0.43930027
0.055019096 0.062956125 0.44213134
0.054305661 0.062037051 0.44584811
0.044675454 0.06704209 0.43229356
0.046801407 0.065029033 0.43515107
0.048875339 0.061971366 0.43946424
0.05033217 0.060113832 0.44350216
0.051883433 0.059792206 0.44870257
0.052045103 0.058930717 0.45244378
0.038270548 0.067673489 0.42974895
0.040546641 0.065835625 0.43210253
0.042156026 0.062827259 0.43608406
0.044092022 0.0602764 0.44026637
0.045649286 0.058446981 0.44445935
0.047195319 0.057657138 0.44954416
0.048839953 0.05710857 0.45422933
0.048947427 0.056444883 0.4582262
0.035396937 0.067364581 0.43066329
0.036130883 0.064421773 0.43358213
0.037474208 0.061741646 0.43627605
0.041218758 0.058475673 0.44305393
0.042570032 0.058217086 0.44364181
0.043229662 0.055858023 0.45104969
0.044395506 0.055843525 0.45550701
0.04612666 0.056092635 0.45938537
0.0269389 0.069219321 0.42999688
0.029473895 0.068029016 0.43209922
0.031258956 0.065430313 0.43550712
0.032381058 0.062619843 0.44010133
0.032330461 0.059494983 0.4417789
0.035142384 0.056359004 0.44980168
0.037349038 0.057239451 0.45306718
0.039482273 0.056598485 0.4576773
0.040832497 0.056251645 0.46177158
0.040223923 0.05528482 0.46547896
0.025683181 0.069266282 0.43046698
0.025798675 0.068124957 0.43238297
0.030404203 0.06195575 0.44283494
0.028916229 0.060564734 0.44400677
0.031762712 0.057357188 0.45096505
0.033890702 0.058126204 0.45229554
0.038056012 0.055627905 0.46449673
0.023718696 0.060878273 0.44460782
0.025707217 0.061460201 0.44509274
0.028313175 0.058909316 0.45376942
0.027560052 0.056871891 0.45434099
0.017680269 0.061715107 0.4441621
0.02311863 0.05641523 0.45843387
0.014353033 0.061045002 0.44476342
0.019934919 0.05553101 0.4596906
0.0093718432 0.060908116 0.44740972
0.014237512 0.055831298 0.46076384
0.0052837618 0.060305163 0.44997329
0.0040516034 0.058916286 0.45375332
0.0065423883 0.056547068 0.45972332
0.0096918903 0.055549517 0.46142876
0.0041592643 0.057599049 0.45551172
0.005024001 0.056965135 0.45782343
0.041885011 0.059219997 0.44048122
0.043569125 0.057420328 0.44514734
0.037802335 0.060178913 0.43827173
0.039039284 0.058904238 0.44110289
0.040919077 0.056918014 0.44617063
0.041663215 0.055847261 0.44936451
0.035065599 0.059866861 0.43942961
0.034658618 0.058290362 0.44340739
0.03609328 0.056861144 0.44704673
0.038977638 0.055735257 0.44994611
0.029650301 0.057506151 0.44484299
0.030790497 0.05590532 0.44863278
0.023108248 0.05716832 0.44329584
0.025770152 0.055569299 0.44458213
0.027964603 0.05370523 0.44998902
0.026770791 0.053244326 0.45330402
0.015359621 0.056316894 0.44080237
0.017382856 0.057406139 0.4425064
0.023022007 0.051940385 0.45693475
0.022222681 0.050510801 0.45899588
0.01494804 0.057002164 0.44126916
0.014028296 0.057206471 0.44357067
0.019565791 0.051525284 0.45846769
0.021646891 0.050574958 0.4593254
0.0091990717 0.056045629 0.44639346
0.01397758 0.051390827 0.4588528
0.005293943 0.055593066 0.44852528
0.0043383315 0.053985976 0.4524931
0.0062288344 0.052068897 0.4572044
0.0096090473 0.051090799 0.45946023
0.0040343851 0.055833597 0.45440894
0.0048345216 0.054888323 0.45653245
0.023559196 0.051801175 0.44519481
0.024894858 0.050474469 0.44881052
0.018002313 0.052321121 0.4428122
0.020260472 0.049655631 0.44472632
0.022258358 0.047827311 0.44976848
0.02216151 0.048172042 0.45355704
0.013813604 0.051761489 0.44318724
0.019751087 0.045687735 0.45149586
0.018426683 0.046914089 0.4557004
0.0095394291 0.051329516 0.44545257
0.0080957226 0.048696812 0.44697416
0.010806836 0.045680985 0.45508426
0.013603806 0.046939097 0.45661539
0.0063520186 0.051876552 0.44770584
0.0060959756 0.049511436 0.45015654
0.0076739937 0.047794037 0.45457035
0.010238275 0.047924027 0.45727018
0.018574856 0.047029629 0.44614822
0.019693751 0.046397075 0.44820043
0.014267992 0.048592687 0.44362861
0.014157746 0.044722579 0.44630018
0.015249677 0.043358922 0.44925374
0.016884491 0.044409361 0.45319963
0.011393599 0.048165701 0.44454116
0.010660436 0.044204634 0.44752592
0.011487573 0.042876218 0.45077822
0.014238376 0.044332065 0.45410666
0.0080109797 0.046418041 0.44985175
0.0090673715 0.045327425 0.45209801
0.029847702 0.037678786 0.4435451
0.030571911 0.036968216 0.44472444
0.02794322 0.037598923 0.44375852
0.013359115 0.040931631 0.44651163
0.013743114 0.040235817 0.44741082
0.010880817 0.040393509 0.44654712
0.011583656 0.03954418 0.44891703
0.0083167516 0.040495154 0.44851586
0.0086972937 0.040143222 0.44927654
0.034153312 0.036053099 0.44191307
0.034632914 0.035514459 0.44292432
0.03035954 0.035795037 0.44193715
0.031564936 0.035455454 0.44434378
0.023806665 0.035496242 0.44026053
0.025760328 0.035444193 0.44310287
0.028222186 0.034836851 0.4450587
0.020343039 0.034369547 0.44039252
0.022064086 0.033841994 0.4430404
0.014218114 0.035000119 0.4426097
0.014331758 0.034357641 0.44480816
0.010427669 0.035567451 0.44420186
0.011425108 0.034853928 0.44658947
0.023007361 0.03263868 0.43925497
0.024633538 0.031913623 0.4413054
0.019172795 0.031736702 0.43921444
0.020517144 0.030833922 0.44208327
0.014405277 0.031004824 0.44051549
0.015553914 0.031333018 0.44311395
0.011465769 0.031729739 0.44270739
0.012397218 0.031797789 0.44420332
