# .PCD v0.7 - Point Cloud Data file format
VERSION 0.7
FIELDS x y z
SIZE 4 4 4
TYPE F F F
COUNT 1 1 1
WIDTH 837
HEIGHT 1
VIEWPOINT 0 0 0 1 0 0 0
POINTS 837
DATA ascii
0.086048014 0.057241112 0.5871827
0.08356712 0.057350148 0.58592016
0.096115299 0.057352304 0.58716613
0.092534974 0.057919256 0.5866648
0.087944321 0.058399647 0.58525681
0.08355999 0.058507942 0.58305341
0.079589255 0.058165327 0.58028764
0.077037916 0.057790123 0.57749975
0.098596759 0.058017127 0.584629
0.094659574 0.059344433 0.58293444
0.090213768 0.06016526 0.5808841
0.085732289 0.060275469 0.57857078
0.081283338 0.059596192 0.57636887
0.077582233 0.058476456 0.5739789
0.10393104 0.057451025 0.58160585
0.10136689 0.058626935 0.58074605
0.096969955 0.060266707 0.5786047
0.092530392 0.061116118 0.57645386
0.087989874 0.06122604 0.57411242
0.083551884 0.06057556 0.57183206
0.079028264 0.059087075 0.56952286
0.077184215 0.05811619 0.56719446
0.10544065 0.057663459 0.5784722
0.10365345 0.058809876 0.576222
0.099184416 0.060455836 0.57418525
0.094704315 0.061317321 0.57185775
0.090215638 0.061413974 0.5696336
0.085745849 0.060762249 0.56745476
0.081286721 0.059295908 0.56513113
0.078345947 0.058225624 0.56494856
0.10502087 0.058595743 0.57172966
0.10140643 0.059871644 0.56943953
0.096943125 0.06075811 0.56745774
0.092415318 0.060869515 0.56526685
0.087899111 0.060160678 0.56288016
0.08403194 0.059040673 0.56127423
0.10553343 0.058216281 0.56811923
0.10299873 0.05881571 0.56547278
0.099055313 0.059408661 0.5628835
0.094728991 0.059506655 0.56074333
0.090184607 0.059085757 0.55912662
0.086595543 0.058556598 0.55854285
0.099455513 0.05841583 0.55997807
0.096965566 0.058465537 0.55869997
0.091316164 0.05196058 0.59515887
0.08813443 0.052533764 0.59428817
0.083997063 0.052934162 0.59281653
0.079646148 0.053024419 0.59065878
0.075927667 0.052777156 0.58820218
0.098500066 0.05231151 0.59364796
0.094640426 0.053221636 0.59344715
0.090248577 0.054714195 0.59180093
0.085685834 0.05559089 0.58976114
0.081099525 0.055671681 0.58749843
0.076757714 0.054992177 0.58508331
0.072903067 0.053771861 0.58256775
0.070234343 0.052867223 0.57966149
0.10107306 0.053414892 0.59118813
0.096985228 0.055502042 0.58989817
0.092604242 0.056626108 0.58903474
0.089178629 0.057071485 0.58825666
0.080286138 0.05721993 0.58390331
0.077569395 0.056943547 0.58152473
0.074259758 0.055998944 0.57849693
0.070685692 0.054041587 0.5760653
0.068728253 0.05284372 0.57255417
0.10670704 0.052688733 0.58835751
0.10364565 0.054862343 0.5874052
0.10023776 0.056734793 0.58643085
0.075157396 0.057285894 0.57396144
0.072269946 0.055558749 0.57157069
0.069565371 0.053487495 0.56972712
0.10936975 0.053260703 0.58434665
0.1059704 0.055882685 0.58305812
0.076061629 0.057867311 0.57027102
0.074408114 0.056573279 0.56712025
0.071193486 0.05412586 0.5654701
0.11136518 0.053574398 0.57999843
0.10826032 0.056098066 0.57845211
0.10664125 0.057604097 0.57564855
0.07981576 0.058194071 0.56250191
0.076700181 0.056772184 0.5626058
0.073462903 0.054375496 0.56107849
0.11295336 0.053354688 0.57566994
0.11037438 0.055473596 0.57391542
0.10750336 0.057382334 0.57186139
0.08253596 0.057917118 0.55925477
0.079033569 0.056128532 0.55817431
0.075891703 0.054073088 0.55715716
0.11209242 0.054252036 0.56955439
0.10834333 0.0565354 0.5671922
0.10502261 0.057679296 0.56406409
0.1021571 0.058180764 0.56164509
0.093823873 0.05837423 0.55752051
0.090205126 0.058008224 0.55666327
0.08570122 0.057030007 0.55582637
0.081610791 0.055008635 0.55426615
0.078104794 0.053604566 0.55432397
0.11239381 0.053474858 0.56560802
0.10980332 0.054618783 0.56295717
0.10592614 0.056017783 0.5604189
0.10152306 0.056973189 0.55819517
0.096933253 0.057105616 0.55596399
0.092436589 0.056311943 0.55371112
0.088063724 0.055068236 0.55208206
0.084218949 0.054098703 0.55168402
0.10685863 0.054080866 0.55726868
0.10296112 0.054603226 0.55478603
0.098674797 0.054728396 0.55269045
0.094518363 0.054368801 0.551081
0.086144641 0.047418319 0.59852219
0.081842169 0.0480408 0.59682232
0.077626169 0.048115164 0.59473747
0.073690861 0.047717877 0.59229988
0.096409753 0.047679566 0.5983628
0.092373215 0.048777312 0.59791064
0.087907329 0.049901292 0.59677619
0.082970783 0.050555892 0.59500504
0.078399114 0.050725155 0.59264356
0.074140079 0.050269403 0.58987218
0.070463575 0.049368896 0.58685976
0.067519113 0.048226699 0.58397865
0.10266216 0.047723785 0.59633911
0.099082544 0.049415298 0.59622318
0.094996624 0.051078506 0.59571695
0.070446953 0.051453486 0.58349282
0.067701966 0.050107397 0.58041382
0.065410301 0.048531957 0.5775587
0.10897018 0.046936631 0.59308267
0.10559562 0.049091492 0.59343714
0.10224705 0.051117126 0.59337372
0.068200186 0.051907025 0.57616389
0.06600216 0.049891092 0.57370001
0.064295232 0.047970839 0.57050937
0.11107507 0.047800712 0.59022462
0.10871151 0.050156429 0.58983731
0.067196779 0.051181935 0.56923836
0.065303296 0.048815966 0.56740147
0.11363482 0.048464909 0.58614546
0.11147659 0.050888665 0.58563262
0.068883575 0.051867943 0.56434184
0.066954494 0.049468774 0.56309021
0.11575516 0.048585575 0.58198422
0.11371163 0.05119697 0.5809564
0.071175426 0.052071113 0.5597443
0.069118619 0.049610302 0.55867696
0.11732529 0.048355587 0.57783002
0.11547847 0.050869811 0.57598948
0.074099079 0.05176289 0.55536294
0.071531832 0.049331512 0.5548234
0.1166702 0.049974985 0.57146019
0.1145162 0.052141692 0.56887627
0.080328323 0.052954812 0.5520137
0.076949462 0.050850168 0.55170119
0.073503897 0.048732877 0.55202234
0.11733834 0.048858866 0.56736946
0.1149013 0.050816655 0.56461596
0.11203454 0.05252675 0.56171668
0.08776065 0.053156175 0.54964644
0.083578877 0.051466607 0.54893392
0.079741821 0.049728572 0.54873705
0.11523763 0.049114577 0.56101233
0.11223757 0.050617263 0.55831736
0.10856558 0.05173257 0.55531889
0.10433316 0.052415252 0.55259049
0.099622741 0.05253331 0.5502516
0.09481445 0.052092932 0.54852486
0.090206362 0.051011655 0.547221
0.08620289 0.049859025 0.54659736
0.11162677 0.048762809 0.55462939
0.10909671 0.049361713 0.55271184
0.10510667 0.050065987 0.55036598
0.10087118 0.050120346 0.54820675
0.096556552 0.049591962 0.54639232
0.093557999 0.049143441 0.54554373
0.078910179 0.04187087 0.5996291
0.076120466 0.0417822 0.59825611
0.094042309 0.042061038 0.60205448
0.090426825 0.043544725 0.60135961
0.085578337 0.044146881 0.60046446
0.080863863 0.04431548 0.59901446
0.076307714 0.04446017 0.59671068
0.072171308 0.044343691 0.59379852
0.068705045 0.04406444 0.5905261
0.06589596 0.042776506 0.58793658
0.10069077 0.042813651 0.6003105
0.096979208 0.044182166 0.60046476
0.092628419 0.045610294 0.60020316
0.068292052 0.046123661 0.58804011
0.06547837 0.044914916 0.58472168
0.063252732 0.043589279 0.58158153
0.10712182 0.042586088 0.5974915
0.10374741 0.044296853 0.59819335
0.10007113 0.046030179 0.59861076
0.065148681 0.046783149 0.58121806
0.063113376 0.045079745 0.57782722
0.061483916 0.043185215 0.57489043
0.10954323 0.043903366 0.59491116
0.10679143 0.04591433 0.59547561
0.063576654 0.046813048 0.57395434
0.062299218 0.044880774 0.57146406
0.11280563 0.044468634 0.59146881
0.063159332 0.045561012 0.56664747
0.11762689 0.042321607 0.58696002
0.11575575 0.044767071 0.58740509
0.064709574 0.045944147 0.5617786
0.063724309 0.043518659 0.56022471
0.11886873 0.042496674 0.58440423
0.11805122 0.044963799 0.58282208
0.066931888 0.046063304 0.55725425
0.06498272 0.043616824 0.55766135
0.11952661 0.045054469 0.57803041
0.069838658 0.046140965 0.55327725
0.1203738 0.044780508 0.5733369
0.119142 0.046867661 0.57102257
0.075765669 0.047853794 0.54939175
0.073134616 0.045760952 0.54966104
0.12112075 0.043538183 0.5697031
0.11950424 0.045611829 0.56679332
0.11751536 0.047592781 0.56375498
0.082708091 0.048413333 0.54630417
0.078966402 0.046553023 0.54650795
0.075640023 0.044539772 0.54685378
0.11944366 0.044360962 0.5630464
0.11720552 0.045941427 0.55995852
0.11436213 0.047545876 0.55686015
0.090076782 0.048133858 0.54471862
0.085702769 0.046569444 0.54420751
0.081981219 0.045195967 0.54424971
0.11680532 0.044080682 0.55660349
0.1140316 0.045566119 0.55416417
0.11050664 0.046187602 0.55090493
0.10640308 0.046429247 0.54792839
0.10180029 0.046634927 0.54570377
0.097065143 0.046577629 0.54423654
0.092228562 0.046033792 0.54328269
0.088777393 0.044625226 0.54245722
0.10576703 0.044152882 0.54584694
0.1039059 0.044150703 0.54489499
0.087316908 0.037088376 0.60378575
0.083994746 0.038278531 0.60277116
0.079583168 0.039076775 0.60107905
0.075133607 0.039073553 0.59889191
0.071104035 0.038581267 0.59629631
0.068316221 0.037496187 0.59428352
0.094777659 0.038574025 0.6033234
0.089921296 0.039099768 0.60329115
0.085615486 0.040461063 0.60231662
0.082113706 0.041388456 0.60107875
0.070853084 0.040801696 0.5950067
0.067266732 0.039618582 0.59197998
0.06431172 0.03926627 0.58811837
0.10480303 0.036625095 0.60125256
0.10128476 0.038733728 0.60184526
0.097537458 0.04006125 0.6023922
0.063522965 0.040955987 0.58540934
0.061601233 0.039674524 0.58202392
0.10725172 0.03879803 0.59916878
0.10446937 0.04025358 0.60004908
0.061151616 0.041249517 0.57833838
0.060094036 0.039750654 0.57557321
0.1135932 0.037420094 0.59505904
0.1112144 0.039380129 0.59619391
0.060140848 0.040473871 0.57067949
0.059547704 0.038571939 0.56806463
0.115558 0.038746096 0.59230208
0.11400311 0.040886033 0.59285337
0.061367501 0.042236686 0.5660733
0.060593087 0.039865583 0.56487602
0.11814515 0.039524265 0.58826494
0.11592612 0.041815341 0.58997232
0.062318794 0.040805824 0.5604741
0.1203783 0.039719775 0.583799
0.12015294 0.042248089 0.5815767
0.064624995 0.041079644 0.55594099
0.1219897 0.039329935 0.57951987
0.12144414 0.041535228 0.57802135
0.068682253 0.042702619 0.55154508
0.067035884 0.040550403 0.55203253
0.1231164 0.038234584 0.57602626
0.12248263 0.040468618 0.57351291
0.0714591 0.041522015 0.54811811
0.06908223 0.039394941 0.54903096
0.12255196 0.040100139 0.56861216
0.12154713 0.041715786 0.56605613
0.078211263 0.042673659 0.54431623
0.07537429 0.041036088 0.54504102
0.12107065 0.040488973 0.56219083
0.11919905 0.042050499 0.5590319
0.085072033 0.042678021 0.54198271
0.081404954 0.041333962 0.5424059
0.11839355 0.040591925 0.55613893
0.11545623 0.041257888 0.55231762
0.1118382 0.04281326 0.54944241
0.10885704 0.043643072 0.54749024
0.10039613 0.043953478 0.54338032
0.097040452 0.04303544 0.54206049
0.092738822 0.041811366 0.54099512
0.087855697 0.041270576 0.5409112
0.11435564 0.039439771 0.54984438
0.11159965 0.040588737 0.54790342
0.10744604 0.041566487 0.54541254
0.10300411 0.041576318 0.54315883
0.09870214 0.040874436 0.54142088
0.095408909 0.039768659 0.54030746
0.088208027 0.03351339 0.60465628
0.083783001 0.033966169 0.60383737
0.078880541 0.034020193 0.60227054
0.074426658 0.034129325 0.60003382
0.07024809 0.034223154 0.59706753
0.067014866 0.034113295 0.59404922
0.098352864 0.033328991 0.60410386
0.094525293 0.033852037 0.60456449
0.09066534 0.034687467 0.60459512
0.065605007 0.035288386 0.5920577
0.063237876 0.034548786 0.5888778
0.061204545 0.033943139 0.58543611
0.10500679 0.033374473 0.60190713
0.10167716 0.034139208 0.60301375
0.060244717 0.035109106 0.58230048
0.059163313 0.034650102 0.57900763
0.10827967 0.034164242 0.59999096
0.058681045 0.03513369 0.57531971
0.1134992 0.033868335 0.59623849
0.11153422 0.034964021 0.59762067
0.058624357 0.03598661 0.57130563
0.058547992 0.035052739 0.56870341
0.11658341 0.034427658 0.59287751
0.059375837 0.035597783 0.56435204
0.11950231 0.034547217 0.58879721
0.060910344 0.035837296 0.55956727
0.1217204 0.03472444 0.58437133
0.06316334 0.036077119 0.55508125
0.12329367 0.034981761 0.5794338
0.066092916 0.036226757 0.55094159
0.1240944 0.034862369 0.57512546
0.12401199 0.036032155 0.57263458
0.071094744 0.037268721 0.54634017
0.069078423 0.036033198 0.54766971
0.12399257 0.035453666 0.56865495
0.074314013 0.036477968 0.54386508
0.12351973 0.035212126 0.56483448
0.12242242 0.036003478 0.56157345
0.080963232 0.036825418 0.54084408
0.077621102 0.035965838 0.54189163
0.12135099 0.035386939 0.55823773
0.11939564 0.036052432 0.55491287
0.11710434 0.036835887 0.55181521
0.091962174 0.037357155 0.53927034
0.088046953 0.036823444 0.53931767
0.084206879 0.036125578 0.53970575
0.11569794 0.035881899 0.54976195
0.11234473 0.036407433 0.54671109
0.10812457 0.036499977 0.54371721
0.10374492 0.036664113 0.54155576
0.098883323 0.036660366 0.53998435
0.094629973 0.036364768 0.53916502
0.091458805 0.027452962 0.60532677
0.08862932 0.028823769 0.60515481
0.083381929 0.028909218 0.6043092
0.078574352 0.028951166 0.60274923
0.074135005 0.029039776 0.60053134
0.069966227 0.029212544 0.59759659
0.066156879 0.029431218 0.59391195
0.064277761 0.028250786 0.59174532
0.098690227 0.02894821 0.6044656
0.09432821 0.028878471 0.60512322
0.09128724 0.030807601 0.60520631
0.064646572 0.031877644 0.59184659
0.062748864 0.029514654 0.58932209
0.060660489 0.029578915 0.58545649
0.10508166 0.028774392 0.60235292
0.10193625 0.02911436 0.60355604
0.059415836 0.029948669 0.5822016
0.058526136 0.029902156 0.57903761
0.11139631 0.02778841 0.59872067
0.10896821 0.02911094 0.60025579
0.057885259 0.030207386 0.57473731
0.057617631 0.029074082 0.57175136
0.1136296 0.029253224 0.59680349
0.11147043 0.030989094 0.5984844
0.057908691 0.032472517 0.5716967
0.057864033 0.03051237 0.56895113
0.11721577 0.029402332 0.59309304
0.058688991 0.030666338 0.56378639
0.12019808 0.029594954 0.58886737
0.060216032 0.030836619 0.55904758
0.122428 0.029698519 0.58441728
0.062484629 0.030964676 0.55448371
0.12396383 0.029954106 0.5796724
0.065407649 0.031148622 0.55034643
0.12480545 0.030185267 0.57451779
0.12478867 0.03221532 0.57187444
0.071234837 0.03330829 0.54504991
0.069112562 0.031412344 0.54654056
0.12503062 0.029405929 0.57156253
0.12477648 0.030509468 0.56869096
0.073729098 0.031559717 0.54312676
0.071208306 0.030304834 0.54462552
0.12413013 0.030456057 0.56429118
0.12321062 0.030863307 0.56109035
0.080745257 0.031801362 0.53984821
0.077503666 0.03145748 0.54107404
0.12202053 0.03079888 0.55797696
0.11992963 0.031158254 0.55412328
0.091475055 0.033800263 0.53838146
0.088283837 0.03187909 0.53830218
0.08400064 0.03157343 0.53891301
0.11839183 0.02992636 0.55155098
0.11641593 0.031345438 0.54939425
0.11272036 0.031488817 0.5458287
0.10856175 0.03145599 0.54287684
0.10411093 0.031661052 0.54066706
0.099317431 0.031644188 0.53909355
0.09414085 0.031592663 0.53824711
0.091245726 0.030620713 0.53796786
0.091375269 0.024333248 0.60515046
0.088517383 0.023877697 0.60492998
0.083452344 0.023872374 0.604105
0.078566909 0.023949539 0.60252988
0.074190296 0.023952996 0.60033345
0.070019849 0.024243141 0.59743446
0.066204652 0.024399865 0.5937621
0.064267702 0.025486279 0.59159756
0.098673031 0.023886785 0.60425574
0.094260737 0.023857685 0.60491288
0.091106489 0.021399364 0.60472888
0.064721107 0.022152919 0.59156436
0.062777787 0.024474218 0.58913815
0.060645435 0.02479123 0.58520865
0.10511764 0.023919353 0.60210609
0.10196495 0.024036098 0.60335249
0.059465826 0.024754746 0.58212978
0.058530502 0.025067179 0.57885307
0.11143567 0.024950806 0.59853894
0.10892063 0.024070166 0.60007346
0.057884522 0.025138039 0.57447338
0.057605639 0.026800031 0.57167888
0.11367907 0.024344133 0.5965575
0.1114118 0.021945439 0.59807813
0.057945769 0.022899779 0.57109267
0.057853024 0.025471251 0.56872606
0.11727776 0.02437757 0.59280121
0.058690134 0.025675064 0.56356359
0.12017852 0.024568394 0.58868873
0.060285717 0.025809435 0.55866581
0.12246248 0.024829501 0.58412069
0.062494405 0.026010038 0.55427474
0.12396228 0.024947958 0.57945955
0.065381981 0.026317127 0.55016369
0.12480068 0.025180656 0.57436675
0.12475507 0.023125023 0.57147986
0.071314752 0.024058674 0.54468161
0.069047667 0.026426259 0.54637611
0.12502427 0.026099972 0.57143509
0.1247827 0.025330434 0.56850922
0.073686868 0.026457986 0.54293728
0.07123334 0.02795222 0.54449475
0.1241473 0.025737351 0.5641818
0.12320229 0.025704533 0.56082737
0.080683768 0.026525451 0.5396471
0.077631116 0.026761396 0.54081619
0.12200618 0.025979755 0.55773729
0.11987194 0.026089733 0.55378932
0.091393828 0.024503965 0.53800583
0.088306054 0.026665982 0.53806841
0.083974771 0.026809201 0.53871465
0.11835999 0.027370403 0.55140054
0.11650901 0.026330302 0.54926354
0.11276608 0.026386915 0.54564506
0.10854663 0.026457544 0.54266685
0.10395215 0.026621468 0.54038095
0.099255435 0.026656052 0.53887331
0.094115704 0.02667477 0.53804427
0.091139421 0.027814472 0.53786331
0.088116467 0.019241016 0.60402918
0.083751194 0.018907377 0.60318249
0.078941613 0.019009933 0.60166031
0.074411653 0.019064002 0.59937924
0.070293352 0.019217869 0.59645754
0.067064226 0.01968307 0.59352213
0.098383926 0.019474931 0.60349709
0.09454906 0.018793745 0.60387701
0.090587914 0.018074211 0.60386968
0.065609515 0.018634789 0.59137028
0.063234404 0.019595712 0.58823127
0.061233394 0.020328715 0.58483607
0.10498644 0.019643851 0.60131919
0.10163851 0.018826466 0.60237598
0.06023667 0.019667443 0.58165902
0.059106305 0.020729113 0.57855266
0.10823252 0.019024948 0.59936482
0.05868195 0.020134052 0.57455873
0.11351995 0.019581048 0.59558433
0.11146478 0.018341642 0.59693187
0.058660053 0.019543957 0.57050401
0.058557704 0.020755425 0.5681603
0.11659322 0.019408155 0.59223759
0.0594058 0.02057337 0.56366456
0.11951001 0.019553337 0.58810598
0.060923152 0.020809231 0.55890143
0.12174929 0.019787043 0.58364952
0.063173212 0.020941913 0.55442953
0.12329692 0.019984227 0.57879645
0.066136807 0.021275561 0.55020976
0.1241145 0.020513475 0.57436842
0.12402314 0.019529611 0.57189572
0.071214847 0.020688832 0.5454846
0.069128945 0.021645283 0.54700083
0.12399139 0.02041455 0.56804818
0.074432001 0.021485867 0.54316407
0.12351467 0.020970333 0.56422347
0.12244569 0.020488441 0.56096876
0.081019945 0.021397695 0.54017448
0.077777199 0.022141811 0.54124284
0.12133895 0.021340679 0.5576449
0.11939806 0.02107922 0.55424047
0.1170806 0.020483952 0.55109107
0.091939479 0.021056235 0.53856844
0.087974615 0.021640636 0.53865927
0.084172204 0.022250935 0.53911769
0.11562398 0.021579789 0.54908013
0.11236018 0.021282166 0.54609674
0.10814632 0.021484805 0.54309732
0.10375293 0.02161077 0.54089904
0.098965354 0.021649849 0.53936601
0.09448646 0.02203024 0.53854269
0.087281346 0.015860654 0.60289234
0.083994232 0.014633522 0.6017313
0.079626329 0.01406418 0.60003591
0.075230017 0.014164878 0.59784657
0.071213931 0.014881468 0.59534228
0.068323597 0.016241336 0.59339547
0.094803564 0.014250776 0.60223883
0.090039022 0.013836808 0.60221618
0.085667156 0.012591844 0.60114998
0.073500983 0.011895817 0.59542614
0.070746906 0.012823644 0.59370452
0.067257881 0.014287547 0.59089196
0.06429375 0.014930417 0.58701628
0.062098376 0.017118994 0.58463931
0.10130512 0.014275475 0.60077012
0.097417995 0.012775952 0.60116524
0.063423954 0.013651188 0.58416933
0.061627675 0.014987212 0.58091587
0.10729679 0.014501498 0.59810418
0.10443626 0.012779457 0.59879977
0.061075855 0.01397956 0.57714373
0.060099445 0.01553388 0.5745424
0.11366403 0.016036337 0.5939877
0.11116628 0.01413509 0.59513748
0.060121827 0.015292899 0.56964833
0.059613731 0.01725718 0.56697953
0.11565024 0.015115492 0.5911687
0.1139928 0.012905605 0.59163219
0.061237425 0.014039733 0.56513214
0.060666297 0.016258337 0.56370932
0.11808639 0.01462508 0.58724779
0.11583897 0.012140283 0.58871502
0.062317476 0.015814509 0.55938536
0.12035802 0.014811915 0.58269715
0.12021152 0.012506441 0.58002436
0.066637546 0.013780312 0.55335677
0.064538352 0.015979974 0.55495393
0.12209015 0.015777089 0.57830578
0.12146338 0.013604535 0.57683671
0.068610884 0.014766419 0.55036765
0.067108393 0.016747624 0.55093783
0.12313993 0.017087195 0.57507342
0.12249547 0.015050733 0.57249045
0.071423635 0.016176291 0.54703915
0.069052882 0.01807956 0.54818809
0.12256807 0.015818216 0.56763881
0.12152645 0.014442947 0.56473351
0.078124464 0.015400749 0.54315156
0.075288385 0.016881602 0.54405892
0.12272952 0.017749399 0.56436861
0.12108397 0.015922152 0.56120569
0.11926099 0.014751541 0.55792385
0.085059449 0.015391369 0.54086721
0.081500247 0.016820515 0.54131913
0.12059166 0.018139191 0.55782348
0.11848725 0.016337972 0.55528635
0.11545286 0.016014602 0.55125594
0.11205626 0.014862943 0.54834938
0.10032468 0.014199468 0.54204464
0.097113967 0.015155412 0.54087496
0.092691712 0.016487323 0.53989649
0.087874308 0.016984507 0.53987795
0.11429951 0.018088039 0.54885823
0.11155577 0.01708932 0.54685849
0.10749993 0.016429149 0.54431689
0.10302337 0.016607489 0.5420543
0.098565578 0.017376326 0.54037869
0.09524364 0.018469045 0.53940123
0.078918174 0.011497138 0.59838581
0.075998291 0.011501592 0.59685028
0.094023369 0.010809653 0.60062164
0.090405181 0.009529341 0.5998776
0.085590586 0.0090640783 0.59897238
0.080891319 0.0090058967 0.59751636
0.076312117 0.0091013741 0.59523678
0.072186753 0.0093612429 0.59226155
0.068719752 0.010041468 0.58914602
0.065889344 0.011509305 0.58661371
0.10073744 0.010551309 0.59900695
0.096961603 0.0089788884 0.59893781
0.092619531 0.0074855108 0.59847701
0.068313092 0.0081128851 0.58641088
0.065414764 0.0097239949 0.5832113
0.063262403 0.01118112 0.58016407
0.107066 0.011013476 0.59627551
0.10376171 0.0090555381 0.59664875
0.10006452 0.0071012527 0.59677058
0.065185703 0.0079695433 0.57944626
0.063167185 0.0099939313 0.57642698
0.06157463 0.012005048 0.5734455
0.10949354 0.0098012723 0.59352708
0.10703021 0.0077569485 0.59370899
0.063565791 0.0086730402 0.57198977
0.062314279 0.010778524 0.56993562
0.112789 0.0094513111 0.58994412
0.063146055 0.010533858 0.56517392
0.11755854 0.012025259 0.58578944
0.11577702 0.0095698051 0.58588791
0.064591683 0.010672443 0.56037968
0.063631751 0.013210026 0.55901194
0.11883466 0.012139013 0.58328587
0.11797984 0.0096892994 0.5813989
0.066963039 0.010694306 0.55585361
0.064918496 0.013230363 0.55648088
0.11952458 0.010084117 0.57658714
0.069876812 0.011098189 0.55172867
0.12038168 0.01074305 0.57184488
0.11912504 0.0088258758 0.56935292
0.075637221 0.0097393394 0.54783374
0.073197402 0.011779575 0.54816222
0.12107893 0.012190771 0.5684368
0.1195133 0.010471722 0.56532437
0.11749646 0.0087950155 0.56196344
0.082536124 0.0093172751 0.54476869
0.078888468 0.011322858 0.54499882
0.075542226 0.013186336 0.54560179
0.11941332 0.011999929 0.56162316
0.1171777 0.010703875 0.55841434
0.11440341 0.0094615035 0.55520791
0.090003729 0.010013608 0.5429762
0.085693419 0.011356041 0.54275346
0.082092524 0.012819961 0.54282063
0.11679876 0.012800495 0.55531633
0.11408724 0.011627845 0.55274498
0.11047798 0.011245593 0.54938376
0.10641674 0.011298722 0.54640299
0.10179684 0.011333153 0.54414237
0.097036004 0.011441812 0.54271948
0.092315912 0.012056313 0.54182982
0.08864858 0.013366097 0.54121518
0.10658712 0.013755707 0.5449875
0.10394056 0.013879165 0.54356074
0.089230537 0.0065597985 0.59773445
0.085896313 0.0059100147 0.59665173
0.081792876 0.0055287294 0.59502798
0.077519462 0.005600024 0.59286243
0.073708124 0.0061330814 0.59047878
0.071023092 0.0070322845 0.58877462
0.09653946 0.0057658404 0.59658813
0.09242738 0.0045938063 0.5959686
0.087891027 0.0036871955 0.59485257
0.083075441 0.0031290855 0.5930143
0.078438357 0.0031785537 0.59065598
0.074058563 0.0039149635 0.5878852
0.070473507 0.0050179455 0.58500093
0.06749697 0.0064244159 0.58219105
0.10274924 0.0058353711 0.59450239
0.099259771 0.0042040739 0.59427059
0.094909988 0.00256221 0.59366298
0.070656642 0.0030571073 0.58146274
0.067651913 0.0048454218 0.57838148
0.065352537 0.0067250282 0.57586253
0.10921377 0.0066508465 0.59087896
0.10563423 0.004678037 0.59145606
0.10216171 0.0026640855 0.59128845
0.068187006 0.0034120195 0.57421046
0.066012084 0.0056092758 0.57171476
0.1111694 0.0062345937 0.58827698
0.10866894 0.00389353 0.58779252
0.067180388 0.0047643036 0.5670861
0.065315187 0.0072870143 0.5653376
0.11358956 0.0060023274 0.58446413
0.11146916 0.0035075899 0.58342898
0.068944335 0.004411893 0.56224048
0.066952512 0.0069941729 0.56116766
0.11571199 0.0061530322 0.58014202
0.11376889 0.0037235077 0.57886112
0.071218245 0.0046491809 0.55761719
0.069174297 0.007080188 0.55691284
0.11739795 0.0068352707 0.57581729
0.11553917 0.0045136772 0.57407957
0.073999241 0.0053621754 0.55341172
0.071508273 0.0077982843 0.55305189
0.11831402 0.0075610895 0.57274997
0.11655846 0.00558603 0.56958932
0.11444281 0.003728969 0.56673741
0.080342986 0.004500499 0.54983461
0.077027686 0.0065035801 0.54978448
0.073622897 0.0086180698 0.5502072
0.1173453 0.0072071496 0.56554377
0.11498017 0.0055536292 0.56265926
0.11203339 0.0040243808 0.55962163
0.087734587 0.0045555308 0.54742974
0.08342737 0.0061143395 0.54707819
0.079949848 0.0079650134 0.54680502
0.11521205 0.0074693989 0.55918801
0.11224968 0.0062697306 0.5563426
0.10857114 0.0054261908 0.553249
0.10423567 0.0049429871 0.55045527
0.099642821 0.0050880034 0.54812151
0.094726279 0.0056548957 0.54644257
0.090283871 0.0067594349 0.54532826
0.086272821 0.0080412701 0.54473144
0.11199604 0.0085766241 0.55308735
0.10889852 0.0078439619 0.5508523
0.10502294 0.0075603072 0.54837358
0.10082664 0.0075515527 0.54637218
0.096760154 0.0080845691 0.54478079
0.093528487 0.0089004021 0.54371953
0.091319449 0.0017758533 0.59307939
0.088176563 0.0013234168 0.59222972
0.083922558 0.0009414386 0.59056121
0.079669245 0.0010272507 0.58842146
0.075787239 0.0015461706 0.58595139
0.073081747 0.0022277571 0.58391505
0.098363772 0.0015556794 0.5915978
0.094671294 0.00057516061 0.59114468
0.090137213 -0.00072023086 0.58945638
0.085786842 -0.0014568456 0.58732361
0.081105597 -0.0013655741 0.58497256
0.076708294 -0.00039173663 0.58277464
0.07284525 0.0010018162 0.58024096
0.070254855 0.002129171 0.57751554
0.10109721 0.00064219721 0.58896542
0.096993238 -0.0014432389 0.58731359
0.092504315 -0.0024580434 0.58641464
0.088818304 -0.0027111918 0.58579391
0.080640018 -0.0025820844 0.58166879
0.077711076 -0.0021163486 0.5790863
0.074289627 -0.0009043254 0.57604474
0.07065995 0.0012949035 0.57377493
0.068820596 0.0026713498 0.5707745
0.1067472 0.0014993567 0.58600402
0.10366061 -0.00049805641 0.58504617
0.10026066 -0.0022661127 0.58396757
0.075162537 -0.0017867554 0.57128376
0.072282389 0.00013488531 0.56926382
0.069685079 0.0022932738 0.56743652
0.10919528 0.0012229457 0.5821088
0.10591514 -0.0012046713 0.58056152
0.075814992 -0.0019590203 0.56805652
0.074412584 -0.00051559508 0.56481272
0.071287572 0.0020884909 0.56303769
0.11141923 0.001499055 0.57798815
0.1082074 -0.0010075867 0.5760116
0.10675413 -0.0021963026 0.57272351
0.076789908 -0.00041381083 0.56033486
0.073393039 0.0022605825 0.55886889
0.11302485 0.0020671003 0.57360488
0.11041622 5.6250021e-05 0.57157177
0.10758641 -0.0016415957 0.56919575
0.082592614 -0.0011204965 0.55663455
0.078983687 0.00067864917 0.55592257
0.075945936 0.0028507728 0.55493528
0.11390293 0.0027353838 0.57046163
0.11204692 0.001599336 0.56719786
0.10830286 -0.00049151666 0.56480843
0.10495249 -0.0013109986 0.56141537
0.10215221 -0.001656292 0.5591743
0.094289102 -0.0014692135 0.55505455
0.090226039 -0.001024859 0.55413836
0.085797228 -2.6874244e-05 0.55344331
0.081498235 0.00225305 0.55196697
0.11242267 0.0027346984 0.56350738
0.10981217 0.0018523056 0.56064242
0.10597678 0.00067539513 0.55803853
0.10157665 -0.00010820664 0.55576736
0.097037628 -1.0930002e-05 0.55347937
0.092435576 0.00093264505 0.55132592
0.088001296 0.0023307651 0.54979932
0.084214151 0.0033837296 0.54941899
0.10691173 0.0028883722 0.55505562
0.1030303 0.0025251824 0.55261153
0.098767668 0.0026891511 0.55037493
0.094374053 0.0031131282 0.54883283
0.091238104 0.0036217459 0.54804868
0.085445113 -0.0028955024 0.58430159
0.083410934 -0.0028022639 0.58339238
0.096239306 -0.002997091 0.58448136
0.092462644 -0.0034979247 0.58402938
0.088025615 -0.0038683414 0.58258218
0.083619401 -0.0037909634 0.58036786
0.079644285 -0.0032290947 0.5776071
0.07712923 -0.0025889743 0.57525206
0.098696142 -0.0034041274 0.58195645
0.094660968 -0.0045805648 0.58026618
0.090241998 -0.0052430108 0.57802945
0.085761055 -0.0051558875 0.57576793
0.081308275 -0.0043032058 0.57352781
0.077567153 -0.0029566754 0.57140946
0.10427506 -0.0025986135 0.57844472
0.101486 -0.0036454685 0.57811201
0.096983805 -0.0051371641 0.57580501
0.092558883 -0.0058076158 0.57353157
0.087963343 -0.0057130344 0.57130963
0.083520159 -0.0048675314 0.56906998
0.079036273 -0.003213536 0.56696951
0.077000186 -0.0020279046 0.56505245
0.10528779 -0.0025556218 0.57632917
0.10368667 -0.0034703985 0.57362616
0.099176683 -0.0049589537 0.57135606
0.094672918 -0.0056195594 0.56903934
0.09019126 -0.005513873 0.5667277
0.085685648 -0.0046488903 0.5645259
0.081247024 -0.0029885974 0.56238562
0.078447357 -0.0019418988 0.56223434
0.10506737 -0.0028735977 0.56915003
0.10146458 -0.0039833188 0.56691688
0.096920051 -0.0046472326 0.56447721
0.092383854 -0.004574351 0.56235725
0.087911993 -0.0036678426 0.56007934
0.083954878 -0.0024100803 0.55861264
0.10563077 -0.0021575261 0.56553578
0.10307185 -0.0025790706 0.5629549
0.0991074 -0.0029103775 0.56014466
0.094687089 -0.002832979 0.55799955
0.090213396 -0.0022964254 0.55648023
0.086458996 -0.0017783958 0.55610061
0.09945932 -0.0017125104 0.55742311
0.096839651 -0.001658326 0.55610394
