# .PCD v0.7 - Point Cloud Data file format
VERSION 0.7
FIELDS x y z
SIZE 4 4 4
TYPE F F F
COUNT 1 1 1
WIDTH 837
HEIGHT 1
VIEWPOINT 0 0 0 1 0 0 0
POINTS 837
DATA ascii
0.023870571 -0.0051401779 0.55374205
0.026655737 -0.0051172925 0.55368721
0.014875641 -0.0006189039 0.55363166
0.018312858 -0.0017503202 0.55308676
0.023057165 -0.0025267266 0.55266714
0.027965181 -0.0025143456 0.55265337
0.032745909 -0.0018317243 0.55311418
0.036266342 -0.00049583707 0.55360854
0.013802517 0.0027835602 0.55307621
0.01810661 0.0025879261 0.55182272
0.023014896 0.0024633775 0.55109054
0.028058937 0.002530566 0.55107957
0.033009015 0.0024825698 0.55185258
0.037365779 0.0029201675 0.5530737
0.010371272 0.007848883 0.55377138
0.013071433 0.0075155953 0.55263335
0.017992361 0.007525607 0.5510869
0.022940503 0.0074947197 0.5503304
0.028049935 0.0075606755 0.55032092
0.033025794 0.0075887395 0.55106854
0.038075082 0.0075721936 0.55265462
0.040746152 0.0087909261 0.55372441
0.010425249 0.011332422 0.55369341
0.013051135 0.012587912 0.55264449
0.017989926 0.012472423 0.55108732
0.02305349 0.012581727 0.55032635
0.028063903 0.012565581 0.5503251
0.033022825 0.012488663 0.55106962
0.038021281 0.012514665 0.55263418
0.040712647 0.011321617 0.5537113
0.013831166 0.017205613 0.55305094
0.018111706 0.017684538 0.55187434
0.023006262 0.017493419 0.55107361
0.028037069 0.017430549 0.55105621
0.03312929 0.01751644 0.55186671
0.037284277 0.017179152 0.55305451
0.014978597 0.02064658 0.55358475
0.018439606 0.021900855 0.55309933
0.023134992 0.022473872 0.55261785
0.027962666 0.022455258 0.55261171
0.032741565 0.021851517 0.55310148
0.036202427 0.020747848 0.55365515
0.024056161 0.025211077 0.5537343
0.026855238 0.02524155 0.55373943
0.015493623 -0.010114131 0.55867594
0.018739462 -0.010737028 0.55814058
0.023105234 -0.011256916 0.55780363
0.027962621 -0.011271084 0.5578059
0.032381434 -0.010748239 0.55815822
0.0097499359 -0.0055378228 0.55839008
0.013309286 -0.0070495326 0.5574894
0.018001603 -0.0074853692 0.55606878
0.023010843 -0.0076694936 0.55528027
0.028125497 -0.0076954924 0.55529654
0.033074994 -0.0075050816 0.55607891
0.037623242 -0.0070278328 0.55740589
0.041291412 -0.0056589488 0.55843425
0.0085687991 -0.0021466883 0.55739313
0.012841428 -0.002742107 0.55536318
0.017167229 -0.0038866913 0.55427712
0.020587364 -0.0047063213 0.55386555
0.030488987 -0.0047872989 0.55390376
0.033976369 -0.0038873618 0.55428183
0.038271315 -0.002698034 0.55535531
0.042517006 -0.0021985089 0.55741513
0.045813631 1.7764047e-05 0.55876231
0.0047804192 0.0028745108 0.55823994
0.0079857782 0.0024397285 0.55610913
0.011505094 0.001858104 0.55428016
0.039519597 0.0018057078 0.55426395
0.043137297 0.0025845612 0.55609196
0.046340361 0.0029430971 0.55824029
0.0042018387 0.0076713562 0.55784035
0.0078682937 0.0074030771 0.55527604
0.040370852 0.0055301357 0.55384123
0.043232765 0.0075566005 0.55526906
0.046798423 0.0074997814 0.55778497
0.0043658894 0.012461378 0.55771333
0.0078822337 0.01255138 0.55525821
0.010611875 0.014390304 0.55387372
0.040490586 0.014164102 0.55384767
0.043203562 0.012623405 0.55526382
0.046735547 0.012448613 0.55772376
0.004875157 0.017031172 0.55811828
0.0080063865 0.017526872 0.55607653
0.011528647 0.018151594 0.55425757
0.039503083 0.018271647 0.55426353
0.043084174 0.017602254 0.55609679
0.046309434 0.017027348 0.55819392
0.0083948392 0.022145428 0.55748385
0.012847319 0.022667151 0.55530381
0.017237041 0.024021242 0.55429506
0.02089045 0.024920598 0.55389774
0.030190488 0.024886999 0.55388117
0.033803195 0.024020657 0.55428362
0.038186818 0.022716856 0.55529678
0.042503759 0.022204261 0.55738318
0.045586873 0.020530848 0.55878347
0.0098736044 0.025776882 0.55842948
0.013396953 0.027031057 0.55740017
0.018025734 0.027618995 0.55611128
0.022975845 0.027673636 0.55525202
0.028080538 0.027619889 0.55521536
0.033093847 0.027591668 0.55610484
0.037709072 0.027044082 0.55741721
0.041307207 0.025643177 0.5584029
0.018562082 0.030776793 0.55818141
0.023167398 0.031272322 0.5577659
0.027939904 0.031232834 0.55773067
0.032369751 0.030798458 0.55815887
0.018529365 -0.01560653 0.56306988
0.023149066 -0.015987746 0.5625208
0.027852921 -0.01600731 0.56253588
0.032454271 -0.015604222 0.56303728
0.0094242003 -0.010863364 0.56281573
0.013257666 -0.012222411 0.56173837
0.017780485 -0.013162794 0.560664
0.022999754 -0.013762707 0.56008589
0.028147139 -0.013690509 0.560018
0.033186059 -0.013136163 0.56059211
0.037803136 -0.012122916 0.56162089
0.041702129 -0.010908954 0.56288552
0.0047369134 -0.0062571224 0.56285828
0.0080228243 -0.0076895691 0.56117326
0.011935451 -0.009000726 0.5595333
0.039362311 -0.0090417285 0.55968249
0.04316742 -0.0075694863 0.56115931
0.046462618 -0.0061034355 0.56285566
0.00053475611 -0.00055628922 0.56378424
0.0034359843 -0.0022995882 0.56161618
0.0064981692 -0.0036628302 0.55959511
0.044655152 -0.0034799781 0.55954349
0.047683369 -0.0023384755 0.56166315
0.05059886 -0.00032430515 0.56371838
-5.4379925e-05 0.0029721139 0.56304342
0.0022778511 0.0023515117 0.5607065
0.048633084 0.0022322047 0.5605647
0.05110205 0.0029361695 0.56300724
-0.00050857104 0.0077875219 0.56255466
0.0016973969 0.0073734988 0.56015509
0.04932528 0.0073883832 0.56008917
0.051563971 0.0075522009 0.56253976
-0.00054350868 0.012458863 0.56261241
0.0017935541 0.012563521 0.56004751
0.04933349 0.012529543 0.56008321
0.051602889 0.012469182 0.5625875
-9.6170232e-05 0.016864453 0.56302023
0.0024262127 0.017779615 0.56058723
0.048670188 0.017740406 0.56057894
0.051160872 0.016981265 0.5630312
0.0033668485 0.022325663 0.56167531
0.0064894706 0.023754422 0.55962133
0.044617876 0.023564808 0.55953163
0.047739331 0.022252351 0.56164771
0.050637051 0.020343278 0.56374931
0.0045756139 0.026237221 0.56296575
0.0080231596 0.027682908 0.56112772
0.011915436 0.029057205 0.55954349
0.039031766 0.02901178 0.55943191
0.043058015 0.027713558 0.56115043
0.046544649 0.026106892 0.5628953
0.0092998315 0.030988311 0.56298268
0.013216075 0.032112475 0.56159687
0.017861517 0.033192527 0.56061107
0.022879243 0.033764008 0.56004596
0.028139649 0.033752002 0.56002825
0.033203404 0.033127829 0.56054223
0.037886843 0.032190718 0.56167841
0.041724198 0.030913392 0.56285667
0.015374652 0.03506384 0.56360769
0.018505851 0.035668828 0.56309152
0.023136292 0.03600771 0.56248844
0.027890423 0.036045142 0.56252664
0.032550111 0.035716705 0.56313229
0.035602637 0.035116784 0.56361675
0.024399169 -0.020043669 0.56856477
0.02750613 -0.020067735 0.56871223
0.0097845644 -0.015436413 0.56827086
0.013357255 -0.016375488 0.5668183
0.01810539 -0.017720779 0.56625509
0.022973234 -0.018526975 0.56614876
0.028080475 -0.018500343 0.56610292
0.033079118 -0.017752351 0.56634414
0.037636228 -0.016388929 0.56676334
0.041281067 -0.015380545 0.56816107
0.0046316497 -0.010875836 0.56759369
0.0079086851 -0.012621062 0.56621981
0.011944377 -0.01427833 0.5648042
0.039155833 -0.014273195 0.56481254
0.043131988 -0.012612479 0.56616241
0.046500258 -0.010852598 0.56762141
0.00013471954 -0.0054894201 0.56794184
0.0028720852 -0.0075600967 0.56620258
0.006006958 -0.0095107593 0.56445295
0.045028083 -0.0095574819 0.56444603
0.048330903 -0.0075029247 0.56629318
0.051064208 -0.0056799054 0.56831187
-0.00085290335 -0.0020502266 0.56673634
0.0013947058 -0.0037082192 0.56470305
0.049680173 -0.0037684627 0.56472749
0.051898368 -0.0021885112 0.56676471
-0.0022219978 0.0025065308 0.56631911
0.053294159 0.0025263559 0.56629151
-0.0045608934 0.008609415 0.5686574
-0.0030392706 0.0074686566 0.56619513
0.054090373 0.0075852061 0.56611735
0.055619419 0.0084401919 0.56860721
-0.004526319 0.011455402 0.56859207
-0.0030409433 0.012598149 0.56619501
0.054126438 0.0126266 0.56619221
0.055641033 0.011297315 0.56861901
-0.0022178851 0.01754332 0.56630975
0.053304978 0.017483396 0.56628507
-0.00088382512 0.022105828 0.56678462
0.0012919754 0.023703039 0.56479853
0.049772575 0.023671815 0.5647403
0.051965438 0.022174306 0.56681967
4.7868118e-05 0.025639445 0.56818151
0.0028335508 0.027596172 0.56623447
0.0060079824 0.029497763 0.56438553
0.044953343 0.029557064 0.56431359
0.048173301 0.027630314 0.56616348
0.050955407 0.025756521 0.56816006
0.0045379158 0.030869445 0.56764477
0.0079497118 0.032688409 0.56619811
0.011908038 0.034247041 0.5647279
0.039065652 0.034258578 0.56466079
0.043176286 0.03269925 0.56624568
0.046459742 0.030944534 0.56761605
0.009771036 0.035436183 0.56820089
0.01337029 0.036432467 0.56682134
0.01799128 0.037792392 0.56634015
0.022996176 0.038626324 0.56622624
0.028110931 0.038563687 0.56611609
0.033000633 0.03775499 0.56623626
0.03774238 0.036423564 0.56682044
0.041171018 0.035563789 0.56826311
0.024451425 0.040114608 0.56858975
0.026541362 0.040132843 0.56863272
0.01493112 -0.020181755 0.57316476
0.018378673 -0.020715227 0.57201916
0.023095842 -0.02114547 0.57129419
0.028052809 -0.02118106 0.57139117
0.03280725 -0.020682577 0.57199419
0.036179282 -0.020172253 0.57316452
0.0084930621 -0.016375121 0.57170027
0.012861204 -0.018497985 0.57117641
0.017173953 -0.019500572 0.56985813
0.020876911 -0.019924883 0.56898463
0.033650465 -0.019557294 0.56983107
0.038187884 -0.018501792 0.57114285
0.042549551 -0.016386064 0.57166028
0.00041400641 -0.010115815 0.57373619
0.0033364166 -0.012138071 0.57160407
0.0064691864 -0.014251763 0.57025433
0.044497818 -0.014253231 0.57008821
0.047704715 -0.01213656 0.57151359
-0.00080348738 -0.0070753768 0.57165456
0.0013197083 -0.0090504941 0.57016259
0.049783751 -0.0089838542 0.57009798
0.051936455 -0.0070432797 0.57171398
-0.0046656337 -0.00061968062 0.57320732
-0.0030074697 -0.0026225122 0.57120049
0.05409497 -0.0026215725 0.57120115
0.055757381 -0.00062305853 0.5732134
-0.0051657744 0.0027734614 0.57200068
-0.0039803628 0.0016674632 0.56983912
0.055089679 0.0021107225 0.56963736
0.056271836 0.002743402 0.5720576
-0.0056610946 0.0075678714 0.57139629
-0.004395254 0.0051376359 0.5690341
0.056713127 0.0074847736 0.57130688
-0.0056593325 0.012564882 0.5713923
-0.0044163782 0.014546866 0.56896156
0.056681029 0.012577416 0.57122755
-0.0051961523 0.017094418 0.57196522
-0.0039963871 0.018274061 0.56982613
0.055047326 0.018382307 0.56979448
0.056260839 0.017127946 0.57192385
-0.004663948 0.020678224 0.57320923
-0.0029312912 0.022726372 0.57108498
0.054072201 0.022641271 0.57112086
0.055749506 0.020681052 0.57320684
-0.0008107014 0.02712257 0.57166314
0.0012610648 0.029019233 0.57015854
0.049753636 0.029102435 0.57013321
0.051935881 0.027123269 0.57173824
0.0033907332 0.032213159 0.57154989
0.0065061003 0.034258869 0.57012516
0.044659883 0.034256093 0.57022887
0.047724977 0.032186434 0.57155353
0.0084912032 0.0364279 0.57170635
0.012838542 0.038554534 0.57120478
0.017389067 0.039565429 0.56977403
0.020943658 0.040008515 0.56902868
0.03035358 0.039909191 0.56889468
0.033927109 0.03955273 0.56986845
0.038227137 0.03853406 0.57113701
0.042621892 0.036404558 0.5716809
0.014893166 0.040202782 0.57312721
0.018247431 0.040748745 0.57206249
0.023094203 0.041154541 0.57119238
0.028074332 0.041182335 0.57127917
0.032685217 0.040784605 0.57205486
0.036107041 0.040264353 0.57320732
0.013676609 -0.020698167 0.57669914
0.018009022 -0.021928001 0.57628191
0.023095025 -0.022718225 0.57629508
0.028080169 -0.022707127 0.57628191
0.033144739 -0.021921553 0.57631528
0.037383094 -0.020674553 0.57655436
0.0048460551 -0.015674721 0.57690704
0.0080737639 -0.017778033 0.57636476
0.011528545 -0.019499578 0.5755288
0.039556459 -0.019480361 0.57546574
0.043080308 -0.017725736 0.57634091
0.046425112 -0.015582783 0.57709348
-0.00012299791 -0.010734204 0.5769558
0.0023753345 -0.013182826 0.57614428
0.048706964 -0.013165325 0.57606298
0.051136658 -0.010724034 0.57666266
-0.0021790788 -0.0075279903 0.57624882
0.053225048 -0.0076256357 0.57633758
-0.0051766094 -0.0018518213 0.57670528
-0.0040156562 -0.0039237412 0.57555139
0.055085592 -0.0040313061 0.57565749
0.056298673 -0.0017758943 0.576702
-0.0064228028 0.002552304 0.57629049
0.057512879 0.002503633 0.57634395
-0.0072081685 0.0075084092 0.57634592
0.058282819 0.0074747689 0.57630968
-0.0072111823 0.012462184 0.57635856
0.058276653 0.012500292 0.57626235
-0.0064073354 0.017587841 0.57631308
0.057508845 0.017515402 0.57629025
-0.0052008443 0.02179129 0.576617
-0.0039917938 0.024025122 0.57555503
0.055110961 0.023904067 0.57544643
0.056296676 0.021766867 0.57662386
-0.0022074077 0.027550479 0.57630354
0.053322271 0.027525188 0.57634252
-8.209236e-05 0.030743796 0.57670856
0.0023715571 0.03319744 0.57605767
0.048731476 0.033211716 0.57612491
0.051236264 0.030748056 0.57693875
0.0048084706 0.035675466 0.57681662
0.0080557 0.037797637 0.57629424
0.011504157 0.039571032 0.57564425
0.039607074 0.039557293 0.57566106
0.043077573 0.037743583 0.57619226
0.046325475 0.035652731 0.57687289
0.013661212 0.040740363 0.57668537
0.018033596 0.041987132 0.57629102
0.023147687 0.042778727 0.57632691
0.028033838 0.042757839 0.57625556
0.033084236 0.04198778 0.57632661
0.037248962 0.040806446 0.57665706
0.010353284 -0.020075854 0.58272529
0.012987159 -0.02113503 0.58136308
0.018060036 -0.022722796 0.58131397
0.023057861 -0.023477215 0.58133894
0.028021187 -0.023477253 0.58134544
0.033064425 -0.022712454 0.58129859
0.038122103 -0.021115057 0.58123803
0.040748276 -0.02006454 0.58251023
0.0042987317 -0.016015017 0.58126831
0.0079050846 -0.018556064 0.5813098
0.010624855 -0.019916341 0.5793789
0.04044266 -0.019851077 0.5788824
0.043222688 -0.018534433 0.5813514
0.046818994 -0.016011573 0.58145285
-0.00047729909 -0.011275398 0.58153254
0.0018049758 -0.013744192 0.58114129
0.049393613 -0.013645465 0.58122289
0.051602185 -0.011217747 0.58140498
-0.0045213085 -0.0052434132 0.58267325
-0.0030101035 -0.0076504052 0.58128613
0.054102629 -0.0076498985 0.58128434
0.055654421 -0.0051447572 0.58254457
-0.0056341495 -0.0024753129 0.58129197
-0.0044206996 -0.0048764758 0.57948565
0.055483632 -0.0048355069 0.57915157
0.056712739 -0.0024771513 0.5812276
-0.0071810149 0.0024498729 0.58130199
0.058285452 0.0025129467 0.58129507
-0.0079567544 0.0075670369 0.58129066
0.059040204 0.0074370122 0.58132803
-0.007960964 0.012544883 0.58137786
0.059052695 0.012534732 0.58139569
-0.0072097108 0.017481599 0.58132589
0.05829034 0.017546084 0.58138925
-0.005654946 0.022473054 0.58131582
-0.0044199955 0.024905432 0.5794009
0.055486254 0.024967916 0.57945853
0.056682102 0.022614047 0.58128887
-0.0045508798 0.025184687 0.58222109
-0.0030194018 0.027679369 0.58124161
0.054081067 0.027734881 0.58128792
0.05564202 0.025220118 0.58247739
-0.00047646463 0.031319946 0.58148354
0.001783913 0.03378462 0.58121383
0.049275111 0.033811577 0.58118701
0.051620185 0.031253308 0.581478
0.004238205 0.036032088 0.58141166
0.0078370776 0.038554419 0.58121777
0.040371761 0.039997436 0.57925278
0.043224663 0.038567446 0.58117557
0.046776898 0.036094405 0.58145481
0.010338226 0.040118091 0.58255875
0.013096371 0.041216142 0.58123338
0.017997624 0.042755116 0.58124298
0.02303547 0.043531869 0.58140224
0.028007681 0.043523934 0.58129209
0.032997821 0.042785637 0.58137637
0.038005106 0.041225031 0.58146411
0.040700734 0.040142585 0.58244717
0.010446991 -0.020075232 0.5858497
0.013092939 -0.02117377 0.58631426
0.017991757 -0.022701893 0.58635497
0.02306667 -0.023476254 0.58634537
0.027962664 -0.023470663 0.58643603
0.032993652 -0.022734091 0.58627039
0.038049895 -0.02115263 0.58627117
0.0407703 -0.020042988 0.58527851
0.0043108929 -0.016029149 0.58633411
0.007963201 -0.01859072 0.586335
0.010819517 -0.019931199 0.58879894
0.040315725 -0.019938279 0.58861023
0.043182392 -0.018550359 0.58639508
0.046851426 -0.015980368 0.58624673
-0.00049225613 -0.011224853 0.58639365
0.0017729253 -0.013744112 0.5862236
0.049281448 -0.013758006 0.58641511
0.051588055 -0.011236241 0.58624339
-0.0045296885 -0.0051721726 0.58551604
-0.0029826779 -0.007701939 0.58633012
0.054124061 -0.0076086912 0.58636034
0.055653937 -0.0051725395 0.58481961
-0.0056625698 -0.0024215532 0.58620709
-0.0043600537 -0.0048862845 0.58853841
0.055536889 -0.0046460768 0.58874142
0.056726538 -0.0024741665 0.58627373
-0.0072023757 0.0025457516 0.58633465
0.058288317 0.0025212253 0.58629131
-0.0079557821 0.007525248 0.58632022
0.059052087 0.0076166047 0.58636695
-0.007952597 0.01263872 0.58625513
0.059042368 0.012535943 0.58635473
-0.0072091781 0.017479207 0.58633655
0.05830235 0.017512722 0.58622414
-0.0056791399 0.022414014 0.58632231
-0.0043878555 0.024894584 0.58849978
0.05540204 0.024978179 0.58871543
0.056718066 0.022540879 0.58627743
-0.0045516118 0.025169034 0.58552945
-0.0030430201 0.027646035 0.5864237
0.054105736 0.027689772 0.58639306
0.055632975 0.025258005 0.58483344
-0.00053337403 0.031244513 0.58620262
0.0018099751 0.033818126 0.58637917
0.049318839 0.033761531 0.58646667
0.051531389 0.031360693 0.58618087
0.0042657461 0.036055081 0.5862366
0.0079407487 0.038632791 0.5862959
0.040434062 0.039940417 0.58855665
0.043209329 0.038586464 0.58639395
0.046797343 0.036077447 0.58622313
0.010384943 0.040140346 0.58511883
0.012975378 0.041182306 0.58624953
0.017940998 0.042744093 0.58634806
0.023047021 0.043521166 0.5864051
0.028180929 0.043515392 0.58633929
0.03305608 0.042763531 0.58636934
0.03802396 0.041206509 0.5863862
0.040788736 0.04008089 0.58525527
0.013765149 -0.02072583 0.5909853
0.018041475 -0.021934215 0.59135491
0.023025366 -0.022720978 0.59131765
0.028097324 -0.022706371 0.5913614
0.033089217 -0.021931387 0.59133291
0.037297904 -0.020734571 0.59099394
0.004823884 -0.015649622 0.59077442
0.0080710854 -0.017730227 0.59143865
0.011603529 -0.01952274 0.59215784
0.039540388 -0.019502431 0.59213346
0.043085698 -0.017722711 0.59130794
0.046406493 -0.015555518 0.59072113
-0.00010527112 -0.010744249 0.59069896
0.0024013817 -0.013217157 0.5914703
0.048704825 -0.0131876 0.59151793
0.051124126 -0.01087657 0.59059036
-0.0021472871 -0.0075698271 0.59140104
0.05327677 -0.0075201672 0.59135604
-0.0051767305 -0.0018056659 0.59100747
-0.0039643701 -0.0039764307 0.592188
0.055096708 -0.0039292499 0.5921194
0.056258652 -0.0018342249 0.59100944
-0.0064335056 0.0025528218 0.59132367
0.057505313 0.002555497 0.59138399
-0.0071935803 0.0075548105 0.59135568
0.058280852 0.0074994843 0.59135252
-0.0072008036 0.012547554 0.59131312
0.058268923 0.012506914 0.59141159
-0.0064129159 0.017583922 0.59132415
0.057510011 0.017615888 0.59125906
-0.0051555783 0.021926781 0.59098512
-0.0039879214 0.024057802 0.59207404
0.055068038 0.024086783 0.59204775
0.056274615 0.021835707 0.5910272
-0.0022234637 0.027515706 0.59135485
0.053242631 0.027629731 0.59135091
-7.7523291e-05 0.030741625 0.59096348
0.0023235809 0.033153526 0.59158438
0.048684254 0.033244088 0.5915671
0.051121563 0.030867707 0.59077793
0.0048149209 0.035661448 0.59087539
0.0080669839 0.037825625 0.59128249
0.011535564 0.03958077 0.59201217
0.039628569 0.03954953 0.59197712
0.043145463 0.037717618 0.59138936
0.046353333 0.0356309 0.59075993
0.01375788 0.04076831 0.59100354
0.018004399 0.041963264 0.59142876
0.023117408 0.042766828 0.59135485
0.028031608 0.042771287 0.5913232
0.032999445 0.04200162 0.59134984
0.037380654 0.040748924 0.59100509
0.014955246 -0.020213017 0.59441125
0.018390592 -0.020692542 0.59568703
0.023043936 -0.021152768 0.5963285
0.027956255 -0.021158589 0.5963217
0.032681011 -0.020689335 0.59571314
0.036162097 -0.020190125 0.59443796
0.0084883142 -0.016326692 0.5960477
0.012752035 -0.01845309 0.59646225
0.017114878 -0.019503191 0.59775174
0.030540723 -0.019855894 0.59869242
0.03379105 -0.019513551 0.59783924
0.038196441 -0.018504458 0.59649724
0.042591628 -0.016342081 0.59602106
0.045659214 -0.01511592 0.59393632
0.0033298302 -0.012105729 0.59608597
0.0066013299 -0.014254613 0.59756714
0.044617102 -0.014236061 0.59742111
0.047702998 -0.012080872 0.59622574
-0.00083377399 -0.0070351698 0.59597439
0.0013809726 -0.0090020224 0.59766501
0.049862649 -0.0089954734 0.59739411
0.051928069 -0.0070479568 0.59595269
-0.004660137 -0.00045030657 0.59461737
-0.0029762555 -0.0026676869 0.59646761
0.054090112 -0.0026738234 0.59640318
0.055774644 -0.00044089276 0.59455508
-0.0051947776 0.0029217144 0.59565818
-0.0039617456 0.0016816119 0.59784615
0.05508611 0.0018127291 0.59784877
0.056275193 0.0029138122 0.59569317
-0.0056312717 0.0074961251 0.59631616
-0.0043243039 0.0050846729 0.59873581
0.056721777 0.0074991235 0.59632188
-0.0056262538 0.012585685 0.5963245
-0.0043452103 0.014820188 0.59874243
0.055512391 0.014740326 0.59861255
0.056718502 0.012458611 0.5963465
-0.005194949 0.017321452 0.59554845
-0.0040195901 0.018270668 0.59778196
0.055101819 0.018331707 0.59775549
0.056228913 0.017226212 0.59575164
-0.0046645571 0.020729622 0.59437805
-0.002973102 0.022671485 0.59652334
0.054100242 0.02261805 0.59648955
0.055743836 0.020604081 0.59453881
-0.00085557811 0.02706885 0.59596449
0.0013478044 0.029146479 0.59746301
0.049828954 0.029058985 0.597431
0.051988594 0.027036605 0.59591258
0.00049815327 0.030137345 0.59417522
0.0033481587 0.032157771 0.59613633
0.0064225905 0.034230337 0.5974465
0.044646576 0.034201331 0.59753823
0.047655508 0.032260574 0.59609103
0.0053421818 0.035044968 0.59406626
0.0083234683 0.036301963 0.59597456
0.01283211 0.038534135 0.59647036
0.017146723 0.039568327 0.59774554
0.030444037 0.039930329 0.59867859
0.033856723 0.039576355 0.59777367
0.038274821 0.038524076 0.5964849
0.042601444 0.03640528 0.59598899
0.014974746 0.040240429 0.59450161
0.018303182 0.04076213 0.59558511
0.023053765 0.041194156 0.59635359
0.028072085 0.041220896 0.59627235
0.032822646 0.040754095 0.59557605
0.03625156 0.040183842 0.59452623
0.024365406 -0.020093314 0.59896392
0.027663197 -0.020026786 0.59902525
0.0098427534 -0.015362374 0.59955496
0.013386875 -0.016364658 0.60086596
0.018088708 -0.017726755 0.60136962
0.022941306 -0.018529437 0.60149014
0.028057404 -0.018536638 0.6014924
0.033081558 -0.017712923 0.60136032
0.037587617 -0.016453266 0.60081422
0.04127878 -0.01539992 0.59945625
0.0045540165 -0.010926731 0.59988225
0.0079319626 -0.012613876 0.60145617
0.011992895 -0.014201166 0.60296792
0.039136458 -0.014264898 0.60285825
0.043189242 -0.012640191 0.60138571
0.046503812 -0.010823885 0.60006052
0.0001228489 -0.0056379847 0.59953755
0.0028739981 -0.0075242966 0.60147768
0.0060889814 -0.0093614887 0.60342497
0.045042727 -0.0094454177 0.60329992
0.048235964 -0.007572487 0.60140681
0.051031068 -0.00554334 0.59952527
-0.00084364787 -0.0021428224 0.60086644
0.0012391601 -0.0034853807 0.6029011
0.049836695 -0.0034797173 0.6029166
0.051914241 -0.0021230886 0.60090113
-0.0021970216 0.0025192979 0.60136962
0.053293131 0.0024945987 0.60134959
-0.0045573842 0.0084635802 0.59897608
-0.0030550025 0.0074847494 0.60142505
0.054144848 0.0074305534 0.60141659
0.055663172 0.008320732 0.59893996
-0.0045779906 0.011275863 0.59896976
-0.0030172653 0.012485879 0.60149807
0.054046523 0.01253642 0.60158873
0.055643559 0.011158752 0.59902811
-0.0022414364 0.01749168 0.60130984
0.053291135 0.017541042 0.60136199
-0.00087657385 0.022137951 0.60085475
0.0013240725 0.023729308 0.60287696
0.049853101 0.023545627 0.6028865
0.051927663 0.022239154 0.60083407
5.0272793e-05 0.025550738 0.59955442
0.0028083101 0.027565947 0.60140526
0.0060817488 0.029603057 0.60322446
0.045043901 0.029353663 0.60343957
0.048242085 0.027593615 0.60142595
0.05100137 0.025629764 0.59953833
0.0045807324 0.030887252 0.60003704
0.0079892091 0.032705184 0.60146946
0.011879443 0.034282155 0.60284811
0.039178912 0.034321755 0.60282069
0.043159414 0.032644607 0.60148901
0.046378214 0.031030355 0.60002357
0.0097525269 0.035384484 0.59950751
0.01330419 0.036424678 0.60078931
0.018026901 0.037799537 0.60131526
0.02299221 0.038648963 0.60138988
0.028135067 0.038604271 0.60145235
0.033031132 0.037750836 0.60140479
0.037662193 0.036458515 0.60082901
0.041242085 0.035417885 0.59954673
0.023519335 0.040084194 0.5989958
0.026526345 0.040180326 0.59893364
0.015338159 -0.015088661 0.60392463
0.018791683 -0.015637167 0.60462022
0.023180097 -0.016035909 0.60507071
0.02797129 -0.016009171 0.60509229
0.032455493 -0.015563171 0.60466188
0.035635725 -0.015206629 0.60383654
0.0092978012 -0.010826137 0.60476696
0.01323012 -0.012156378 0.60596448
0.017768832 -0.013222551 0.6069181
0.022886658 -0.013754888 0.6075545
0.028088845 -0.013719339 0.60760611
0.033258345 -0.013173852 0.60698915
0.037774779 -0.012157422 0.60601079
0.041719481 -0.010923769 0.60472602
0.0046768654 -0.0061825085 0.60478687
0.0078702513 -0.0075984355 0.60642666
0.012000824 -0.0090636984 0.60809302
0.039154273 -0.0089889374 0.60812145
0.043252774 -0.0075107161 0.60646683
0.046470892 -0.006216038 0.60469687
0.00052940287 -2.2303313e-05 0.60412747
0.0034353752 -0.0022144411 0.60607374
0.0065775849 -0.0036948286 0.60809302
0.044610314 -0.0035991212 0.60807765
0.047712825 -0.0022573667 0.60598934
-6.5183267e-05 0.0031614415 0.60465485
0.0023428928 0.0023864037 0.60701454
0.048719756 0.0023688897 0.60703194
0.051217645 0.0031939405 0.60458648
-0.00053069554 0.0076420549 0.60505027
0.0017805342 0.0075231576 0.6075871
0.049300324 0.0074743275 0.60759169
0.051610701 0.0076412288 0.60505772
-0.00049502403 0.012459296 0.60508496
0.0017686784 0.012641796 0.60756713
0.049336731 0.012631763 0.60755271
0.05152617 0.012440231 0.60515416
-5.7609752e-05 0.017104046 0.60458869
0.0023368429 0.017736601 0.60698259
0.048742004 0.017660806 0.60702062
0.051177464 0.016961752 0.60460216
0.00050742179 0.020282514 0.60399497
0.0034519583 0.022246029 0.60610366
0.006582899 0.023777178 0.60808122
0.044649728 0.023661295 0.60803479
0.047675811 0.022300238 0.60603571
0.05057279 0.020480853 0.60390502
0.0045868363 0.026275218 0.60465741
0.007959377 0.027731705 0.60643303
0.011922967 0.029069679 0.60809106
0.039114047 0.029118069 0.60808289
0.043153487 0.027565718 0.60654056
0.046421397 0.026325563 0.60470331
0.0093396734 0.031010801 0.60466778
0.013237633 0.032182656 0.60598832
0.017893888 0.033269696 0.60696363
0.023010626 0.033808775 0.60756612
0.02816412 0.033845834 0.60752124
0.033322632 0.033169128 0.60702682
0.037815079 0.032220494 0.6059711
0.041693892 0.031009147 0.604716
0.01496317 0.035066575 0.60382301
0.018718248 0.035650462 0.6046508
0.023286745 0.036121387 0.60504043
0.027934104 0.036032893 0.60513496
0.032292511 0.035656787 0.60467058
0.035672836 0.035191186 0.60390103
0.015457975 -0.01017808 0.60890365
0.018640019 -0.010841699 0.60939211
0.0231831 -0.011267781 0.60984522
0.027945057 -0.011254571 0.60985118
0.032530811 -0.010763496 0.6094386
0.035873577 -0.010127615 0.60884494
0.0098150913 -0.0057122651 0.60918713
0.013301403 -0.006996274 0.61018616
0.018086325 -0.0075649414 0.61155272
0.022916224 -0.007632874 0.61238009
0.028155468 -0.0076219738 0.61238962
0.033089239 -0.0075870957 0.61151087
0.037703209 -0.0069971867 0.61022717
0.04125946 -0.0056769866 0.60921764
0.0085288975 -0.0021724897 0.61021256
0.012897657 -0.002611747 0.61236691
0.017294884 -0.003854828 0.61341929
0.020864248 -0.004958271 0.61369884
0.030024717 -0.004924532 0.61374664
0.033807226 -0.0039088447 0.613392
0.038249686 -0.0026745033 0.61231142
0.042552464 -0.0021851584 0.61021149
0.045564622 -0.00027375016 0.60896486
0.0048149787 0.0030334182 0.60948312
0.0079654027 0.0024324381 0.61151975
0.011454443 0.0018080128 0.61333239
0.039579235 0.0019364841 0.61339706
0.043094672 0.0025271317 0.61156374
0.046275578 0.0030811937 0.60948569
0.0043604542 0.0075984392 0.60992622
0.0079390965 0.007421128 0.61241794
0.040434286 0.0051055155 0.61370748
0.043165639 0.007432336 0.61240441
0.046803735 0.0077207927 0.60987878
0.0042176843 0.012285808 0.60982698
0.0079255272 0.012519618 0.61241603
0.010671701 0.01476237 0.61374456
0.043041959 0.012500849 0.61249459
0.046786476 0.012394236 0.60988551
0.0047509167 0.016942549 0.6094473
0.0079540014 0.01751565 0.61154342
0.011514149 0.018308297 0.61334151
0.039491646 0.018375449 0.61335921
0.043072172 0.017466696 0.61159223
0.046271957 0.017073663 0.60946441
0.0053827446 0.020169668 0.60891432
0.008479327 0.022212654 0.6101892
0.01285563 0.022593295 0.6123805
0.017352607 0.024095595 0.61334467
0.020851979 0.024832714 0.61378568
0.029729258 0.025004834 0.61377531
0.033781249 0.024023516 0.61337066
0.038072161 0.022702221 0.61240339
0.042620637 0.022186339 0.61018878
0.0098139048 0.025722012 0.60921305
0.013411985 0.027080923 0.61021739
0.017983306 0.027647372 0.61150479
0.022918656 0.027679078 0.61238503
0.028002631 0.027697459 0.61238587
0.033099085 0.027599879 0.61153549
0.037774101 0.027034551 0.61020404
0.041351549 0.025721133 0.60916835
0.018522276 0.030815922 0.60942173
0.023078974 0.031250186 0.60988933
0.02789407 0.031348832 0.60982132
0.032520972 0.030778212 0.60946381
0.035685964 0.030095993 0.6089893
0.024544552 -0.00514034 0.61394691
0.026771992 -0.0052340236 0.61389273
0.014807679 -0.00047753472 0.61404073
0.01837796 -0.0017818622 0.61456043
0.022986086 -0.002487096 0.61499256
0.027917957 -0.0024759574 0.61501014
0.032717712 -0.0017650733 0.6145671
0.036031757 -0.00076082349 0.61402851
0.013730555 0.0028618658 0.6145556
0.018072397 0.0025226115 0.61580336
0.023011519 0.0025197556 0.61656106
0.028031504 0.0025400165 0.61657095
0.033031423 0.002583147 0.61581504
0.03734988 0.002854655 0.61456054
0.010325082 0.0085257674 0.61390132
0.012948294 0.0075356551 0.61496145
0.017977361 0.0075265691 0.61655062
0.022938063 0.0075535499 0.61731791
0.028043032 0.0074875448 0.61731863
0.033034012 0.0075342571 0.61656988
0.03801471 0.0074693728 0.6150074
0.040715117 0.008317356 0.61390507
0.010365332 0.010870788 0.613949
0.012987599 0.012535109 0.61497879
0.018007215 0.012489713 0.61656326
0.02305796 0.012520473 0.61732256
0.028101346 0.012585948 0.61731601
0.033131637 0.012571678 0.61654615
0.038089786 0.012562915 0.61497915
0.040681519 0.011486137 0.61393988
0.013764067 0.017175384 0.61457437
0.017962987 0.017517142 0.61577874
0.023105081 0.017639454 0.61654663
0.028110966 0.017507982 0.61656463
0.033145882 0.017578421 0.61575663
0.037364662 0.017167605 0.61456287
0.014888704 0.020684458 0.61401385
0.018322546 0.021830224 0.61454558
0.023117723 0.022555795 0.61499703
0.028031316 0.022498867 0.61501163
0.032721806 0.021876369 0.6145407
0.03625939 0.020556442 0.61403942
0.024041906 0.025191091 0.61391687
0.02697547 0.025200458 0.61391932
