# .PCD v0.7 - Point Cloud Data file format
VERSION 0.7
FIELDS x y z
SIZE 4 4 4
TYPE F F F
COUNT 1 1 1
WIDTH 1190
HEIGHT 1
VIEWPOINT 0 0 0 1 0 0 0
POINTS 1190
DATA ascii
0.042407945 0.18730438 0.45475268
0.071581043 0.18299979 0.47047469
0.03223905 0.18615611 0.45401663
0.032925323 0.1857003 0.45491388
0.041158509 0.18650681 0.45605958
0.071420833 0.18189324 0.47247854
0.076473832 0.17956969 0.47770944
0.077489898 0.17951107 0.47839254
0.033837151 0.18340516 0.45987427
0.036500968 0.18262072 0.4616012
0.041165743 0.18233562 0.46416962
0.064035371 0.17883703 0.47645664
0.069473997 0.17774031 0.47950548
0.072529227 0.17814508 0.4796207
0.076666512 0.17904933 0.4790135
0.033226218 0.18257943 0.46116751
0.036669031 0.18199167 0.46275491
0.039975815 0.18140286 0.4652544
0.063441202 0.17801526 0.47781944
0.067520939 0.17723238 0.4796145
0.070434786 0.17700855 0.48126876
0.053158071 0.19264892 0.43841857
0.055955507 0.19265825 0.4399488
0.078236654 0.18912536 0.45202106
0.080538683 0.18850973 0.45326814
0.050359588 0.19291174 0.44095492
0.054840419 0.19281441 0.44268709
0.057028733 0.19062197 0.44453448
0.073434711 0.18790796 0.45313033
0.076376289 0.18932256 0.45404682
0.08024139 0.18843299 0.45679224
0.044743296 0.18895072 0.44372708
0.046953611 0.19097348 0.44404474
0.05214259 0.19015171 0.44741923
0.055101804 0.18885109 0.44698048
0.072251387 0.18642044 0.45507383
0.073667489 0.18707007 0.45839679
0.079056613 0.18621209 0.46120679
0.07976906 0.18324302 0.46281058
0.042906433 0.18828988 0.44583306
0.045187078 0.18941161 0.44876459
0.05052473 0.18693799 0.45033845
0.071509928 0.18396416 0.46133181
0.076157138 0.18495187 0.46486062
0.078768939 0.18269436 0.46561566
0.039032627 0.186407 0.44994542
0.042610273 0.1880002 0.45252416
0.048572466 0.18471816 0.45481938
0.068361573 0.18176699 0.46539137
0.073735863 0.1834437 0.46904713
0.077160433 0.18068673 0.47007775
0.032626409 0.18439464 0.45227534
0.0354397 0.18412793 0.45382091
0.039764874 0.18476738 0.45722508
0.046347473 0.18304278 0.45835257
0.066169739 0.18014902 0.46898729
0.071703307 0.18071619 0.47391745
0.075839162 0.17819236 0.47502431
0.078201681 0.17765892 0.47691339
0.031786393 0.18415421 0.45425844
0.033814229 0.18183151 0.4567945
0.038604002 0.18108258 0.4592545
0.043090489 0.18006644 0.46204007
0.064054631 0.17690462 0.47337821
0.068675399 0.17669471 0.47553307
0.073674873 0.17616516 0.47779164
0.076985665 0.17734176 0.47859788
0.032590408 0.18053126 0.46050352
0.037110094 0.17994493 0.46253157
0.040106721 0.17885387 0.46492592
0.063062839 0.1753661 0.47726375
0.066889122 0.17539319 0.47855636
0.070643529 0.17478877 0.48112911
0.053468611 0.19016874 0.43682593
0.056459911 0.18992525 0.43814337
0.078747436 0.18645298 0.45036161
0.081032872 0.18652901 0.45200124
0.050726514 0.18898328 0.43794641
0.058119267 0.18849704 0.439693
0.058024332 0.18802798 0.4426851
0.073839366 0.18563619 0.45137751
0.076429784 0.18554613 0.44961253
0.081424117 0.18439144 0.4540486
0.044881731 0.18747495 0.44324011
0.046983857 0.18680528 0.44110447
0.05389113 0.18419403 0.44660163
0.055661991 0.18576822 0.44566002
0.072320148 0.18347593 0.45397514
0.071882412 0.18221775 0.45602995
0.08028508 0.18171677 0.45897463
0.079765081 0.18237144 0.4623583
0.043175656 0.1845057 0.4446179
0.044673309 0.18345995 0.44453785
0.051426977 0.18347304 0.44923455
0.070938841 0.18057171 0.45962477
0.078523591 0.1791092 0.46250826
0.078746721 0.17930391 0.46415484
0.03986755 0.18295214 0.44802341
0.043705896 0.18084581 0.44899118
0.048120447 0.18140151 0.45186403
0.070081122 0.17828646 0.46329251
0.074374288 0.17626402 0.46538576
0.077583507 0.17745733 0.46787682
0.037251789 0.18152158 0.45143828
0.040962793 0.17979708 0.45344937
0.045055605 0.17933455 0.45587885
0.067955278 0.17600653 0.46797875
0.07198827 0.17523709 0.47000861
0.075887427 0.17597483 0.4719274
0.036031339 0.17937709 0.45555222
0.038520604 0.17904159 0.45565635
0.042967979 0.17812425 0.45906326
0.066058062 0.1747063 0.47152811
0.0707068 0.17421833 0.47334018
0.07252495 0.17394096 0.47500595
0.054302529 0.18747532 0.43608582
0.055944435 0.1873773 0.4367972
0.051017947 0.18453345 0.43642247
0.056560755 0.18393937 0.43777889
0.057398699 0.18383348 0.44125834
0.07412605 0.18151966 0.45065671
0.077380732 0.18096986 0.44936043
0.081250936 0.17990866 0.45248467
0.048460364 0.18211746 0.4395895
0.053367585 0.18010455 0.4432767
0.056541055 0.18140772 0.44301873
0.072669648 0.17904738 0.45184174
0.073780581 0.17680758 0.45401275
0.080044352 0.17762205 0.45628333
0.0472605 0.18119235 0.4438062
0.05118281 0.18048267 0.44485623
0.073702529 0.17703998 0.45723855
0.07685741 0.17680518 0.45962411
0.052606292 0.17994443 0.4356291
0.05595183 0.17960566 0.43613359
0.078122228 0.17618732 0.44824418
0.08026062 0.17638272 0.45086497
0.050917644 0.17826968 0.43763766
0.054369397 0.17728543 0.44018555
0.056480449 0.17889951 0.44114825
0.073624976 0.17650767 0.45036936
0.075005785 0.17435208 0.45138821
0.079278477 0.17412312 0.4528932
0.051488232 0.17466734 0.4397535
0.07571286 0.1714077 0.4530434
0.077017069 0.17071703 0.4536297
0.05349756 0.17531538 0.43432197
0.055877768 0.17498401 0.43436044
0.078612097 0.17164725 0.44665617
0.051299773 0.17338502 0.43511456
0.055959377 0.17277262 0.43723339
0.0757415 0.1698537 0.44779196
0.080052316 0.16926292 0.45032129
0.049635917 0.17127721 0.43797332
0.05245214 0.17088115 0.43965828
0.074677758 0.16703226 0.4517149
0.078040138 0.16715366 0.45336658
0.056273881 0.17076096 0.43270758
0.078549527 0.16787207 0.4450379
0.051508125 0.16911571 0.43252495
0.056558412 0.16887149 0.43399563
0.057678252 0.16700351 0.43638778
0.0740932 0.16444357 0.4450829
0.077585272 0.16585489 0.44510177
0.080988385 0.16461134 0.4482947
0.048782993 0.16675103 0.43626767
0.05327791 0.16643989 0.43954289
0.056386776 0.16550812 0.43851987
0.072490953 0.16298094 0.44761336
0.073636435 0.16348541 0.45088074
0.079142086 0.16240072 0.45238239
0.048532315 0.16368288 0.43810025
0.051323466 0.16339922 0.43967927
0.07363499 0.15998527 0.45187101
0.076733001 0.15989521 0.45350853
0.051711347 0.16497751 0.42990446
0.057061739 0.16517998 0.4309898
0.05896901 0.16344115 0.43423915
0.074267238 0.16126722 0.44263545
0.078423522 0.16192169 0.44267225
0.082049035 0.16030559 0.44614163
0.047974452 0.16266987 0.4331075
0.057534039 0.16158429 0.43762431
0.071795799 0.15953583 0.44546872
0.081033885 0.15777212 0.45085549
0.047459543 0.1598534 0.437213
0.050945394 0.15919229 0.44002101
0.054851547 0.15832081 0.44024277
0.070517562 0.15667143 0.44889605
0.073062368 0.1559633 0.45220578
0.077429585 0.15541002 0.45333791
0.047961544 0.15631378 0.43948233
0.049046401 0.15622054 0.43987539
0.069973126 0.15325043 0.45067054
0.072791241 0.152817 0.45286384
0.075318702 0.15249425 0.45400259
0.052583966 0.16049996 0.42808193
0.057187598 0.16034776 0.42942768
0.059285343 0.15917909 0.43243146
0.074830472 0.15702254 0.4408161
0.078546286 0.15711623 0.44116846
0.082019381 0.15605409 0.44407451
0.048272099 0.158613 0.43038264
0.058457002 0.15681213 0.4354018
0.072099872 0.15486963 0.44276959
0.082171835 0.15325364 0.44820043
0.04635179 0.15596645 0.43424544
0.050678708 0.15598711 0.44027045
0.056046773 0.15461394 0.43876278
0.070041209 0.15259492 0.44641367
0.079312846 0.15118828 0.45223242
0.0461285 0.15332761 0.43854681
0.049588729 0.15233755 0.44111934
0.05317238 0.15232202 0.44098073
0.06927558 0.15005048 0.44986945
0.070968129 0.14908564 0.45275852
0.075686485 0.14877656 0.45431125
0.045330379 0.14987735 0.44098783
0.047224537 0.14962441 0.44235128
0.070722274 0.14631172 0.45503199
0.073311508 0.14574596 0.45595369
0.053104252 0.15676081 0.4278926
0.056424387 0.15635611 0.42920789
0.058624636 0.15589225 0.43139404
0.078191213 0.15302621 0.44116667
0.081039958 0.15290913 0.44296479
0.050704151 0.15408374 0.42930895
0.055352405 0.1526594 0.43055376
0.057907872 0.15340865 0.43337944
0.073510937 0.151411 0.44162929
0.077113122 0.14952032 0.44238919
0.08070311 0.14991836 0.44535789
0.047793597 0.15152414 0.4317084
0.054194041 0.1497225 0.43251896
0.056135088 0.15068811 0.43659422
0.071123578 0.14836799 0.44448048
0.075685933 0.14639151 0.44436711
0.079544447 0.14678104 0.44876248
0.045089707 0.14918236 0.43598592
0.051384185 0.14865899 0.44097081
0.053176962 0.14755307 0.43948165
0.069362827 0.14513564 0.44859841
0.069555745 0.14645851 0.45067093
0.077304304 0.14448851 0.45305473
0.044337355 0.14642555 0.43991765
0.047666933 0.14571701 0.44283861
0.051236965 0.14533196 0.44178313
0.0681016 0.14303812 0.45104486
0.069076344 0.14283299 0.45449042
0.073850207 0.14213645 0.45563108
0.045710795 0.14318654 0.44239396
0.070013449 0.14004819 0.45588672
0.071147494 0.13992709 0.45635054
0.049344644 0.14658545 0.43167627
0.05277836 0.14657018 0.43306583
0.055463154 0.14553568 0.43491167
0.071772024 0.14302242 0.44341609
0.074848942 0.14327471 0.44501469
0.077672586 0.14233528 0.4470939
0.045937892 0.14462146 0.43374988
0.051197521 0.14581153 0.43402523
0.054049272 0.14378217 0.43786916
0.069502942 0.14157252 0.44608533
0.074563399 0.1422267 0.4465794
0.077582538 0.14015274 0.45032942
0.044960186 0.14241995 0.43780398
0.048372999 0.14106956 0.44096443
0.05208578 0.14196339 0.44025075
0.068068981 0.13955379 0.44923714
0.069624014 0.13749912 0.45232379
0.074401096 0.13812359 0.45341364
0.04592051 0.14207761 0.44182825
0.06952735 0.13852045 0.45454627
0.07174252 0.13868918 0.4557384
0.064368129 0.14951845 0.4167828
0.067436963 0.14977753 0.41777009
0.071990393 0.14924048 0.41971257
0.076170996 0.14885519 0.42205316
0.079933278 0.14766672 0.42525241
0.082279213 0.14603804 0.42626122
0.061189704 0.14775951 0.41781092
0.080568179 0.14679973 0.42677975
0.082862303 0.14523906 0.42988202
0.084581524 0.14321162 0.4324719
0.058123399 0.14632463 0.41882908
0.083364166 0.14283034 0.43262342
0.084356427 0.14200938 0.43392578
0.053250674 0.14260699 0.42539757
0.055696502 0.14378634 0.42644551
0.059659153 0.14264125 0.4286797
0.073983476 0.14052854 0.43674088
0.078258097 0.14015269 0.4383589
0.079872452 0.13854441 0.43984091
0.050552737 0.14250141 0.42813691
0.054450184 0.14462979 0.42923316
0.058979198 0.14138576 0.43250489
0.070544854 0.13953443 0.43890062
0.076843098 0.1410556 0.44122687
0.079041377 0.13813289 0.44360703
0.047018554 0.14030707 0.43134055
0.055896409 0.1392774 0.43613899
0.068909965 0.13718879 0.44264957
0.078002937 0.13565114 0.44769371
0.046798486 0.13904312 0.43462986
0.049573287 0.13780925 0.4367739
0.053037018 0.1373421 0.43757725
0.068701558 0.13504781 0.44634163
0.071447268 0.13451417 0.4488177
0.075248756 0.13467458 0.44987559
0.064026475 0.14642645 0.4139843
0.068207592 0.14700684 0.41516754
0.073021039 0.14653689 0.41708153
0.076834634 0.14587003 0.4198398
0.081292838 0.14475763 0.42242399
0.083409458 0.14324117 0.42427385
0.058365196 0.14470217 0.41667348
0.061559841 0.14578232 0.41607383
0.065760523 0.1445493 0.41707933
0.071668819 0.14372583 0.41916439
0.075691 0.14319956 0.42146885
0.079104863 0.14236943 0.4257609
0.083720163 0.14260419 0.42794761
0.085312314 0.14028755 0.43078357
0.056337945 0.14384463 0.41866863
0.059424199 0.14239272 0.42033371
0.06308049 0.1406637 0.42247859
0.0655737 0.13892218 0.42367786
0.077039421 0.13863549 0.42960045
0.080662712 0.1395358 0.43183509
0.084837608 0.13913561 0.43372425
0.053391203 0.14035451 0.42199016
0.056971505 0.14229946 0.42290613
0.061870001 0.14116099 0.42637101
0.063906156 0.13850927 0.42787337
0.071543872 0.13749442 0.43182218
0.074281909 0.13917103 0.43300238
0.080325142 0.13857895 0.43537846
0.082461908 0.13627023 0.43798903
0.050783232 0.13819899 0.42449185
0.059970193 0.13653393 0.43181449
0.061967056 0.13749447 0.43037388
0.070154116 0.1360569 0.43472993
0.069702685 0.13492426 0.43699983
0.081051886 0.13355166 0.44097158
0.048629746 0.13606614 0.4294574
0.051220104 0.13388428 0.43167189
0.056384653 0.1349019 0.43354237
0.069766149 0.13288981 0.44048676
0.073976748 0.13031948 0.44388252
0.077664502 0.1317251 0.4451558
0.051373117 0.13483337 0.43458611
0.053456813 0.13515022 0.43573421
0.069947794 0.13193524 0.44419044
0.071815602 0.13165271 0.44563174
0.075323105 0.13206217 0.44718665
0.064614803 0.1425807 0.41157144
0.069383062 0.14310257 0.41178623
0.074217737 0.14271438 0.41355607
0.078102864 0.14221703 0.41627878
0.082213506 0.14126794 0.41920274
0.084978051 0.13942504 0.42257398
0.059266202 0.14057168 0.41258779
0.061499912 0.14189366 0.41205829
0.066548645 0.1398851 0.41731891
0.070890665 0.13914432 0.41795102
0.075534165 0.13907328 0.42078024
0.077814452 0.13718797 0.42376748
0.085853785 0.13808927 0.42560774
0.086592808 0.13628349 0.42798564
0.056097019 0.13833112 0.41537338
0.062781885 0.14106305 0.41845837
0.06540034 0.13934235 0.41991603
0.067158058 0.13701127 0.42242619
0.07374315 0.1359411 0.42620575
0.07756117 0.13757028 0.4265646
0.086046755 0.13461317 0.43108624
0.052847885 0.13667381 0.41904128
0.065498486 0.13552278 0.42564091
0.071674675 0.13422015 0.42920893
0.084630966 0.13173391 0.43549263
0.050259642 0.13464481 0.42325345
0.060826227 0.13208246 0.42860472
0.063090503 0.13167998 0.42987511
0.06790559 0.13096145 0.43241158
0.071070969 0.13054115 0.43431902
0.082068726 0.12958552 0.4394353
0.049647294 0.13219601 0.42669839
0.052738383 0.13107456 0.42899743
0.057399906 0.13130249 0.43117988
0.061878324 0.13055441 0.43344662
0.066667706 0.13016765 0.43509373
0.070803002 0.12873313 0.43846303
0.074804068 0.12756047 0.44104934
0.078847729 0.12863629 0.44181606
0.075871147 0.13888261 0.41077447
0.079253368 0.13711512 0.41181388
0.065497935 0.1381899 0.40902179
0.070294172 0.13868463 0.4091239
0.074529737 0.13872112 0.41079322
0.078929879 0.1385082 0.41361108
0.083970644 0.13643426 0.41625881
0.086401939 0.13528243 0.42004171
0.059872225 0.13650817 0.41067258
0.062148936 0.13716061 0.40957531
0.068297133 0.13657284 0.4170267
0.071078815 0.13435191 0.41732764
0.075098075 0.13392398 0.41971147
0.087204084 0.13408399 0.42293942
0.087618738 0.13216099 0.42509204
0.057155669 0.13497967 0.41321519
0.068990216 0.13274018 0.41973969
0.074300975 0.13197188 0.42214057
0.086842574 0.1301381 0.42903039
0.054243527 0.13196647 0.41677794
0.065955594 0.13005885 0.42260155
0.072789818 0.12950188 0.42633235
0.072930962 0.12660891 0.42766419
0.084960327 0.12760456 0.43354648
0.052230235 0.13021812 0.42057532
0.054615002 0.12700692 0.42298913
0.061883256 0.12891972 0.42517608
0.065132916 0.12770194 0.42758155
0.068792425 0.12685484 0.43040019
0.072259553 0.12743571 0.43071559
0.079171583 0.12380387 0.43557
0.082035877 0.12571427 0.43644652
0.051955272 0.12933549 0.42437932
0.054563485 0.12836485 0.42561674
0.058951952 0.12736082 0.42778367
0.062657475 0.1269405 0.42956644
0.067474283 0.1265513 0.43182167
0.071665049 0.12512073 0.43498755
0.075910017 0.12481274 0.43660247
0.078456312 0.12561855 0.43892351
0.073662914 0.13323285 0.40533823
0.076303549 0.13415733 0.40772504
0.079491168 0.13361236 0.40945098
0.083187222 0.13189292 0.41091859
0.066591315 0.13374482 0.40637794
0.070422888 0.134755 0.40682366
0.075712338 0.13432994 0.40844095
0.081209123 0.13294545 0.41106451
0.084205098 0.13278614 0.41376001
0.087007754 0.13101833 0.41763854
0.060353823 0.13171989 0.40880966
0.062749602 0.13247438 0.40752047
0.087957419 0.12915407 0.42033952
0.087822549 0.12808618 0.42302293
0.05832126 0.13006814 0.41128802
0.070442505 0.12867799 0.41866347
0.073318526 0.12820598 0.42038363
0.086753473 0.12579581 0.42643693
0.056202762 0.12766317 0.41469976
0.056232952 0.12503488 0.41646004
0.067435734 0.12649181 0.42147169
0.072205588 0.12590909 0.42377794
0.084394544 0.12310158 0.4300825
0.054433819 0.12687625 0.41854668
0.056203209 0.12462209 0.42026621
0.059958119 0.12335847 0.42383587
0.064984873 0.12265135 0.42611963
0.068725333 0.121704 0.428736
0.073758826 0.12043189 0.43045899
0.078465126 0.12090033 0.43209058
0.081870027 0.12220351 0.43318215
0.059118938 0.12373522 0.42494905
0.063141637 0.12293199 0.42690134
0.069162831 0.12114641 0.42929447
0.072566234 0.12184397 0.43228766
0.075429462 0.12205411 0.43372533
0.069545582 0.13094588 0.40135992
0.072818622 0.13130765 0.4024958
0.077395871 0.13122015 0.40423435
0.081676841 0.13049832 0.40692383
0.08565934 0.12938672 0.40948817
0.08818078 0.12867397 0.41157535
0.066571273 0.13043201 0.40291724
0.070300132 0.13176157 0.40334901
0.081291065 0.13145122 0.40973616
0.085730545 0.13006979 0.41225964
0.08866445 0.12719908 0.41482592
0.0612939 0.12780991 0.40558064
0.062771395 0.12887836 0.40551594
0.087732673 0.12628803 0.41946697
0.088799387 0.12368196 0.41991663
0.059184279 0.12576628 0.40894637
0.086739868 0.12186146 0.4240379
0.05785688 0.12426552 0.4117547
0.058071963 0.12238376 0.41389856
0.082163066 0.11851939 0.42695075
0.084726319 0.1203271 0.42669612
0.058830447 0.12078214 0.41747004
0.061198972 0.11950456 0.42056245
0.064613946 0.11894348 0.42384154
0.069704778 0.11839095 0.426727
0.074731812 0.11730421 0.4278101
0.078836977 0.11821759 0.42843735
0.065469265 0.11658059 0.42421678
0.069129162 0.11640891 0.42640671
0.072107144 0.1157282 0.42750698
0.073571153 0.12779787 0.40110141
0.077840582 0.12654738 0.40244386
0.082146846 0.12605083 0.40451503
0.08561597 0.1259038 0.40758836
0.06719593 0.12588085 0.40192503
0.071579449 0.12539425 0.40146491
0.075762182 0.12439157 0.40180004
0.083362199 0.12324356 0.40582371
0.08594881 0.12344579 0.40885487
0.087915294 0.12256178 0.41263759
0.090035111 0.12311451 0.4160856
0.062090419 0.12482879 0.40392414
0.0647709 0.12339869 0.40377638
0.087329298 0.11951001 0.41508541
0.089075252 0.12069688 0.41834533
0.059935488 0.12284532 0.40763021
0.062090732 0.12026166 0.40698031
0.085171163 0.11643112 0.41944095
0.087244339 0.11882539 0.42109042
0.058723591 0.12122822 0.40968248
0.060080919 0.11856121 0.41143253
0.063158609 0.11608924 0.41411394
0.078155607 0.1137259 0.4220992
0.082555868 0.11471422 0.42309678
0.085110381 0.11753379 0.42468202
0.059535351 0.11733843 0.4152486
0.062376685 0.11599174 0.41805089
0.066509239 0.11492358 0.42028862
0.071151376 0.11421513 0.42271286
0.07522817 0.11385539 0.42492932
0.079529136 0.11403744 0.42585492
0.064773418 0.11535949 0.42297634
0.069394015 0.11476916 0.42544076
0.072635069 0.11450107 0.42691994
0.043307137 0.087660849 0.45753205
0.046639573 0.08745344 0.45941353
0.041880075 0.086307883 0.46034634
0.045114208 0.086090378 0.46197325
0.041392028 0.084637292 0.46284598
0.04296381 0.084522434 0.46384189
0.079374373 0.12185033 0.40093669
0.081590928 0.12185501 0.40222436
0.068444483 0.12193108 0.40154308
0.072099254 0.12086821 0.40065709
0.07627856 0.12137705 0.40078864
0.083210401 0.12002979 0.40426332
0.085176483 0.11911118 0.40733406
0.086756133 0.11836433 0.41076532
0.066651642 0.11969143 0.40312815
0.068675205 0.11752652 0.40206057
0.085450865 0.11510528 0.4110485
0.086010687 0.11663452 0.41337767
0.064284027 0.11794309 0.40670642
0.066477925 0.11504138 0.40707406
0.081900574 0.11284858 0.41540226
0.083939686 0.11490948 0.41700211
0.062990218 0.11680748 0.40991062
0.065486796 0.11391067 0.4117189
0.069254175 0.11065315 0.41463864
0.073311552 0.1099734 0.4168438
0.078366823 0.11200067 0.41847169
0.081364267 0.11384295 0.4201901
0.065309808 0.11358672 0.41548553
0.068076923 0.11221042 0.41696218
0.072103858 0.11144005 0.41885284
0.075523965 0.11222063 0.42099923
0.0478651 0.10205676 0.42307395
0.0488679 0.10186847 0.42329365
0.074815474 0.097970963 0.43712908
0.075720243 0.098007381 0.43777788
0.046576601 0.10118353 0.42490706
0.04887376 0.10041523 0.42684132
0.068249539 0.096255749 0.43872309
0.071796082 0.097066499 0.43899477
0.074618265 0.097003892 0.43991324
0.045511115 0.099023618 0.42790493
0.047531992 0.098288439 0.43064213
0.049985118 0.09749496 0.43255329
0.065795168 0.095170617 0.44100091
0.068851545 0.095105261 0.44206989
0.072356522 0.095128492 0.44212991
0.046434626 0.095971391 0.43409809
0.049137875 0.095194533 0.43677956
0.050688975 0.093637317 0.43914819
0.059376478 0.092251845 0.44317141
0.062313065 0.09328267 0.44386637
0.066030443 0.093121707 0.44470635
0.048759382 0.092915043 0.44053134
0.050393455 0.092453249 0.44283688
0.056053616 0.09149535 0.44584778
0.059507016 0.091485552 0.44602945
0.046440061 0.089497194 0.44520491
0.049118698 0.090236939 0.44669443
0.05341813 0.089522123 0.44853145
0.055792075 0.088286825 0.44985151
0.045508891 0.088142894 0.44693983
0.04626409 0.088178053 0.45057052
0.050587386 0.087144591 0.45298976
0.054302536 0.086978167 0.45199701
0.044472855 0.086149506 0.45509502
0.047837481 0.085563444 0.45675212
0.042342428 0.085541598 0.45917958
0.045274206 0.085134476 0.4609217
0.041228164 0.08385881 0.46220839
0.043220468 0.083770767 0.4633663
0.079849496 0.11717623 0.39860561
0.081936687 0.11710253 0.39973623
0.072968632 0.11597111 0.3993037
0.077040516 0.11675777 0.39899611
0.083257958 0.1155542 0.40234533
0.084796332 0.11460445 0.40554968
0.067329183 0.11227341 0.40068823
0.069664195 0.11428561 0.40062159
0.08520586 0.11224449 0.40905431
0.085683405 0.10967454 0.41059843
0.065317199 0.11099829 0.40328574
0.066947326 0.11255199 0.40566626
0.082177632 0.11024548 0.41375664
0.084494881 0.10814596 0.41355273
0.064648159 0.10961862 0.40567455
0.066525728 0.10926846 0.40902054
0.06814447 0.10920561 0.41271642
0.075229414 0.10824586 0.41657904
0.078807995 0.10740143 0.41570765
0.08270102 0.10692349 0.4152163
0.066001818 0.10615498 0.41104826
0.068785198 0.10678589 0.41413915
0.07308346 0.10638455 0.41645721
0.076629713 0.10455789 0.41683167
0.047886584 0.10025249 0.41986418
0.050178673 0.1000971 0.42239606
0.074494347 0.096453935 0.43526104
0.077925593 0.095862851 0.43585217
0.044977684 0.098772839 0.42305738
0.051089101 0.098645002 0.42520306
0.052772649 0.09651801 0.42766893
0.068304911 0.094371431 0.43579274
0.071685374 0.095802352 0.43602011
0.076542586 0.094151959 0.43975401
0.044222806 0.095632076 0.42695102
0.044992507 0.096180193 0.4302274
0.052536361 0.095081091 0.43160188
0.064414851 0.093237475 0.43797857
0.070309415 0.092515908 0.44353878
0.073084272 0.091329485 0.44229269
0.044265911 0.092957161 0.4290784
0.045157909 0.092721105 0.43253827
0.051433805 0.093737036 0.43541351
0.052132625 0.091712557 0.43722886
0.059643947 0.090731524 0.44096041
0.061714321 0.092675343 0.44105279
0.067538977 0.089673072 0.44448572
0.070800088 0.089330606 0.44323066
0.046007827 0.090506956 0.43527311
0.047328234 0.089891627 0.43900144
0.052507773 0.089230254 0.44164354
0.055344671 0.08905223 0.44298616
0.06053181 0.087894924 0.44624862
0.0641516 0.08813785 0.44534755
0.046213757 0.087200522 0.44320104
0.051855896 0.086435311 0.44512677
0.051924482 0.086117864 0.4455623
0.057141166 0.08568421 0.44903052
0.044060834 0.084519252 0.44658396
0.047542136 0.084451757 0.44936988
0.050216127 0.083778098 0.45080781
0.054707319 0.083122551 0.4522337
0.042022035 0.081870526 0.45002791
0.044878613 0.082735993 0.45304659
0.048143685 0.081653289 0.45429781
0.052056767 0.080512241 0.45582801
0.041253258 0.079953067 0.45257783
0.042545032 0.079138994 0.45604545
0.046415582 0.078860767 0.45839906
0.050280418 0.078703672 0.45804983
0.040664896 0.076827832 0.45967329
0.043929614 0.076869041 0.46176445
0.03887162 0.074790977 0.4626072
0.042153046 0.074854955 0.4647997
0.080487378 0.11290987 0.39597288
0.082942516 0.11265388 0.39744431
0.07033135 0.11053155 0.39484638
0.073962264 0.11178673 0.39644486
0.0771823 0.11281239 0.39675379
0.083921142 0.11191265 0.40025041
0.085890487 0.10998836 0.40289986
0.08863911 0.10799457 0.40493262
0.067923747 0.11009008 0.39736181
0.070757076 0.11246271 0.39819181
0.086103559 0.11029164 0.4062764
0.087769814 0.10723858 0.40791485
0.064993188 0.10826092 0.40144193
0.065390639 0.10864924 0.40485367
0.082899123 0.10609315 0.41394851
0.085773736 0.10507672 0.41232166
0.063822627 0.10525821 0.40442657
0.064703897 0.10567144 0.40732992
0.080349714 0.10332446 0.41575199
0.083139427 0.1024359 0.41464674
0.064855777 0.10268139 0.40967548
0.068091609 0.102065 0.41342112
0.072799325 0.10150047 0.4159736
0.07788033 0.10100365 0.41661116
0.067719936 0.098829225 0.41369736
0.071682662 0.09865649 0.41587812
0.047469549 0.096451417 0.41198638
0.049868003 0.097311027 0.41317117
0.078367792 0.092011862 0.42874762
0.081250228 0.092572756 0.43003345
0.083396584 0.091180667 0.43110153
0.045609854 0.095554784 0.41444522
0.048083246 0.097514763 0.41605616
0.052113794 0.095435455 0.4193145
0.07525301 0.092128105 0.43122411
0.080189914 0.092691891 0.43323416
0.082382888 0.090205185 0.43399075
0.04450091 0.094854057 0.41757533
0.045673579 0.093904622 0.42092541
0.050812386 0.092955232 0.42310488
0.052526664 0.093374446 0.42602667
0.06871663 0.09092769 0.4346256
0.072188988 0.089759715 0.43440789
0.076957688 0.089418851 0.43759963
0.080440797 0.089450866 0.43652171
0.044352747 0.092510685 0.42513573
0.048535779 0.090564735 0.42567655
0.052097067 0.090969875 0.42923605
0.065455258 0.088779449 0.43672544
0.070642173 0.087268844 0.43751469
0.073803559 0.08821848 0.44083142
0.044415809 0.091422394 0.42801639
0.046189405 0.089471847 0.43047416
0.050026722 0.088243321 0.43268809
0.051988151 0.088532254 0.43624806
0.060241222 0.087699018 0.43988067
0.063441411 0.08633098 0.43979678
0.06777361 0.086311035 0.44201982
0.071193606 0.087847844 0.44246811
0.048800346 0.086803526 0.43726677
0.051313784 0.085297823 0.43919685
0.056829885 0.084662147 0.44212511
0.059829887 0.084829174 0.44365537
0.064081773 0.086141214 0.44401127
0.04697318 0.082963511 0.44072643
0.052013192 0.083044752 0.44267753
0.053164147 0.082865462 0.44338146
0.057994723 0.081150055 0.44650602
0.044650458 0.080548801 0.44448653
0.048993297 0.079693608 0.44733796
0.05054694 0.079603694 0.44793358
0.055735156 0.078891076 0.45027322
0.043376792 0.078776851 0.4475058
0.04428108 0.077844732 0.44975093
0.048111346 0.076976687 0.45102078
0.053000793 0.076890998 0.45360601
0.043895371 0.075907424 0.45274481
0.048244756 0.074965492 0.45521289
0.051046271 0.073782384 0.45487645
0.080522284 0.10872639 0.39334345
0.084051967 0.10828956 0.39506513
0.071008831 0.10754202 0.39316261
0.074217416 0.10805521 0.39291811
0.077680267 0.10921077 0.39344236
0.085737161 0.10795479 0.39755344
0.087683097 0.10599695 0.40014502
0.089026116 0.10484315 0.40299645
0.068395317 0.10627363 0.39466673
0.087999433 0.10623921 0.40413707
0.08884728 0.10335334 0.40566289
0.064406596 0.10412297 0.39782864
0.088077947 0.10058717 0.40995362
0.060888879 0.10012363 0.39950922
0.062079445 0.10148169 0.40236044
0.085071862 0.09813644 0.41446197
0.08719676 0.095875822 0.41423279
0.062005304 0.098237813 0.40544802
0.063573271 0.099027313 0.40898019
0.078366131 0.097087801 0.41674599
0.081664771 0.095546775 0.4159382
0.050398592 0.095007524 0.40616938
0.052609548 0.095689476 0.40745416
0.061662272 0.095443137 0.40766436
0.062825531 0.095449276 0.41100165
0.06734404 0.095010296 0.41433448
0.071255691 0.094616078 0.41648659
0.076080441 0.093550727 0.41812164
0.080209263 0.091542616 0.41994235
0.083937556 0.090722293 0.42413124
0.085954785 0.089322798 0.4253065
0.047520231 0.095083259 0.40910465
0.051464416 0.096281841 0.41062701
0.054837137 0.093265779 0.41259637
0.06346485 0.092342615 0.41334888
0.073355161 0.090664953 0.41873446
0.078267716 0.089909583 0.42519552
0.082944147 0.091559373 0.42703059
0.085337676 0.089451753 0.42928714
0.045671869 0.093490846 0.41224977
0.047492992 0.09056145 0.4146561
0.054170001 0.091858968 0.41714045
0.074853882 0.088808581 0.42788473
0.080293119 0.085754454 0.43195203
0.083612874 0.08802449 0.43250784
0.045053232 0.092920579 0.41609803
0.04790258 0.0905362 0.41822365
0.051243905 0.08997491 0.41980278
0.073976219 0.086484961 0.43188345
0.076919489 0.086482316 0.43408841
0.080805108 0.08778543 0.43526253
0.04747168 0.078664899 0.43930787
0.051061504 0.078285001 0.43949819
0.054916713 0.07756757 0.44182706
0.057805009 0.077154554 0.44492218
0.046961579 0.07717061 0.44099924
0.047462147 0.075449787 0.4440231
0.051354662 0.074370503 0.44654784
0.055591941 0.074945271 0.44744352
0.043703161 0.075623408 0.44679081
0.046123713 0.073178269 0.44690526
0.050522119 0.073039003 0.44933271
0.053181835 0.073371775 0.45171177
0.043780703 0.070911452 0.4511016
0.047899555 0.070485011 0.45399737
0.050729208 0.071199812 0.45503905
0.041978877 0.067843921 0.45440459
0.045784738 0.067655995 0.45710403
0.039975721 0.06514819 0.45748323
0.043788753 0.064763837 0.45990598
0.081352592 0.10496378 0.39086753
0.085182451 0.10450992 0.39274094
0.071477786 0.10367101 0.39166
0.074655265 0.10365934 0.39081937
0.078726396 0.10404614 0.39101964
0.086134993 0.10276645 0.39470235
0.088090785 0.10158283 0.39795855
0.089188151 0.099912927 0.40055496
0.064670548 0.10045102 0.39129493
0.068709061 0.10183003 0.3922005
0.089239545 0.09828461 0.39960176
0.089698613 0.098803207 0.40342805
0.092327036 0.096283428 0.40602431
0.061984569 0.099425763 0.3934477
0.064556263 0.10165464 0.39507002
0.089456633 0.097892851 0.40859336
0.091787949 0.095096953 0.40918702
0.060010705 0.09764304 0.39764613
0.08904665 0.093498901 0.41296184
0.052901488 0.092899427 0.39977741
0.05771846 0.093425497 0.40108964
0.060887642 0.094238922 0.4034059
0.08324331 0.090877213 0.41527879
0.086742148 0.089259773 0.41631287
0.08982528 0.087519556 0.41919726
0.050302908 0.092816912 0.40252393
0.054945886 0.094093904 0.40466616
0.059257165 0.091746002 0.40667659
0.06125541 0.092909299 0.40937263
0.068236515 0.090160199 0.4143697
0.069285825 0.089654945 0.41454801
0.077901304 0.090238333 0.41814995
0.080773816 0.088701263 0.4182663
0.085638903 0.089383557 0.42082387
0.08894369 0.087167487 0.4230262
0.048310179 0.091090642 0.40621123
0.05644799 0.089612894 0.41022572
0.061738998 0.089439668 0.41167289
0.066172957 0.088867471 0.41353732
0.070889831 0.088239983 0.41623592
0.07515423 0.087783232 0.41913217
0.078569457 0.086453699 0.4220733
0.086573526 0.085690543 0.42663938
0.0479437 0.08908166 0.40928596
0.049940035 0.087809376 0.41196278
0.053708725 0.087420076 0.41422701
0.076574743 0.083912037 0.42618549
0.080558516 0.08352387 0.4284156
0.084115274 0.084004655 0.42839256
0.049867116 0.088269196 0.41605535
0.051548321 0.087622583 0.41675004
0.060852572 0.080786452 0.42363164
0.062932424 0.080494389 0.42490834
0.075729117 0.083938368 0.42941529
0.077379234 0.084210575 0.43070891
0.057511076 0.079923838 0.42652813
0.061653264 0.079236522 0.42874825
0.056976587 0.078508981 0.42858776
0.06045267 0.077981226 0.43013838
0.047776744 0.075173974 0.43869436
0.050184801 0.073596977 0.43863243
0.054967169 0.073187992 0.44147784
0.056822166 0.073470846 0.44346234
0.047470957 0.074192829 0.43931872
0.04922428 0.071126342 0.44134197
0.05315832 0.070406422 0.44349873
0.055972822 0.072320521 0.44499502
0.049167521 0.068105981 0.44331598
0.052112035 0.068168864 0.44517866
0.041517626 0.065335914 0.45387581
0.045363948 0.064319991 0.45780951
0.040192388 0.063064784 0.4564051
0.043886714 0.063074172 0.45912337
0.082584172 0.10159682 0.38977435
0.08476197 0.1012437 0.39085653
0.075369157 0.09954305 0.38971424
0.079884715 0.098910883 0.39029652
0.084825151 0.098139621 0.39255261
0.087766744 0.097603947 0.39641047
0.065310873 0.098612234 0.39061567
0.068662345 0.097529173 0.389985
0.07311964 0.097139046 0.38989601
0.088359505 0.094913878 0.39824989
0.090564921 0.094333351 0.40174139
0.092176966 0.094997689 0.40476874
0.062777922 0.095642909 0.39207411
0.065557912 0.094656266 0.39112851
0.090691976 0.091083884 0.40461594
0.091605559 0.091503195 0.40752578
0.057058521 0.090901516 0.39366829
0.059055023 0.093372867 0.39353943
0.09184666 0.088626631 0.41117421
0.092181496 0.085908882 0.41274413
0.053471189 0.090545967 0.39688995
0.057064325 0.092299782 0.39815933
0.060704574 0.091211893 0.40349776
0.082240768 0.087991782 0.41507053
0.088871196 0.087834537 0.41509238
0.091526322 0.085206948 0.41691497
0.049955178 0.089198999 0.39949241
0.060004473 0.089107417 0.40518978
0.069884554 0.08418531 0.41195184
0.08082255 0.085902616 0.41638717
0.091030143 0.083381914 0.42133966
0.048400361 0.086684383 0.40340656
0.057943229 0.085718721 0.40920055
0.061845511 0.084783033 0.4098883
0.066700146 0.084575742 0.41213197
0.070759587 0.083905056 0.41445646
0.075047687 0.082644716 0.41716817
0.078025721 0.082950242 0.41966176
0.087960951 0.080938816 0.42477798
0.048397474 0.085145004 0.40686685
0.050711833 0.084065288 0.40884516
0.054396842 0.084193833 0.41044095
0.063505374 0.078957312 0.41746107
0.066333115 0.078737408 0.41897762
0.078554973 0.080749601 0.4234187
0.081804305 0.079555362 0.42535228
0.084901527 0.079801798 0.42622024
0.058023833 0.078376435 0.41953588
0.061463509 0.079372287 0.41964746
0.065790601 0.078591019 0.42241848
0.067482151 0.075886361 0.42426381
0.055706844 0.077325031 0.42214668
0.056732766 0.078577422 0.42411968
0.064419508 0.077230051 0.42763123
0.066640876 0.074744478 0.42751971
0.052182436 0.074126177 0.4252378
0.055775225 0.074737437 0.42831445
0.060702719 0.07405857 0.4307906
0.064994268 0.072492957 0.43195409
0.05264134 0.071705692 0.42700642
0.055863593 0.071668297 0.43011349
0.059477143 0.071097851 0.43163991
0.062820829 0.070840269 0.43281838
0.049725018 0.067328617 0.44031981
0.053232968 0.066754997 0.4421348
0.048206177 0.064396836 0.44261873
0.051341332 0.064119667 0.44464117
0.047437742 0.061811186 0.4447493
0.05023957 0.061419055 0.44660711
0.080613367 0.094325535 0.39062145
0.08351317 0.093900941 0.39171162
0.069821857 0.093075298 0.38917312
0.073594838 0.092499405 0.38970357
0.0785717 0.092086956 0.39041105
0.084363505 0.091020726 0.39319873
0.087042928 0.090555921 0.39685336
0.089549646 0.090162843 0.39975086
0.063434653 0.091490395 0.39166182
0.066883162 0.090838149 0.390551
0.071444064 0.08943554 0.39006597
0.087181725 0.087100491 0.39858112
0.08949168 0.087433822 0.40264055
0.090606242 0.087605126 0.40618086
0.057018347 0.089486822 0.3929365
0.060450777 0.089311719 0.39201447
0.06457869 0.088321202 0.39128652
0.089793526 0.084682859 0.40506548
0.091479108 0.084833227 0.40851995
0.092729501 0.084086642 0.41197923
0.054985039 0.087832503 0.39487189
0.057484072 0.085280441 0.39518556
0.089624502 0.080498345 0.41234893
0.091973901 0.082548261 0.41444457
0.051921144 0.084595434 0.39792466
0.056570645 0.083076589 0.39748019
0.05987376 0.080828078 0.40269536
0.064874277 0.081613906 0.40504798
0.06614624 0.080920607 0.40681601
0.074527331 0.079520971 0.41168863
0.076776192 0.079559252 0.41162083
0.081571959 0.07749974 0.41427222
0.087954037 0.078377739 0.4144381
0.090223238 0.078913607 0.41835427
0.050316904 0.082573973 0.40158588
0.053246491 0.080029219 0.40340969
0.057932176 0.080560021 0.40567651
0.062552631 0.082484812 0.40774512
0.065961264 0.080395848 0.41046324
0.071374238 0.079295322 0.4137381
0.075926103 0.080321908 0.41466597
0.079867788 0.077258721 0.41742918
0.084104888 0.075610884 0.41985849
0.087805316 0.077091292 0.42136452
0.049556527 0.082873628 0.40539521
0.052071825 0.081337497 0.40628916
0.054829642 0.081118777 0.4079144
0.061125062 0.07547646 0.41309327
0.064278372 0.077361785 0.41412693
0.06878037 0.076751038 0.41635898
0.070556499 0.074162103 0.41822147
0.079640307 0.077640116 0.42111534
0.082715094 0.076903775 0.42256102
0.058427781 0.075106934 0.41593221
0.061211325 0.076919861 0.41622001
0.068075702 0.075775199 0.42009035
0.069483303 0.073288575 0.42188233
0.054504812 0.073276311 0.41884378
0.068304792 0.071261987 0.42634434
0.050826438 0.072297364 0.4219965
0.05156935 0.071492299 0.42218319
0.066212505 0.069238819 0.43041292
0.052193828 0.068774179 0.42594042
0.054605998 0.067313232 0.4294937
0.059251584 0.066695578 0.43158597
0.063019164 0.067734174 0.4317604
0.048530318 0.061136074 0.44205093
0.050915312 0.060653619 0.44369096
0.047540527 0.05956535 0.44334641
0.050397612 0.059181415 0.44533741
0.074883811 0.088974096 0.39103928
0.079532132 0.089239895 0.39116833
0.082590878 0.088873707 0.39250821
0.084552415 0.087855063 0.39571491
0.067910656 0.087478556 0.39077246
0.071862489 0.086748943 0.39153939
0.077014424 0.085114464 0.39328295
0.081094496 0.084258273 0.39540368
0.085305244 0.084850676 0.39879084
0.087890804 0.084282063 0.40157589
0.061583787 0.085042983 0.39216357
0.065288514 0.084520787 0.39247984
0.069896363 0.082707874 0.39420435
0.074676007 0.081457362 0.39603138
0.078906059 0.080677025 0.39823377
0.083230071 0.080846488 0.40141866
0.087303348 0.081262223 0.40428084
0.089918159 0.080853522 0.40735051
0.060148261 0.083491668 0.39433652
0.063492045 0.081303582 0.39565936
0.067045525 0.079618931 0.39654228
0.074891135 0.078640878 0.39939141
0.076304018 0.079044841 0.39911035
0.081924282 0.077491969 0.40429476
0.085312933 0.078157686 0.40734452
0.088677295 0.079295821 0.40968683
0.052929621 0.081273682 0.3986254
0.056425303 0.081437185 0.39875293
0.060673185 0.080049656 0.40001136
0.065200642 0.078211665 0.40253896
0.067341015 0.075463437 0.40320796
0.075171135 0.074218407 0.40759495
0.078283288 0.076114252 0.40933514
0.082703099 0.076667458 0.41185984
0.086147979 0.077109151 0.41443744
0.088198617 0.076095387 0.41757065
0.052271441 0.080760069 0.39967564
0.053892761 0.079860628 0.40092033
0.065588936 0.07681264 0.40565559
0.065724611 0.074936986 0.40706477
0.07300102 0.073608533 0.41054294
0.07499709 0.075305 0.41070911
0.085937649 0.075382106 0.41797262
0.062187422 0.072872348 0.41033575
0.063673884 0.074310727 0.40983626
0.071499154 0.073514529 0.41500482
0.072076514 0.071377784 0.41538689
0.05724135 0.070856161 0.41330779
0.071376801 0.069087818 0.42095041
0.055440653 0.068766668 0.41537482
0.070137031 0.066894859 0.42343056
0.053401407 0.066467658 0.42010662
0.066512749 0.064606823 0.42734617
0.052142743 0.064157255 0.42419633
0.053948898 0.062486693 0.42761433
0.060077425 0.061709665 0.43066323
0.063715823 0.062310956 0.43019053
0.055543497 0.061421886 0.42869237
0.057733715 0.061327949 0.42999151
0.07361576 0.079520643 0.39710748
0.07819555 0.078840233 0.3996394
0.069030635 0.078443795 0.39764273
0.072036289 0.077966161 0.39902407
0.077059284 0.077222086 0.40174004
0.079835758 0.076713897 0.40372351
0.067834064 0.076960042 0.39994368
0.070422746 0.075504355 0.40305069
0.074092299 0.075006001 0.4049564
0.078269601 0.075412259 0.40557176
0.067926846 0.072576575 0.40665039
0.071536317 0.071796589 0.40879247
0.062447954 0.069249243 0.40870392
0.065730028 0.069079533 0.40799937
0.071126036 0.068598568 0.41085881
0.072332337 0.067755841 0.41409323
0.055758234 0.064884596 0.41048741
0.057766341 0.066830859 0.41109008
0.072200991 0.065011412 0.4187178
0.073356338 0.06344422 0.42048979
0.055458985 0.065322846 0.41124588
0.056025915 0.065163031 0.41366202
0.070738338 0.063121229 0.42167678
0.073102847 0.063250445 0.42107499
0.054597184 0.0620277 0.41821894
0.066970699 0.060473021 0.4248684
0.05316595 0.059919972 0.42189431
0.0553643 0.058187224 0.42527136
0.060164899 0.057497684 0.42770538
0.064276144 0.058239538 0.42756912
0.055514529 0.059757147 0.42743683
0.057672448 0.059350461 0.42854184
0.065953165 0.064740881 0.40876666
0.06949763 0.064287953 0.41072857
0.06037518 0.06259717 0.40982342
0.064139843 0.061315611 0.40959358
0.069171958 0.06076492 0.41226429
0.071126327 0.061153837 0.41550624
0.057779595 0.060206681 0.41217875
0.069179855 0.057778008 0.41448379
0.07013946 0.05840715 0.41891319
0.056149639 0.05795389 0.41616058
0.057001777 0.055004932 0.41754195
0.06476184 0.053823896 0.42208132
0.067164756 0.056266565 0.42217922
0.054915905 0.057066225 0.41979736
0.057051525 0.054926474 0.42138663
0.061378673 0.054262634 0.4237859
0.064720184 0.055634387 0.42469916
0.064757682 0.058259286 0.41102055
0.066983208 0.058273502 0.41197473
0.059597693 0.057607837 0.41155976
0.062552601 0.054202322 0.41290072
0.065557964 0.053583626 0.41443709
0.068578072 0.055393361 0.41707334
0.058206715 0.055951018 0.41370392
0.060925361 0.052191697 0.41560468
0.063895784 0.051493883 0.41753235
0.067212358 0.05415139 0.41917643
0.059470788 0.053034142 0.41941294
0.061940677 0.052618727 0.42045122
0.07507664 0.054977082 0.40082064
0.076549888 0.054713305 0.40124515
0.073852733 0.054047003 0.40196779
0.063576952 0.050472282 0.41259852
0.064638846 0.050057597 0.41297346
0.062015899 0.048867483 0.4137904
0.064206414 0.048510142 0.41517091
0.061244644 0.047857437 0.41676456
0.062090732 0.047742613 0.41710839
0.077894188 0.055433974 0.39685866
0.079027638 0.05520637 0.39731279
0.075266272 0.053479798 0.39879131
0.07764183 0.053805891 0.40006036
0.06969054 0.050177976 0.40075335
0.072742969 0.051114768 0.40205845
0.075874545 0.05175896 0.40224084
0.067702159 0.047604464 0.40239865
0.070661411 0.048005812 0.40355334
0.064291716 0.045454048 0.40755352
0.06587778 0.045007143 0.40914837
0.06223736 0.044288192 0.41096595
0.06459786 0.044186279 0.41223967
0.069656141 0.047237802 0.39967173
0.072283491 0.047400333 0.4003388
0.067213491 0.044689849 0.40142116
0.070172966 0.044593297 0.40286502
0.064794533 0.041913677 0.40479741
0.066977501 0.042814665 0.40641052
0.063635528 0.041295022 0.40829664
0.065134794 0.041828994 0.40905631
