# .PCD v0.7 - Point Cloud Data file format
VERSION 0.7
FIELDS x y z
SIZE 4 4 4
TYPE F F F
COUNT 1 1 1
WIDTH 1190
HEIGHT 1
VIEWPOINT 0 0 0 1 0 0 0
POINTS 1190
DATA ascii
0.082219295 0.055679079 0.65183479
0.090770669 0.075674891 0.62646115
0.083727077 0.047513068 0.65786052
0.084424287 0.047809284 0.65690666
0.083732612 0.054408241 0.65183479
0.092703059 0.075063333 0.62538534
0.096548162 0.077772588 0.61937124
0.09698233 0.078549325 0.61852825
0.088936038 0.047536913 0.65370125
0.08998137 0.049132477 0.65104508
0.091421373 0.052613351 0.64727044
0.098082125 0.068198606 0.62729633
0.099776685 0.071740016 0.62233007
0.09922348 0.074220628 0.62058306
0.097748853 0.077724218 0.61861992
0.090291522 0.046702236 0.6532613
0.091035962 0.048972312 0.65025949
0.092698582 0.051263414 0.64717484
0.099501744 0.06738776 0.62683511
0.10029596 0.070007324 0.62323141
0.10124183 0.072156817 0.62083095
0.064170972 0.064907864 0.65169275
0.065033585 0.067117646 0.649562
0.071615554 0.082229868 0.62999243
0.072283179 0.083619386 0.62778854
0.067279972 0.063415289 0.65325487
0.067956448 0.066783905 0.64989591
0.069157019 0.067089364 0.64650863
0.073712625 0.078101188 0.63207269
0.074014001 0.081297427 0.63098311
0.07577616 0.083814323 0.62726456
0.071044438 0.057039667 0.65356684
0.070956588 0.060050923 0.65351528
0.073037483 0.063644603 0.64885235
0.071883529 0.064814858 0.64603454
0.075797111 0.076487839 0.63140768
0.078745529 0.078381568 0.63031685
0.080230378 0.08202 0.62560177
0.081486925 0.080704227 0.62267178
0.073473908 0.05554628 0.6539036
0.075870506 0.058331683 0.6526581
0.076085009 0.060664076 0.64703667
0.081934683 0.075090513 0.62893319
0.084375426 0.079556912 0.6259135
0.084414683 0.079978332 0.62240517
0.078253403 0.052018445 0.6543206
0.080038778 0.056009859 0.65262687
0.080775939 0.058329526 0.64586937
0.086484805 0.071859822 0.62865239
0.088919677 0.077335894 0.62562865
0.08902055 0.07803297 0.62116832
0.081859559 0.046355303 0.65665352
0.082720071 0.048389178 0.65430886
0.085094757 0.052369911 0.65127259
0.084632136 0.056049082 0.64545661
0.09039741 0.069650695 0.62824756
0.09398289 0.074646667 0.62407225
0.094009876 0.076022938 0.61929679
0.095292807 0.077595994 0.61699152
0.083966367 0.045848005 0.65666002
0.085866898 0.046039194 0.65315425
0.087150753 0.049277429 0.64898056
0.08880651 0.052157801 0.64475179
0.094987333 0.066485316 0.62646067
0.096038356 0.069932193 0.62284774
0.097089864 0.073444694 0.61873275
0.097189546 0.076727778 0.6172471
0.089687988 0.044755924 0.65231907
0.090619937 0.047855783 0.64852345
0.092225313 0.049566668 0.64529878
0.098916635 0.065227926 0.62526578
0.099318109 0.068155646 0.6225127
0.1009509 0.070766196 0.61910701
0.06243033 0.06322179 0.64998645
0.063030057 0.065369263 0.64758402
0.069755629 0.080546677 0.62802672
0.070842758 0.082449809 0.62626219
0.064078011 0.060591657 0.65072638
0.064096652 0.065780938 0.64515764
0.067007348 0.065782309 0.64431524
0.071805127 0.076604456 0.63048571
0.069502018 0.07816726 0.62904114
0.072643608 0.081532001 0.62406474
0.070467509 0.056063417 0.65249527
0.067884885 0.056830715 0.65102232
0.071559332 0.060705476 0.64352345
0.070322491 0.062929928 0.64367408
0.074568853 0.074374795 0.62943071
0.07660567 0.073467195 0.62841856
0.077563256 0.079526171 0.62194568
0.081005141 0.080044731 0.62212658
0.072046414 0.052985918 0.65120625
0.071581736 0.053331066 0.64947194
0.074639395 0.058790449 0.64413178
0.080235943 0.072132632 0.62716854
0.081270508 0.076938644 0.62054932
0.082832634 0.077447072 0.6202327
0.07602711 0.049996622 0.65162188
0.076005757 0.051427878 0.64737248
0.077839181 0.055345774 0.64431655
0.083886772 0.070430845 0.62538368
0.084862985 0.072392404 0.62068236
0.086626142 0.075834349 0.61895818
0.079867691 0.047588728 0.65166748
0.080908984 0.049326878 0.64758283
0.082333378 0.052258346 0.64408356
0.088813558 0.06795761 0.62424874
0.089847445 0.070583597 0.62064147
0.090876728 0.074132532 0.61823833
0.084041029 0.04578197 0.65014046
0.083567873 0.047348291 0.64823192
0.085841961 0.050349567 0.64398354
0.09263026 0.066171214 0.62388873
0.093327835 0.06940271 0.62012005
0.094527975 0.070732281 0.61840266
0.061391748 0.061875731 0.64761853
0.061711222 0.063077345 0.64632791
0.062312536 0.05755049 0.64758909
0.06236098 0.061289985 0.64323825
0.065554552 0.062272124 0.6419512
0.07083869 0.073893324 0.62744218
0.068820417 0.075677902 0.6251362
0.070941806 0.078130275 0.62121814
0.065850839 0.054476265 0.64692724
0.068241253 0.05709238 0.64152628
0.067342095 0.06022485 0.64042407
0.07219819 0.071310148 0.62638545
0.073953047 0.070853859 0.62361479
0.074798219 0.076194823 0.6196382
0.070178978 0.05353367 0.64625287
0.070286922 0.055993341 0.64294696
0.077121593 0.071378782 0.62322676
0.078724653 0.073788926 0.62052107
0.060960598 0.055438146 0.64335567
0.060684953 0.057667762 0.64080328
0.067334652 0.07278423 0.62138283
0.06941554 0.074792072 0.6196171
0.063212574 0.05334305 0.64287645
0.064870551 0.055473186 0.63939953
0.065412879 0.058217432 0.63899505
0.070427135 0.07006076 0.62418705
0.071004152 0.06970492 0.62151653
0.071499765 0.072804525 0.61824238
0.064968489 0.051558401 0.63948363
0.072313137 0.068408906 0.61859834
0.072557725 0.068946034 0.61712408
0.05926292 0.052732006 0.63965082
0.058750518 0.054214474 0.63782972
0.06545794 0.06981492 0.61806095
0.060433116 0.049938157 0.63955176
0.061420746 0.053132199 0.63562763
0.067119688 0.066677861 0.61844122
0.068586156 0.069690555 0.61468583
0.06348595 0.047674995 0.63858122
0.064475179 0.049640495 0.63611442
0.071038991 0.064494267 0.61635494
0.071898565 0.067201331 0.61390924
0.05684714 0.051386904 0.6348123
0.063712932 0.066970423 0.61566544
0.057657838 0.046822 0.63680154
0.057944976 0.050463565 0.63300884
0.059931174 0.050297447 0.63046062
0.06458886 0.061434295 0.61611193
0.06389299 0.064905249 0.61482549
0.066177063 0.066907063 0.61107075
0.061796516 0.043738175 0.63617909
0.063961312 0.047171917 0.63236445
0.062223084 0.04862589 0.62982589
0.0673398 0.059614684 0.61563122
0.070287757 0.06120782 0.61462426
0.070461966 0.064603329 0.6099143
0.063486904 0.041694608 0.63377053
0.064384103 0.043705363 0.63142186
0.071081363 0.058936518 0.6118961
0.07197614 0.061307408 0.60947424
0.054860044 0.043788023 0.63415569
0.054726593 0.04790042 0.63056183
0.057376839 0.048498768 0.62742531
0.062012922 0.05906146 0.61415142
0.061148688 0.062491562 0.61187285
0.063633814 0.064433351 0.60764837
0.058703076 0.039948214 0.63434517
0.060902968 0.046640366 0.62638646
0.065240383 0.056474674 0.61399281
0.068326063 0.062585339 0.60558999
0.062677249 0.038184933 0.63186538
0.064596504 0.040595036 0.6285516
0.063894026 0.042823978 0.62529504
0.068723321 0.054043259 0.61211061
0.071339622 0.055812731 0.60929
0.071435317 0.058708977 0.60578817
0.064600989 0.036414232 0.6285345
0.06473577 0.037178598 0.62767565
0.070405826 0.051539801 0.60965085
0.071887597 0.053547468 0.60705978
0.072413519 0.05528507 0.60494006
0.052672282 0.041105065 0.63067043
0.052942455 0.044473514 0.62726337
0.055338781 0.045567092 0.62446147
0.059908994 0.05631699 0.61103916
0.059423331 0.059088409 0.60858488
0.061421335 0.061227232 0.60496974
0.055786494 0.037023976 0.63171571
0.058300275 0.043739211 0.62272942
0.062317729 0.05314067 0.61091167
0.06526652 0.059955556 0.60205662
0.059847862 0.034338996 0.63033396
0.0647429 0.038239188 0.62635273
0.062004909 0.04094518 0.62209177
0.066215329 0.050582953 0.60993272
0.069731325 0.057018872 0.60168552
0.063955925 0.032931939 0.6277535
0.065635718 0.035067383 0.62426209
0.064696476 0.037605118 0.62190843
0.0696266 0.048741717 0.60793871
0.072012044 0.049669866 0.60557431
0.072450317 0.053039964 0.60193843
0.066342667 0.030313835 0.62531441
0.067232676 0.031675089 0.62362158
0.074144825 0.047889065 0.60329312
0.074433774 0.049475942 0.60099703
0.052189153 0.038889416 0.62764633
0.052705172 0.041161571 0.62490988
0.054317012 0.042704936 0.62270641
0.059301902 0.0560298 0.60584909
0.060407571 0.058224652 0.60354209
0.053975429 0.035520229 0.62702096
0.05407536 0.038035277 0.62267941
0.056289144 0.040748287 0.62100166
0.060722902 0.051631022 0.60768199
0.0605627 0.053013843 0.60378456
0.06266661 0.056245651 0.60114098
0.056838747 0.031994462 0.62663287
0.056104753 0.035448961 0.6209411
0.059683092 0.038033564 0.61959088
0.063885063 0.048207562 0.60651171
0.062655412 0.050105087 0.60208207
0.066087298 0.053709786 0.59898573
0.061494313 0.029011434 0.62591219
0.064909294 0.03381183 0.62043154
0.063004002 0.034142971 0.61872423
0.068130419 0.045268551 0.6045509
0.07016883 0.046584468 0.60499334
0.070655607 0.051094562 0.59799153
0.065355487 0.027096305 0.62366539
0.067417398 0.029376719 0.62039912
0.065570831 0.031531554 0.61795902
0.070692182 0.043246925 0.60339952
0.073817253 0.044254564 0.60195631
0.073823102 0.047344934 0.59808004
0.06729994 0.026182842 0.6199379
0.074830472 0.043198898 0.59905082
0.075021714 0.043988626 0.59812587
0.056219038 0.029715143 0.62202656
0.056800861 0.032345347 0.61948395
0.057945006 0.033800028 0.61660987
0.062443193 0.044868004 0.60240114
0.063321486 0.047453422 0.60024923
0.064666316 0.049103227 0.59730846
0.058905497 0.026199799 0.62246054
0.05805216 0.030818442 0.61979675
0.061055183 0.031971708 0.61571282
0.065479353 0.042597689 0.60234421
0.064857423 0.046734858 0.59938157
0.067729369 0.047965169 0.59517235
0.062963396 0.024519976 0.62074292
0.06520845 0.026451245 0.61691028
0.063724875 0.029629756 0.61524028
0.068770215 0.04059853 0.60123116
0.071325712 0.040706843 0.5981288
0.071345747 0.04469854 0.59521943
0.066648275 0.025498837 0.61910051
0.073560335 0.041628212 0.59851527
0.074232168 0.043486085 0.59694886
0.03849721 0.040539272 0.61703676
0.038782675 0.043043692 0.61501044
0.039626136 0.046190299 0.61124444
0.040948108 0.049225975 0.60776001
0.04316048 0.0515236 0.60380667
0.043536995 0.052218881 0.60088289
0.040124871 0.037191413 0.61766595
0.044462465 0.051583458 0.60246921
0.046891496 0.05256179 0.59923416
0.048927985 0.052741438 0.59613675
0.041733485 0.034144737 0.61845827
0.049329855 0.051628005 0.59663582
0.050334968 0.051945955 0.59513801
0.049038164 0.02896452 0.6177395
0.049567189 0.031661622 0.61678195
0.050797444 0.034006387 0.61290973
0.055328704 0.043869793 0.60038722
0.05592674 0.046884861 0.59698379
0.056928877 0.047132019 0.59446907
0.052304219 0.027317898 0.61892927
0.052601013 0.031711549 0.61769247
0.054611869 0.033158481 0.61172569
0.058153398 0.041007806 0.60153043
0.059079468 0.046865236 0.59803385
0.060760804 0.046746779 0.59400904
0.056107908 0.023701016 0.61906695
0.058737494 0.029980056 0.61154628
0.062054612 0.038718659 0.60020012
0.06485033 0.044835594 0.59212196
0.059297204 0.023106642 0.61767387
0.060701735 0.02452806 0.61453927
0.060684238 0.026793364 0.61175919
0.065590553 0.03758397 0.5980863
0.067358896 0.039508019 0.5954169
0.067543998 0.042478714 0.59282136
0.035699304 0.037809089 0.61554456
0.035941739 0.041355964 0.61297947
0.036702476 0.044731073 0.60909575
0.038499527 0.047365449 0.60557061
0.039960913 0.050133258 0.60132861
0.041212935 0.050851144 0.59847921
0.039502122 0.032923896 0.61752659
0.038254786 0.035873972 0.6163128
0.038231477 0.038168397 0.6124512
0.038895976 0.042107575 0.60755479
0.040211417 0.044928428 0.60407948
0.043583028 0.047364991 0.60041058
0.044687964 0.051116958 0.5971182
0.046978351 0.051039483 0.59384829
0.041856807 0.031144818 0.61786723
0.042714704 0.032577232 0.6144588
0.043898266 0.034290589 0.61038172
0.044421643 0.035038866 0.60724276
0.047601309 0.043827508 0.59833932
0.049007758 0.047331605 0.59617698
0.049890894 0.050293993 0.59277064
0.045580398 0.027075671 0.61665326
0.045763906 0.031092877 0.61552685
0.04798248 0.034273211 0.61080879
0.048858985 0.03410973 0.60725355
0.050940409 0.039399773 0.60072356
0.051556885 0.042664342 0.59990913
0.05248566 0.046896834 0.59503669
0.054434933 0.047185358 0.5914551
0.048495095 0.024056995 0.61633939
0.053481251 0.030451611 0.6076768
0.051678114 0.032352 0.60732645
0.054012157 0.037798867 0.6000495
0.0562675 0.036995634 0.59909701
0.057521611 0.044701431 0.58984977
0.053707063 0.02170128 0.61527687
0.055175319 0.022349894 0.61156231
0.055887479 0.026990633 0.60853523
0.059548039 0.036101881 0.5969196
0.06178382 0.037798852 0.59162921
0.062264726 0.041569944 0.58997262
0.058023751 0.023490939 0.61160088
0.058689419 0.025350455 0.6102373
0.06306567 0.036061451 0.59540755
0.064035915 0.03739373 0.593696
0.064782813 0.040389564 0.59138191
0.033031534 0.035278551 0.61281747
0.032196835 0.03907926 0.61000454
0.032816485 0.042506792 0.6061933
0.034571171 0.045303956 0.60275072
0.036449138 0.047979217 0.59879291
0.039020747 0.049136095 0.59499127
0.035122141 0.030203503 0.61470157
0.034170344 0.032640353 0.61428535
0.038060673 0.035566386 0.60849726
0.037666209 0.038250703 0.60497016
0.039375298 0.041897185 0.60131586
0.041679651 0.042628005 0.59787589
0.04171209 0.049243864 0.59287
0.04377285 0.04884579 0.59062135
0.038434859 0.026761701 0.61464328
0.040071726 0.033825241 0.61162752
0.040819533 0.034711249 0.60837209
0.042754989 0.03469988 0.60504371
0.044905011 0.039176032 0.59920114
0.044477578 0.043074202 0.59779334
0.046831768 0.047714707 0.58918417
0.042652674 0.023777792 0.61489511
0.046183534 0.032910891 0.60445303
0.048208002 0.036907189 0.59875178
0.051297758 0.045302521 0.58719742
0.047233921 0.021083485 0.61433744
0.049948271 0.027593387 0.60448313
0.050657429 0.029105037 0.6024546
0.052011549 0.032392234 0.59827185
0.053137831 0.034620233 0.59551466
0.055605054 0.042509772 0.58658665
0.050604921 0.019416191 0.61231369
0.052094884 0.021161465 0.60902244
0.053184967 0.024941312 0.60569543
0.054350585 0.027931888 0.60176456
0.054861002 0.031311929 0.59800744
0.057143278 0.033730224 0.59359682
0.058706276 0.036129605 0.58961278
0.058598276 0.039863292 0.58757699
0.029551636 0.040700424 0.60284197
0.029718824 0.042046692 0.5991267
0.030137915 0.032567576 0.60952544
0.029185968 0.036354996 0.60669553
0.029862784 0.039631493 0.60360777
0.031608474 0.04300493 0.60001338
0.032954238 0.045539025 0.5946759
0.03603489 0.046984822 0.59151882
0.032924138 0.027601354 0.61171073
0.031377442 0.029535793 0.61088687
0.037222788 0.034509547 0.60499084
0.03678374 0.035018366 0.60148239
0.038181916 0.037914906 0.5980655
0.038617045 0.047116265 0.5895716
0.040525526 0.046376105 0.58749473
0.035933565 0.024940148 0.61191636
0.039521225 0.032732762 0.60123718
0.040629789 0.0363231 0.59671623
0.044434272 0.044947963 0.58579552
0.039907403 0.021254268 0.61098039
0.042856511 0.029095106 0.60075545
0.044928223 0.034095153 0.59513021
0.046051905 0.032386851 0.59268439
0.049128465 0.042453062 0.58434743
0.043969691 0.019109931 0.61032486
0.045627885 0.018931633 0.60596091
0.04621996 0.02573405 0.60213393
0.047773238 0.027540736 0.59864789
0.049654853 0.029949073 0.59508222
0.049212731 0.032871567 0.59315312
0.052210767 0.035966042 0.58503103
0.052514747 0.039441634 0.58436024
0.047690839 0.018804925 0.60914797
0.048263133 0.020169055 0.60648566
0.049339294 0.0229067 0.60244715
0.050223149 0.025505237 0.59935653
0.051319193 0.02898271 0.59546483
0.053391203 0.031416856 0.59105873
0.053996176 0.034456797 0.5877248
0.055723608 0.037136093 0.58618933
0.024480283 0.034535233 0.60122317
0.026256343 0.037372038 0.5996992
0.027194943 0.039506793 0.59687102
0.027710849 0.041166697 0.59290242
0.02710285 0.029957661 0.60607278
0.026726766 0.033452503 0.60419005
0.027094141 0.037160523 0.60008031
0.028347703 0.040490717 0.59494674
0.030291745 0.042879317 0.5923425
0.033352226 0.044181246 0.58847445
0.030769616 0.024420036 0.60826582
0.029014394 0.026484638 0.60747361
0.035677366 0.043936167 0.58598322
0.038267374 0.043458056 0.58479053
0.03355711 0.022155788 0.60794199
0.037950128 0.030847209 0.59752971
0.038956538 0.032808077 0.59496158
0.041718401 0.041568242 0.58318955
0.037235662 0.019435555 0.60695177
0.038814127 0.017885238 0.60469073
0.041251104 0.027561976 0.59739935
0.042397879 0.030879797 0.59338856
0.04566434 0.03850805 0.58210403
0.041338228 0.018131835 0.60682368
0.042505287 0.018078255 0.60369259
0.045076188 0.020367481 0.59961969
0.046137422 0.023781063 0.59535295
0.047799122 0.026152218 0.59169912
0.048285518 0.029110009 0.58712333
0.0488411 0.033014834 0.58404529
0.04920359 0.036489382 0.58253556
0.046366211 0.020170234 0.60023803
0.047325261 0.022755543 0.59662759
0.048217416 0.026156228 0.59089965
0.050401609 0.02946296 0.58859229
0.051169138 0.031845424 0.58658135
0.021419883 0.029498806 0.60303372
0.021809205 0.032239281 0.60091895
0.022470746 0.035684515 0.59750223
0.024093388 0.038606923 0.59364116
0.025642175 0.04103202 0.58971792
0.027073549 0.04262184 0.58714002
0.02357753 0.02721989 0.60433257
0.023226477 0.030858317 0.60275227
0.026963633 0.039351419 0.59405786
0.028357022 0.041913442 0.58964425
0.030057082 0.042381778 0.58513594
0.027225427 0.021990731 0.60541356
0.026883235 0.023772933 0.60522532
0.034738813 0.041696269 0.58421457
0.034810327 0.040732265 0.58153182
0.030874815 0.019518569 0.60468858
0.039194703 0.038547676 0.58079332
0.033832721 0.017905962 0.60394615
0.035779461 0.017050002 0.60203278
0.042893238 0.033359237 0.5808413
0.042158734 0.036401033 0.58050823
0.039007522 0.016961794 0.59969443
0.041424092 0.01818621 0.5966177
0.043822628 0.020675678 0.59333462
0.04546266 0.024319757 0.58902431
0.045336712 0.027316405 0.58470809
0.045071237 0.030964537 0.58253998
0.043880913 0.019717278 0.5909822
0.045183398 0.022506807 0.58802551
0.045553405 0.024316605 0.58535528
0.020112254 0.030189758 0.59813529
0.020400625 0.032565445 0.59415197
0.021426748 0.035579637 0.59055448
0.023633046 0.038364854 0.58757514
0.022249969 0.024417363 0.60080111
0.020795526 0.027162958 0.59763724
0.020134959 0.029514842 0.59408122
0.022291217 0.034696378 0.58746529
0.024671355 0.037083514 0.58533084
0.027869143 0.038380027 0.58267552
0.030776776 0.040727645 0.58102554
0.02528928 0.020300899 0.6030342
0.02447472 0.021220792 0.60025173
0.030234344 0.036187932 0.58038443
0.033073612 0.038677976 0.57947767
0.029282987 0.017882004 0.6023187
0.028041257 0.017569259 0.59914017
0.034807548 0.033100583 0.57875288
0.036064822 0.036442339 0.57881063
0.031473465 0.016173568 0.60155797
0.032742508 0.015545826 0.59839362
0.034541812 0.016405549 0.59405816
0.038836114 0.026568953 0.58092332
0.038868584 0.03052819 0.57854474
0.039976127 0.034497846 0.57860535
0.036519501 0.014815394 0.59714621
0.03854429 0.016293127 0.59376156
0.039743632 0.018812779 0.58983225
0.041027781 0.021968355 0.58579224
0.042253457 0.024930993 0.58241838
0.042198844 0.028256942 0.5795334
0.042770118 0.018219685 0.59078914
0.044103943 0.02144607 0.58684158
0.044803865 0.023776678 0.58422577
0.079867415 -0.011628568 0.57833982
0.080941349 -0.009138355 0.57563174
0.082860649 -0.013210444 0.5777694
0.083708383 -0.010830816 0.575167
0.085321635 -0.0143787 0.57640702
0.08593294 -0.013201663 0.57509691
0.018360872 0.030246705 0.59001082
0.019117404 0.032005582 0.58830631
0.021405794 0.022553692 0.597179
0.019672155 0.02432665 0.59415853
0.018887879 0.027685773 0.59174109
0.020649904 0.032180455 0.58552563
0.023153096 0.033359922 0.58297968
0.026102209 0.034427516 0.580746
0.023241434 0.019941352 0.59643817
0.021643125 0.019766817 0.59372962
0.026511686 0.031295344 0.57918805
0.028727723 0.03304904 0.57948941
0.027169926 0.017514648 0.59605813
0.026894419 0.017144481 0.59243113
0.031435397 0.027774451 0.57907414
0.032635748 0.030856762 0.57892156
0.030523408 0.016228164 0.59548402
0.031582482 0.016266368 0.59138876
0.033420816 0.017112602 0.58598191
0.034624264 0.019840449 0.58239061
0.035173971 0.02506344 0.58021486
0.036264177 0.028697677 0.57924777
0.035272509 0.016409665 0.59055996
0.036022209 0.01764074 0.58745283
0.036921959 0.020243565 0.58387512
0.038282245 0.023508534 0.5817768
0.04600817 -0.002996942 0.59228349
0.04598799 -0.0023791548 0.59144253
0.053446203 0.015339241 0.56885225
0.053876594 0.016096942 0.56815833
0.048038736 -0.0042788871 0.59215504
0.049368866 -0.0029077474 0.58971387
0.056386352 0.0096692853 0.57164538
0.05589506 0.012800532 0.569839
0.056153193 0.01489877 0.56775498
0.051090285 -0.0061310548 0.59072495
0.053265505 -0.004830163 0.58833897
0.054536939 -0.0033676103 0.5857808
0.059100863 0.0074652173 0.57204968
0.059452832 0.0097489543 0.56978053
0.05872646 0.012282864 0.56746954
0.056762405 -0.0067530423 0.58672941
0.058728319 -0.0049993172 0.58387268
0.060610082 -0.004646603 0.58126962
0.062510476 0.0011508912 0.57376254
0.062578663 0.0040515009 0.57243931
0.062554851 0.0067131538 0.56970704
0.06235379 -0.0063429661 0.58175939
0.06420891 -0.0051880609 0.57990909
0.065823637 -0.0013977736 0.57490438
0.065225661 0.0010924544 0.57258058
0.067256168 -0.0097365826 0.57992822
0.068141356 -0.00711645 0.57841414
0.068930492 -0.0042873919 0.57470679
0.069622837 -0.0032616798 0.57199156
0.069087602 -0.011105256 0.57923269
0.072453775 -0.010065919 0.57807428
0.073788732 -0.0073621571 0.57400984
0.071981311 -0.004945308 0.57162076
0.077160373 -0.012148309 0.57693124
0.077990249 -0.0099239647 0.57396919
0.081584036 -0.01355713 0.57712734
0.082602441 -0.011508984 0.57456529
0.084699839 -0.015113086 0.57607019
0.08537586 -0.01359533 0.574471
0.01575771 0.027077872 0.58674145
0.01638655 0.028669842 0.58509517
0.017921304 0.021415025 0.5902822
0.01674724 0.024830308 0.58822036
0.018554315 0.028895469 0.58260512
0.021281958 0.029764747 0.58029407
0.020353228 0.015022049 0.59106249
0.019862857 0.018065143 0.59099334
0.024486244 0.02889799 0.57764816
0.025756862 0.027679805 0.57517457
0.023270449 0.013046318 0.59097612
0.025297619 0.015590001 0.59057826
0.029644717 0.025973188 0.57731062
0.028824337 0.026166659 0.5742926
0.025678281 0.01193341 0.58996558
0.028496958 0.013475185 0.58783919
0.031728186 0.015074288 0.58602649
0.033852339 0.019994972 0.57991815
0.032160629 0.021865036 0.57710397
0.030786203 0.024261212 0.57427645
0.030436326 0.011230341 0.58554149
0.032851387 0.014060113 0.5835771
0.03412424 0.017166097 0.58000749
0.033604529 0.018502384 0.57626623
0.042791322 -0.0046379436 0.59156418
0.04473412 -0.0027721468 0.58945882
0.051626086 0.013825113 0.56831497
0.051403258 0.015954446 0.56550628
0.046479471 -0.0073184036 0.59180969
0.047191326 -0.0027489085 0.58727288
0.049110252 -0.0026792679 0.58415014
0.053429957 0.0080341836 0.57079285
0.052963011 0.011465892 0.56955504
0.055427734 0.014300833 0.56444168
0.050285436 -0.0095035508 0.58929288
0.053328507 -0.008148443 0.58856428
0.052921228 -0.0033197384 0.58252072
0.056374475 0.0047564339 0.57212794
0.060429461 0.0092097213 0.56665909
0.058536604 0.010220755 0.56419837
0.052216049 -0.011028614 0.5869202
0.055372097 -0.010099564 0.58550656
0.056812886 -0.0045327935 0.58155423
0.058324467 -0.0051830895 0.57927942
0.060224392 1.1228025e-05 0.57289851
0.059944816 0.0028386954 0.57292461
0.061833818 0.0054003289 0.56624669
0.059864298 0.0073370393 0.56407928
0.057735484 -0.010651547 0.58282071
0.061038271 -0.0096406359 0.58079779
0.062416255 -0.0060394472 0.57639575
0.063078299 -0.003954378 0.57413816
0.065034211 -0.0006066924 0.56925386
0.063357353 0.002034476 0.56720781
0.065244585 -0.011735052 0.57878757
0.065816559 -0.0079673557 0.57413942
0.066209599 -0.0080789709 0.57378137
0.068394423 -0.0041871155 0.56936431
0.068889342 -0.014673145 0.57762486
0.070817024 -0.011862217 0.57474941
0.071584195 -0.010221174 0.57222152
0.071933046 -0.0072678663 0.56850803
0.072569475 -0.017499212 0.57639885
0.074909277 -0.014465651 0.57457006
0.075342245 -0.012706125 0.57138962
0.075898588 -0.01048607 0.5676859
0.075130291 -0.019031201 0.57503319
0.078176081 -0.018211115 0.57293403
0.079585448 -0.015322387 0.5697298
0.078371309 -0.012707863 0.56712717
0.082016081 -0.020668097 0.57181364
0.083321422 -0.018028535 0.56929141
0.08517459 -0.022965478 0.57096601
0.086575925 -0.020285103 0.56843013
0.012844278 0.024265712 0.58371753
0.013713473 0.026040753 0.58163136
0.013909192 0.015214585 0.58891499
0.01471204 0.018884316 0.58712536
0.014340701 0.021933941 0.58568388
0.016189152 0.026600085 0.57991689
0.018232573 0.027037363 0.57671779
0.019497601 0.027904501 0.57306951
0.016875865 0.013516346 0.58971107
0.017163999 0.017280579 0.5894053
0.021486012 0.027839057 0.57616037
0.022558359 0.0271533 0.57253242
0.0214151 0.01069664 0.58954978
0.024665609 0.011693293 0.5889256
0.029467342 0.023668157 0.57378155
0.027189799 0.024817429 0.57145017
0.024436248 0.008189667 0.58757943
0.027084665 0.009483465 0.58674943
0.03165945 0.020179816 0.57311529
0.029914871 0.021424111 0.57083458
0.029187869 0.0078487545 0.5840348
0.032077994 0.010232964 0.58074188
0.033479247 0.013550935 0.57673895
0.032936312 0.016932471 0.57289958
0.032272514 0.0077844569 0.57858515
0.033498123 0.010788938 0.57542926
0.035031989 -0.0085719181 0.59056485
0.035689265 -0.0061100796 0.58938056
0.044201475 0.012702637 0.56375694
0.044833999 0.015319487 0.56201673
0.045324486 0.016041782 0.55938554
0.037798539 -0.010197215 0.59067893
0.038907405 -0.0068716258 0.59016395
0.041073725 -0.0049849069 0.58537513
0.047315989 0.01087522 0.56543291
0.048192888 0.015060015 0.56220031
0.048316374 0.015024537 0.55880195
0.041059621 -0.011062834 0.59031248
0.044011123 -0.0104362 0.58821589
0.044933908 -0.0071220938 0.58371878
0.047413781 -0.005225217 0.58233911
0.052033845 0.0058155358 0.56823951
0.050986435 0.0074731233 0.56513721
0.053007137 0.011071638 0.56113577
0.051178508 0.013447225 0.55906028
0.048337348 -0.011787675 0.58728218
0.047830977 -0.010055402 0.58300203
0.05051671 -0.0067620799 0.58027112
0.054704256 0.0022814143 0.56843859
0.054235801 0.0050635692 0.56376427
0.056801446 0.0084120696 0.56173897
0.051073965 -0.012112249 0.58590668
0.052973416 -0.011858203 0.58285403
0.054207981 -0.0096630491 0.57900792
0.057247248 -0.0075951051 0.57724988
0.058891781 -0.0017811572 0.57050478
0.058025882 -0.00043817703 0.56741178
0.059217252 0.0029411865 0.56411469
0.058961622 0.0065026619 0.562886
0.058869313 -0.010930195 0.57790899
0.060110975 -0.009910265 0.57479006
0.061693266 -0.006013033 0.57013023
0.062518142 -0.0035500824 0.56798011
0.061975121 0.00044100545 0.56605577
0.062459264 -0.014419377 0.57567483
0.063232169 -0.010499269 0.57203472
0.063650504 -0.0097059365 0.57101101
0.065524966 -0.0070142625 0.56598294
0.066522188 -0.017247038 0.57474685
0.068282083 -0.014350588 0.57071745
0.068509057 -0.013221744 0.56951296
0.069588214 -0.0096889921 0.56512499
0.069660135 -0.018979527 0.57373208
0.071597196 -0.018677605 0.57203382
0.071931995 -0.01636371 0.56863225
0.07334774 -0.012583017 0.56485081
0.074503258 -0.019890856 0.57031685
0.075884357 -0.017099276 0.56629252
0.074871078 -0.015948016 0.56364501
0.010073319 0.021078983 0.58115178
0.010936325 0.023532294 0.57817686
0.011972768 0.013430172 0.58661336
0.011040337 0.016047936 0.58491158
0.010830463 0.01938865 0.58336329
0.012964079 0.024834778 0.57635051
0.014954794 0.025224734 0.5731535
0.017372761 0.02576809 0.57088989
0.013960968 0.010885395 0.58713567
0.018781196 0.026138976 0.57236737
0.01993558 0.024967019 0.56942302
0.017828109 0.0069674822 0.5876134
0.024149533 0.02308022 0.56711292
0.020057721 0.0019258913 0.58671641
0.022632092 0.0040821508 0.58637816
0.029092196 0.019836232 0.56646925
0.028282525 0.019778207 0.56346607
0.025495842 0.0022085048 0.58348858
0.028620642 0.0043342123 0.58235949
0.032767802 0.014613324 0.56970876
0.031166807 0.015813624 0.56656164
0.028643085 -0.0082242172 0.58867741
0.029431045 -0.006005398 0.58746916
0.027593784 0.000336417 0.5812673
0.030581485 0.0016097669 0.57987344
0.032790825 0.0049802698 0.57593954
0.033989225 0.0077925902 0.57266188
0.034446899 0.01073115 0.56839085
0.035195362 0.012549208 0.56385994
0.038396541 0.015204207 0.56000978
0.039019946 0.015842952 0.55743831
0.032149125 -0.0098501518 0.59008116
0.032804873 -0.0060048131 0.58805776
0.033818476 -0.0053998549 0.58326644
0.032571353 0.00024442375 0.57675165
0.035513811 0.0068810023 0.56798035
0.040664136 0.010725538 0.56296611
0.04148208 0.015445489 0.56072748
0.043039013 0.016009524 0.55718905
0.035547182 -0.011854678 0.58955288
0.037338205 -0.012244409 0.58576763
0.038322352 -0.0062483987 0.58182842
0.043993436 0.007877212 0.56391543
0.046583757 0.010210148 0.5573349
0.04649099 0.014216587 0.55668479
0.039403677 -0.012185881 0.58882171
0.040717512 -0.011502251 0.58480561
0.041477952 -0.0092877895 0.58189166
0.047969032 0.006178082 0.5620535
0.049455062 0.0085722394 0.55969036
0.049790088 0.012401797 0.55784732
0.060757328 -0.017194815 0.57249063
0.060119104 -0.014859499 0.56980616
0.061486445 -0.012286104 0.56629771
0.06383121 -0.01009636 0.56350493
0.062445108 -0.01836361 0.57142335
0.0651922 -0.018789798 0.56927222
0.066724166 -0.016412178 0.56543934
0.06667386 -0.012866504 0.56288731
0.068737388 -0.021001182 0.57136071
0.068186872 -0.020929083 0.56796324
0.069556557 -0.017557405 0.56449717
0.071291968 -0.015113611 0.56253225
0.072686173 -0.023612875 0.56707376
0.074560344 -0.020577097 0.56349552
0.074974582 -0.017924434 0.561948
0.076155573 -0.026574783 0.56541353
0.077920452 -0.023625284 0.5622524
0.079469882 -0.029455282 0.56419867
0.080954269 -0.026671469 0.56094235
0.0072939601 0.018770505 0.57833701
0.0082364976 0.021446938 0.57512271
0.010216469 0.010915746 0.5837751
0.0086852349 0.013073511 0.58182508
0.0079861432 0.016280459 0.57937753
0.0098470338 0.021190083 0.57285678
0.012520131 0.022204731 0.57009023
0.014719835 0.022185009 0.56766224
0.011230589 0.0037853559 0.58600426
0.01127366 0.0077413437 0.58416587
0.013701208 0.020980902 0.56662536
0.017347749 0.022165168 0.56597692
0.019162573 0.022659246 0.56191969
0.013878239 0.0014401218 0.58662874
0.01498924 0.005021954 0.58624196
0.022385117 0.022042645 0.56450129
0.022303978 0.021872979 0.56081766
0.018320372 -0.00064713834 0.58584648
0.026514869 0.019307366 0.56075668
0.021757714 -0.0087122116 0.58669764
0.021980468 -0.0047303401 0.58364856
0.023563951 -0.0016003624 0.58170784
0.029943509 0.013656547 0.56225097
0.03008664 0.015188502 0.5585686
0.032117967 0.016580332 0.55472279
0.025009597 -0.010270927 0.58783716
0.02611582 -0.0057903901 0.58529192
0.026991483 -0.0040498227 0.58035785
0.029224232 -0.0014689332 0.57937354
0.03238865 0.0022988496 0.57182014
0.032302301 0.0027272245 0.57072598
0.033904754 0.0097679272 0.56477606
0.033299014 0.010786526 0.56173909
0.034730718 0.015072681 0.55853677
0.036025263 0.016207896 0.55432749
0.028961215 -0.012399778 0.58720481
0.030971885 -0.0070603583 0.57999563
0.031185614 -0.0032008039 0.57609987
0.031978212 -0.00017404137 0.572402
0.033516567 0.0031264164 0.56831968
0.035357095 0.0062457179 0.56462312
0.037389178 0.0081643574 0.56084543
0.04000153 0.013969982 0.55413967
0.031938188 -0.013637833 0.58540779
0.034033954 -0.012730643 0.5826593
0.035373762 -0.010002688 0.57945859
0.041715078 0.0055305716 0.559542
0.042973489 0.0084088817 0.55620641
0.042176969 0.011282713 0.55420917
0.038056102 -0.011932869 0.58226955
0.038323775 -0.011081394 0.58055764
0.042602368 -0.0082056578 0.56814468
0.043364417 -0.0067495573 0.56631708
0.045049582 0.0053650318 0.55951077
0.045951962 0.0069024349 0.55837387
0.046128809 -0.010811653 0.56918031
0.047327414 -0.0080263019 0.56552458
0.048184376 -0.011895342 0.56811738
0.048888475 -0.0095651112 0.56514412
0.059921648 -0.019449852 0.5698691
0.059244577 -0.018814556 0.56714374
0.060921818 -0.015298199 0.56314915
0.062451214 -0.013516499 0.56175423
0.060550105 -0.020259932 0.56924075
0.061976824 -0.020842258 0.56547296
0.063158818 -0.018236611 0.56194305
0.064077385 -0.014713161 0.56119096
0.063763723 -0.022695715 0.56294423
0.064919516 -0.020300465 0.56069249
0.075622112 -0.028693672 0.56399643
0.07853891 -0.026121601 0.55997431
0.078270391 -0.030869346 0.56274557
0.080088235 -0.027861997 0.55979794
0.0057897195 0.017201317 0.57528365
0.0063374974 0.018660292 0.57338363
0.0072489353 0.010618286 0.57857186
0.006772358 0.01349484 0.57501835
0.0078228898 0.016799018 0.57076728
0.010892138 0.019042503 0.56770635
0.010336285 0.0028945194 0.58437353
0.0089181755 0.0044697816 0.58149076
0.0078130951 0.0073828436 0.57827818
0.012418483 0.017863069 0.56501365
0.015294032 0.019500714 0.56247574
0.017911505 0.021506224 0.56132179
0.012179077 -0.00076467311 0.58361578
0.01058727 0.00042627007 0.58124012
0.017905042 0.017739488 0.55948931
0.020552818 0.019061441 0.5586412
0.014782116 -0.0079030693 0.5836513
0.014329462 -0.0047957432 0.58415109
0.023909666 0.01773867 0.55570424
0.025230201 0.016320327 0.55321276
0.018704882 -0.010295006 0.58515632
0.019220175 -0.0063534677 0.58381593
0.023546906 -0.0037947707 0.57961285
0.029824996 0.010933124 0.56085706
0.028351881 0.015576653 0.55635643
0.029402457 0.015914846 0.55234921
0.021960635 -0.013396475 0.58601087
0.025248222 -0.005517887 0.57822782
0.029374635 -0.00093314145 0.56684709
0.031322703 0.0086571658 0.56002855
0.033731408 0.01488641 0.55051696
0.025996462 -0.01572255 0.58447373
0.029449016 -0.0087932898 0.57637221
0.029197846 -0.0065502496 0.57298374
0.030282991 -0.0029224921 0.56920135
0.031602554 -0.00017135171 0.56559271
0.033218987 0.0023898645 0.56133163
0.034993187 0.0050579156 0.55911493
0.037647143 0.011462649 0.55012238
0.029290043 -0.01632788 0.58270478
0.030644018 -0.015152175 0.58001775
0.031377234 -0.012216458 0.57737458
0.035912491 -0.0083661089 0.56622672
0.036743809 -0.0062935874 0.56391197
0.038423982 0.0044190921 0.556458
0.039519187 0.006180034 0.55307829
0.039681505 0.0086805131 0.55104649
0.039132752 -0.012418943 0.56903636
0.0385186 -0.0092582423 0.56746525
0.040207379 -0.0063328911 0.56351519
0.04149238 -0.0067346469 0.56008458
0.042142171 -0.014457991 0.56931156
0.043893535 -0.012606833 0.56917101
0.045522161 -0.0075667845 0.56244957
0.044794399 -0.0076945787 0.55919701
0.045785222 -0.018771261 0.56873441
0.048003968 -0.01537716 0.56622344
0.049276087 -0.011990152 0.56200659
0.049369957 -0.0098380465 0.55781353
0.047285788 -0.019870989 0.56633937
0.049585644 -0.017182987 0.56359643
0.050233275 -0.014786735 0.56050587
0.050618 -0.012414724 0.55788654
0.060684588 -0.023220893 0.56257629
0.061636627 -0.020864744 0.55949879
0.063119888 -0.026018258 0.56101698
0.064371854 -0.023698745 0.55836207
0.065239891 -0.028062906 0.55924493
0.066400804 -0.026082426 0.55675781
0.0067018103 0.010915454 0.57114488
0.0070919935 0.012843538 0.56871426
0.0076509253 0.0021405611 0.57764244
0.0072931619 0.0045171189 0.57463038
0.0068457332 0.0078910422 0.57090795
0.0082083941 0.011672171 0.56577969
0.011142067 0.013749931 0.56298184
0.013381024 0.015654255 0.56049299
0.011428203 -0.003195147 0.58024329
0.0095419716 -0.0013177646 0.57769984
0.0079788584 0.00092360238 0.57375807
0.012624217 0.011706066 0.5600543
0.016073648 0.014119321 0.55800402
0.019277923 0.015497554 0.55672401
0.014009926 -0.008997363 0.58278829
0.012334331 -0.0067796949 0.58056641
0.010651953 -0.0045976397 0.57725602
0.018232128 0.012766298 0.55534893
0.021223821 0.014527912 0.55369252
0.024274033 0.015363538 0.55167127
0.016268993 -0.011334848 0.58256549
0.01588957 -0.011253817 0.57900095
0.025155246 0.010728044 0.55104738
0.026768068 0.01408983 0.55058825
0.019769572 -0.015349528 0.58166343
0.018220413 -0.013119105 0.57757103
0.022446219 -0.011613671 0.57277101
0.023653101 -0.0071863234 0.56959301
0.025054974 -0.0065196929 0.56791526
0.027850101 -0.00084037427 0.56044018
0.027281731 0.00078756828 0.55899447
0.028686699 0.0031565814 0.55382872
0.027459893 0.0083508212 0.55021703
0.03078888 0.010855026 0.5483678
0.023594322 -0.017405944 0.58056486
0.024588566 -0.016814241 0.57643616
0.02577012 -0.012798421 0.5732972
0.0268413 -0.007899506 0.57125127
0.028620796 -0.0065353876 0.56696838
0.030540928 -0.0029854169 0.56197369
0.030473402 0.0010995176 0.55953586
0.032129787 0.0021833675 0.5541845
0.033463918 0.0044055032 0.54972893
0.034172174 0.0082673533 0.54807442
0.027487107 -0.01724733 0.58056653
0.027718356 -0.016382312 0.57761967
0.028671194 -0.01434486 0.57533151
0.032025348 -0.013027949 0.56609547
0.032416239 -0.0093420371 0.56518579
0.033549499 -0.00624495 0.56134564
0.034837902 -0.0065045413 0.55793995
0.035787202 0.0027635738 0.55391657
0.036468968 0.0046496941 0.55107683
0.035375334 -0.014842048 0.5670743
0.035119642 -0.011568045 0.56649709
0.03729178 -0.0069310833 0.56039876
0.038599137 -0.0073936796 0.55732423
0.038999639 -0.018526172 0.56778824
0.043107603 -0.0090440875 0.55578947
0.042845346 -0.02141971 0.56891364
0.042821225 -0.021415221 0.56780267
0.047438193 -0.011397965 0.5549354
0.046205733 -0.022340586 0.56470692
0.049052149 -0.02115041 0.56138122
0.050016824 -0.017973488 0.55746752
0.049392421 -0.014540438 0.55569887
0.06233564 -0.028095867 0.55854142
0.06337364 -0.026504297 0.55630529
0.063741975 -0.029712319 0.55781031
0.065020509 -0.027669251 0.55526757
0.0081324317 0.0031978367 0.57096589
0.0072287265 0.0067258952 0.56806237
0.0078291642 0.0088404752 0.56552207
0.010460832 0.009965877 0.56288087
0.0093634278 -0.0028562769 0.57453871
0.0091882367 -0.00042612059 0.57125217
0.0096504223 0.0023707403 0.56633103
0.010757992 0.004982844 0.56261247
0.013139486 0.008847151 0.55962086
0.015242762 0.010672897 0.55697364
0.01201739 -0.0088754045 0.57668883
0.011469066 -0.0065389024 0.57380134
0.012026019 -0.0042565111 0.56911373
0.012671646 -0.0014521182 0.5647018
0.013828768 0.0013300735 0.56092381
0.015967369 0.0049591032 0.55758822
0.017860126 0.0085352417 0.55465817
0.020241663 0.010528758 0.55205411
0.014378659 -0.010683123 0.57610095
0.014809813 -0.00961571 0.57205212
0.014790287 -0.0081104608 0.5683133
0.015756553 -0.0027899798 0.56188005
0.01518586 -0.0015378976 0.56129265
0.018896062 0.002099908 0.5554722
0.02113707 0.005381634 0.55314082
0.02271796 0.0088774133 0.55130208
0.020063616 -0.016813103 0.57845193
0.019411884 -0.014180861 0.57623625
0.019616662 -0.011925526 0.57218349
0.02097206 -0.0096129738 0.56737936
0.02100938 -0.0098768622 0.5638423
0.023462929 -0.0045495816 0.55693531
0.024551233 -0.00079361722 0.55592722
0.026044479 0.0030808509 0.55293161
0.027802415 0.0061875656 0.55048943
0.030342817 0.0073705269 0.54780674
0.021208398 -0.017499371 0.57831579
0.022012502 -0.016792253 0.57635611
0.023850318 -0.0098868236 0.56551862
0.025100058 -0.010891465 0.56380075
0.026789138 -0.0061366782 0.55737054
0.026585981 -0.0035223644 0.55725217
0.031206271 0.0053148046 0.54870713
0.028976306 -0.014412783 0.56402194
0.028226923 -0.012427356 0.56417853
0.031464145 -0.0066937143 0.55745327
0.031602442 -0.007695239 0.55544758
0.032879837 -0.018948931 0.56526589
0.037062831 -0.0090393927 0.55319732
0.035193659 -0.021400986 0.56454843
0.039647941 -0.011106687 0.55195606
0.040144421 -0.023819348 0.56333381
0.044160228 -0.014759308 0.55195093
0.044294655 -0.025770385 0.56171614
0.047135066 -0.025175601 0.55866426
0.04869058 -0.020920914 0.55347419
0.047443975 -0.017964749 0.55159539
0.047774903 -0.02462277 0.55663353
0.048543699 -0.022948867 0.55487269
0.013862418 -0.0033986196 0.56379282
0.0152667 -0.00025439914 0.55979407
0.015359 -0.0073506674 0.56594014
0.016006252 -0.0053450996 0.56334615
0.01748722 -0.0019030664 0.55897349
0.01877046 -3.8971193e-06 0.55639517
0.017794568 -0.0089242123 0.56521922
0.020167297 -0.0076623317 0.56186491
0.021175064 -0.0051269894 0.55871814
0.020857129 -0.0017764252 0.55613625
0.024087925 -0.010986723 0.56070894
0.025325488 -0.0086566191 0.55735272
0.02715303 -0.016923388 0.56152594
0.025723072 -0.014781293 0.55936635
0.027272869 -0.010872992 0.5549112
0.030109448 -0.010164233 0.55289173
0.030176274 -0.024473663 0.56244069
0.030407418 -0.021622438 0.56241345
0.034506351 -0.011535604 0.55011278
0.03589562 -0.011551104 0.5478766
0.031002965 -0.02428841 0.5628137
0.033219725 -0.023676261 0.56186718
0.037622228 -0.013492374 0.54914844
0.036512587 -0.011789037 0.54779303
0.037822638 -0.026253615 0.55967456
0.041444443 -0.017589189 0.54911304
0.041618168 -0.028243426 0.55839628
0.044327743 -0.027415756 0.55504775
0.045586787 -0.024132449 0.55091494
0.044568479 -0.020697309 0.5487622
0.046478253 -0.025948893 0.55568033
0.047050107 -0.024537908 0.55375028
0.026208451 -0.017495779 0.55592269
0.027301177 -0.015011538 0.552881
0.028383285 -0.02282217 0.55785298
0.027253008 -0.021034703 0.55447727
0.028697275 -0.017459476 0.55024761
0.031433474 -0.015369585 0.5486269
0.031141285 -0.026012182 0.55738783
0.03071025 -0.019211616 0.54765421
0.034836944 -0.017514296 0.54664147
0.035272591 -0.028203722 0.55607772
0.036282334 -0.029434741 0.55311197
0.038903031 -0.024093844 0.546269
0.038578548 -0.020685494 0.54643667
0.039045706 -0.029220667 0.55556244
0.040009439 -0.028950553 0.55229694
0.041342083 -0.025993232 0.54850221
0.041548569 -0.02254037 0.54711783
0.028354418 -0.022501174 0.55157977
0.028784804 -0.020772908 0.54993922
0.030004526 -0.026572745 0.55441529
0.030481182 -0.02661613 0.54973572
0.031272534 -0.024687219 0.54701024
0.033249449 -0.02093913 0.54583138
0.032322612 -0.028424662 0.55372673
0.03337989 -0.028806664 0.54884076
0.034556076 -0.026905894 0.5460071
0.035542119 -0.022493906 0.54543519
0.037453741 -0.028773215 0.54969573
0.037890282 -0.027153503 0.5475657
0.015952954 -0.018694088 0.5442996
0.016022924 -0.017764376 0.54305422
0.017298616 -0.020058373 0.54421651
0.029775605 -0.028479297 0.54640639
0.029882222 -0.02795412 0.54533261
0.031207506 -0.03054177 0.54604769
0.032042585 -0.02903761 0.54407996
0.034226038 -0.031397987 0.54526275
0.034365382 -0.030825846 0.54455531
0.011487168 -0.016880699 0.54351658
0.011663959 -0.016165663 0.54251647
0.013862286 -0.01984996 0.54346949
0.014580688 -0.017759286 0.54189688
0.016861316 -0.025850441 0.54438627
0.01749281 -0.022851611 0.54280305
0.016999528 -0.020143408 0.54116684
0.01878315 -0.028823849 0.54352081
0.019263037 -0.026278507 0.54163867
0.024460407 -0.032067053 0.54324061
0.025635295 -0.031029176 0.54156685
0.028185617 -0.033891741 0.54310787
0.028891087 -0.032104675 0.54123348
0.015672991 -0.028032161 0.54247743
0.015741056 -0.025951955 0.54073316
0.017799294 -0.031299774 0.54191113
0.01853632 -0.029057842 0.53961265
0.021492582 -0.034494322 0.5408566
0.02261705 -0.032102481 0.53976393
0.025128188 -0.035291284 0.54051316
0.025557423 -0.033752222 0.53976685
