# .PCD v0.7 - Point Cloud Data file format
VERSION 0.7
FIELDS x y z
SIZE 4 4 4
TYPE F F F
COUNT 1 1 1
WIDTH 1294
HEIGHT 1
VIEWPOINT 0 0 0 1 0 0 0
POINTS 1294
DATA ascii
0.041852973 -0.015534719 0.48191977
0.042055957 -0.017174385 0.48398483
0.041550562 -0.019733841 0.48825285
0.041079506 -0.022260852 0.49252626
0.040583245 -0.024659459 0.49690035
0.040106423 -0.027149625 0.50120389
0.039607756 -0.029597586 0.5054754
0.03906554 -0.032338001 0.50987273
0.038593359 -0.034676701 0.51427501
0.038062669 -0.037262045 0.51844668
0.037599817 -0.039685428 0.52255756
0.03711326 -0.041217491 0.52540606
0.042663381 -0.01116899 0.48459712
0.042788729 -0.012520805 0.48685208
0.042274043 -0.015114907 0.49105999
0.041767903 -0.017661665 0.49522248
0.041269198 -0.020123085 0.49960193
0.040746659 -0.02275157 0.50390399
0.040220276 -0.025437506 0.50801688
0.03973221 -0.027817711 0.51246899
0.039237626 -0.030252999 0.51684594
0.038713679 -0.032921322 0.52096969
0.038221195 -0.035360128 0.52524745
0.037552439 -0.037145093 0.52785963
0.043095134 -0.0072107897 0.48698866
0.043362081 -0.0083979191 0.48931462
0.042881936 -0.01076317 0.49355733
0.042361885 -0.013384848 0.49780613
0.041829251 -0.016071338 0.50214928
0.041333221 -0.018541474 0.50637794
0.040841393 -0.020995904 0.51054078
0.04032319 -0.023573723 0.51497459
0.039808922 -0.026161682 0.51920223
0.039320573 -0.028574361 0.52347684
0.038778014 -0.031332768 0.52777433
0.038246155 -0.032652467 0.53060114
0.043798476 -0.0029470371 0.48959306
0.043943778 -0.0042298352 0.49172705
0.043480068 -0.0064633368 0.49611899
0.042973675 -0.0090097245 0.50029331
0.042396806 -0.011981227 0.50463849
0.041933775 -0.014202139 0.5090782
0.041428149 -0.016760089 0.51315695
0.040901303 -0.019400652 0.51754999
0.040397048 -0.021928011 0.52175456
0.039931364 -0.024192236 0.5260424
0.039377868 -0.027010344 0.5304026
0.03875459 -0.028588239 0.53320086
0.044335172 0.001608409 0.49235019
0.044532716 2.3657456e-05 0.49436384
0.04403761 -0.0023860782 0.49890858
0.043528467 -0.0049418104 0.50313157
0.04302603 -0.0074793757 0.507209
0.042532951 -0.0099111926 0.51154941
0.042020544 -0.012508051 0.51565576
0.041490547 -0.015178761 0.51999211
0.041026391 -0.01744386 0.52421778
0.040488049 -0.020150654 0.52865684
0.039956324 -0.02280424 0.53315699
0.039514251 -0.024121944 0.53581721
0.044904575 0.0053507611 0.49463043
0.045119427 0.0042796973 0.49709892
0.04461959 0.0017799363 0.50129819
0.044135302 -0.00060287304 0.50559443
0.043630444 -0.0030927584 0.51003897
0.04313124 -0.005616311 0.51407635
0.042592324 -0.0083743948 0.51823986
0.042098619 -0.010778353 0.52276534
0.041577116 -0.013405642 0.52703547
0.04105486 -0.016056076 0.53119987
0.040603757 -0.018255824 0.53531611
0.040125512 -0.01963695 0.5383507
0.045563392 0.0097763948 0.49732524
0.045712374 0.0085112248 0.49945855
0.045243494 0.0062329229 0.50378442
0.044730283 0.003655104 0.50803119
0.044232383 0.0012172572 0.51251727
0.04367312 -0.0016710889 0.51668602
0.043221138 -0.0038353484 0.52104104
0.042674273 -0.0065973052 0.52547884
0.042148508 -0.0092657451 0.52967
0.041649781 -0.011742283 0.53396255
0.041147359 -0.014279243 0.53804302
0.040689282 -0.015562145 0.54104769
0.046081685 0.014521714 0.50019246
0.046303391 0.012774961 0.50207698
0.045825973 0.010494584 0.50670999
0.045319937 0.0079411548 0.5108301
0.044799402 0.0053141098 0.51506549
0.044295117 0.0027745645 0.51920068
0.043782011 0.00023372658 0.5236581
0.043269001 -0.0023323484 0.52796572
0.042765468 -0.0048528132 0.53218323
0.042225569 -0.0075898138 0.53650546
0.04171972 -0.010110544 0.54080814
0.04106506 -0.011662428 0.54351115
0.04666739 0.018775139 0.5027768
0.046918027 0.017198337 0.50473785
0.046397105 0.014575114 0.50901008
0.04586494 0.011884758 0.51331347
0.045377702 0.0094896462 0.51764822
0.044860445 0.0068955049 0.52195215
0.044356301 0.0043650027 0.52613413
0.043834314 0.0017751921 0.53063983
0.043347485 -0.00064305589 0.5348255
0.042842656 -0.003189031 0.53894365
0.042333685 -0.0057292902 0.54324973
0.041816078 -0.0072542406 0.54605043
0.047439501 0.022935998 0.50532854
0.047495306 0.021350261 0.50722188
0.046994105 0.018877285 0.51162773
0.046492212 0.016359577 0.5158
0.045978047 0.013802228 0.52020133
0.045450114 0.011097694 0.52426404
0.044943817 0.0085787755 0.52859402
0.044441752 0.0061044805 0.53302443
0.043950692 0.0036647823 0.53724396
0.043439277 0.001102319 0.54151261
0.042910732 -0.0015366767 0.54597843
0.04231853 -0.0028976453 0.54879653
0.047727771 0.027049895 0.50779516
0.048075981 0.02554848 0.50984734
0.047599547 0.02323566 0.5142554
0.047093399 0.020683002 0.51838404
0.046577968 0.018096643 0.52266437
0.04602062 0.015267665 0.52710599
0.045529343 0.012793997 0.53113651
0.045066543 0.010595303 0.53569645
0.044535249 0.0078861266 0.53985822
0.044047698 0.0054904502 0.54420149
0.043519385 0.0028039441 0.54838312
0.042933583 0.0015124045 0.55140752
0.048219278 0.031337563 0.51038861
0.048690803 0.029924139 0.51222461
0.048187464 0.027466118 0.51679683
0.04769481 0.024991628 0.52087414
0.047182202 0.022444233 0.52527511
0.046622604 0.019578759 0.52958906
0.046139814 0.01722298 0.53398567
0.045649968 0.014814919 0.53834319
0.04511755 0.01207839 0.54238832
0.044621281 0.0096184816 0.54668516
0.044103011 0.0070127416 0.55095965
0.043438107 0.0052815881 0.55368167
0.04907015 0.035703976 0.51307112
0.049257658 0.034032661 0.51484674
0.048754238 0.031556401 0.51931649
0.048224322 0.028882593 0.52363169
0.047733508 0.026469376 0.52799529
0.047214329 0.02384682 0.53220624
0.046709828 0.021296233 0.53628534
0.046227366 0.018950557 0.54072839
0.045708731 0.016390508 0.54528123
0.045186147 0.01370197 0.54923666
0.044680469 0.011216912 0.55373979
0.044139229 0.0096794572 0.55625379
0.049578771 0.039658032 0.51546937
0.049834706 0.038270775 0.51783907
0.049317658 0.035665385 0.52206981
0.048862495 0.033436242 0.52616751
0.048351951 0.030866954 0.53036392
0.047832131 0.028266929 0.5347296
0.047313645 0.025684331 0.53914601
0.046783946 0.022993188 0.54335266
0.046303414 0.02065241 0.54775178
0.045770109 0.017935237 0.55194247
0.045307793 0.015694259 0.55623913
0.044688553 0.013807844 0.55878198
0.050129823 0.04392213 0.51805592
0.050456539 0.042641629 0.51992637
0.049940817 0.040085617 0.52439356
0.049443968 0.037629649 0.5287351
0.048925295 0.035042055 0.53312975
0.048424609 0.032507759 0.53716046
0.047905885 0.029917553 0.54154205
0.047414027 0.027488112 0.54585081
0.046886452 0.024810266 0.55005503
0.046404354 0.022450801 0.55440432
0.045880206 0.019832984 0.55882847
0.045326196 0.018369302 0.56161809
0.050938629 0.048302829 0.52074194
0.050996907 0.046633732 0.52286404
0.050534107 0.044387084 0.52714592
0.050010592 0.041756932 0.53147483
0.049539037 0.03946149 0.53580105
0.048991553 0.036600892 0.53969014
0.048480377 0.034031235 0.54390842
0.048010178 0.0317646 0.54835123
0.04747428 0.029090993 0.55289125
0.046981879 0.026615385 0.55695271
0.04650449 0.024309117 0.56143433
0.045953907 0.022346657 0.56400549
0.051557355 0.052375842 0.52322352
0.0515965 0.050960433 0.52552676
0.051095702 0.048419114 0.52952117
0.050621592 0.04612932 0.53397572
0.050095342 0.043467633 0.53822422
0.049547434 0.040695842 0.54264426
0.049049504 0.038215909 0.5468874
0.048564658 0.035837311 0.55122876
0.048063509 0.033323959 0.55539834
0.047541983 0.030753929 0.56000131
0.047075205 0.028399155 0.56380516
0.046475992 0.026565559 0.56657004
0.051877439 0.056228857 0.52553964
0.052188396 0.055219021 0.52808261
0.051690027 0.052738186 0.53233701
0.051166445 0.05012517 0.53676766
0.050693624 0.047807436 0.54101217
0.05019325 0.045305613 0.5452196
0.049640864 0.042500746 0.5496152
0.04916995 0.040180795 0.55377549
0.048677757 0.037707943 0.55784506
0.048126623 0.034866281 0.56198066
0.047633372 0.032474734 0.56656116
0.047058776 0.030849144 0.56913739
0.052602574 0.061057072 0.52848041
0.05279471 0.059556235 0.53055513
0.05230546 0.057148714 0.53489339
0.051760621 0.054338876 0.53897786
0.051283509 0.052027602 0.54342043
0.050747663 0.049302448 0.54765964
0.050267249 0.046949472 0.55198371
0.049761668 0.044410635 0.5561713
0.049235262 0.041757148 0.56047314
0.048716404 0.039157953 0.5648073
0.048227601 0.036728792 0.56900358
0.047567084 0.034780577 0.57172436
0.053042516 0.065170065 0.53096443
0.053372137 0.063702822 0.53300267
0.052897923 0.061381023 0.53727573
0.052371122 0.058706883 0.54147232
0.05184187 0.056070004 0.54597688
0.051374115 0.053773914 0.55015737
0.050871715 0.051311422 0.55466861
0.050329082 0.048538383 0.55888408
0.049832568 0.046036761 0.56294835
0.049328253 0.043552715 0.56740654
0.048843257 0.041141417 0.57156372
0.048247032 0.039262671 0.57425672
0.053638205 0.069445774 0.53356314
0.053989097 0.068154112 0.53573847
0.053450927 0.065421566 0.54002184
0.052959599 0.063024566 0.54449856
0.052436471 0.060318504 0.54837298
0.05192218 0.057811063 0.55306834
0.051444128 0.055451613 0.55726659
0.050895371 0.052629817 0.56142837
0.050421946 0.050309297 0.56567925
0.049909219 0.047755536 0.57004768
0.049423411 0.045334693 0.57418013
0.048727073 0.043493971 0.57688916
0.054229736 0.073701501 0.53614956
0.054539084 0.072153568 0.53835911
0.05407884 0.06988962 0.54244506
0.053538017 0.067154169 0.54681081
0.053023465 0.064577788 0.55111611
0.052540153 0.062220957 0.55552626
0.052027948 0.059631106 0.55966592
0.051529907 0.057152484 0.56392086
0.051007375 0.05455498 0.56840223
0.050537951 0.05225702 0.57263416
0.049993344 0.04946227 0.57679766
0.049426258 0.047866262 0.57957441
0.054948747 0.078215241 0.53890359
0.055157453 0.076571986 0.54085153
0.054663353 0.074119121 0.54510844
0.054175965 0.071689248 0.54924726
0.053641461 0.069019064 0.55375528
0.053161554 0.066667154 0.55806649
0.052645892 0.064059153 0.56223011
0.052110471 0.061336722 0.56646937
0.051631361 0.058997829 0.57082605
0.051101789 0.056320634 0.57510889
0.050563879 0.053588364 0.57938397
0.050032713 0.05212814 0.5821051
0.055369422 0.081801638 0.54107404
0.055752181 0.080858693 0.54346454
0.055229254 0.078204378 0.54763126
0.054767117 0.075974509 0.55198562
0.054200947 0.073064148 0.5562849
0.053722374 0.070743144 0.56072563
0.053191178 0.06802918 0.56485593
0.052711755 0.065663949 0.56907195
0.052196063 0.063082948 0.57339311
0.051693641 0.060564745 0.5775823
0.051159494 0.057887312 0.58203477
0.05059436 0.056117613 0.58468264
0.056238018 0.086987928 0.54424345
0.056287304 0.084768936 0.54612374
0.055799454 0.082345784 0.55031896
0.055336401 0.080087006 0.5545401
0.054792017 0.077325717 0.55888915
0.054291926 0.074834362 0.56314683
0.053813778 0.07248053 0.56738102
0.05328235 0.069780827 0.57160258
0.052813843 0.067510173 0.57595885
0.052279502 0.064839587 0.58045799
0.051798835 0.062416177 0.58438313
0.051183052 0.0608381 0.58735329
0.056731574 0.090776563 0.54654205
0.056890063 0.089094356 0.54866076
0.056425624 0.08681266 0.55280077
0.055880114 0.084037885 0.55711365
0.055367254 0.081493065 0.56153888
0.054868184 0.079030305 0.56592399
0.054387473 0.07665962 0.57015681
0.0538617 0.073984489 0.57430929
0.053383626 0.071648702 0.57864553
0.052851975 0.068943158 0.58284158
0.052334994 0.066376463 0.58729404
0.051757745 0.064571127 0.58976442
0.05748824 0.094914034 0.54907811
0.057494104 0.093440607 0.5512706
0.057010047 0.091044292 0.55547976
0.056482308 0.08838287 0.55978543
0.055995353 0.085991472 0.5641312
0.05545716 0.083243489 0.56832594
0.054983579 0.080946416 0.5727185
0.054443963 0.078205854 0.57700932
0.053944848 0.075695664 0.58112133
0.053471148 0.073388487 0.58545971
0.052922204 0.07057181 0.58965844
0.052351445 0.06944932 0.59273583
0.057873376 0.099214166 0.55166632
0.05812943 0.097961187 0.55372119
0.057568818 0.095093384 0.55805975
0.057092331 0.092760056 0.56235081
0.056589432 0.090266243 0.56669915
0.056063712 0.087584242 0.57080996
0.055553086 0.085037619 0.57514113
0.055056795 0.082576096 0.57942963
0.054550052 0.080085561 0.58394092
0.054049522 0.077585936 0.58816683
0.05356469 0.075169414 0.59228766
0.052971721 0.073132738 0.59492868
0.058440678 0.10313469 0.55405164
0.058687821 0.10203591 0.5564642
0.058159292 0.099389642 0.56088716
0.057674341 0.096965715 0.56496948
0.057171181 0.094432205 0.5690974
0.056666307 0.091929123 0.57346594
0.056139007 0.089228302 0.57752663
0.055633776 0.08673358 0.58195692
0.055145137 0.084335089 0.58632487
0.054630503 0.081769034 0.59069318
0.054125227 0.079212189 0.59476501
0.053531736 0.077376798 0.59742492
0.059216768 0.10712971 0.55650574
0.059240878 0.10606951 0.55916798
0.05875881 0.10362591 0.56302845
0.058261156 0.10114421 0.56725085
0.05776535 0.098682135 0.57151806
0.057247899 0.096107721 0.57594329
0.056727439 0.093495592 0.58026254
0.056241162 0.091093302 0.58452004
0.05573979 0.088585943 0.58873272
0.055223249 0.086015135 0.59314477
0.054697841 0.083380952 0.59752119
0.054093078 0.082121193 0.60043776
0.059569463 0.11137721 0.55905902
0.059875607 0.11065584 0.56162101
0.059330501 0.1077605 0.5656209
0.058845587 0.10541858 0.57017738
0.058320209 0.10275681 0.57439268
0.057801709 0.10015893 0.57872117
0.057331964 0.097861931 0.58297074
0.056804493 0.095157966 0.58701968
0.056296349 0.092635289 0.59139681
0.055787779 0.090092853 0.59567523
0.055282898 0.087749511 0.59996253
0.054772459 0.085915282 0.60262442
0.059772104 0.11293985 0.56229979
0.059035368 0.11003141 0.56725383
0.058650695 0.10763763 0.5712806
0.058167472 0.10505195 0.57564569
0.057456017 0.10254399 0.57993501
0.05714079 0.10015072 0.5839451
0.056679577 0.097506374 0.58840168
0.056071401 0.095120221 0.59246695
0.055430666 0.092381328 0.59712011
0.055182502 0.090159863 0.60083222
0.055231139 0.088372529 0.60376215
0.038858347 -0.015015794 0.48187199
0.038540967 -0.018404298 0.48272601
0.037802272 -0.020883085 0.48697355
0.037441783 -0.023438385 0.49126059
0.036856271 -0.025976365 0.49557054
0.036683425 -0.028572662 0.49988219
0.036049195 -0.031117704 0.50421488
0.035227615 -0.033672191 0.5086059
0.034929276 -0.036042415 0.5125742
0.03420572 -0.038605459 0.51695693
0.033834815 -0.041214973 0.52133554
0.033829156 -0.040909015 0.52550042
0.039604612 -0.010884492 0.48440316
0.034362096 -0.036381453 0.52826172
0.040182158 -0.0065101893 0.48705801
0.035033591 -0.03240037 0.5306952
0.040769026 -0.0022813408 0.48962796
0.035454951 -0.028152999 0.53325647
0.041470148 0.0019997098 0.49224231
0.036244906 -0.023967132 0.53582507
0.04172007 0.0061135329 0.49470437
0.036727604 -0.019488472 0.53853041
0.042434707 0.010683816 0.49749133
0.037481535 -0.015317026 0.5410862
0.043070242 0.014591711 0.49987727
0.037823357 -0.011311214 0.54349524
0.043922059 0.018878361 0.50251281
0.038369454 -0.0068790549 0.54618061
0.044425935 0.023243774 0.50515366
0.038880117 -0.0027840557 0.54866236
0.044659086 0.027561653 0.50773436
0.039517134 0.0015381295 0.55129343
0.045351535 0.031571239 0.51018721
0.040190712 0.0060203075 0.55402344
0.045961201 0.035941992 0.51284373
0.040815562 0.010004006 0.55645293
0.046498321 0.04015287 0.51539719
0.041535452 0.0141664 0.55899936
0.047225311 0.044417195 0.51800472
0.042202018 0.018408315 0.5615865
0.047937848 0.048679586 0.52060938
0.042738378 0.022573661 0.5641129
0.048383355 0.052942451 0.52318269
0.043292761 0.026972774 0.56677967
0.048984066 0.057222988 0.52578485
0.043827862 0.031213682 0.56935066
0.049390562 0.061412673 0.5283103
0.044512033 0.035565451 0.5720048
0.050116114 0.065571591 0.53085536
0.045049898 0.039857406 0.5746063
0.050827749 0.069893807 0.53349531
0.045418575 0.044051021 0.57712954
0.051119916 0.074136913 0.53603876
0.046228521 0.048217654 0.57968915
0.05193419 0.078393161 0.53865188
0.046961829 0.05250949 0.58231366
0.052353516 0.082548231 0.54115838
0.047314733 0.056783359 0.58488256
0.052994184 0.086623535 0.54364389
0.047941245 0.061030265 0.58746791
0.053628027 0.091114372 0.54637432
0.04872191 0.06529583 0.59008253
0.054419786 0.095327303 0.54895914
0.048982918 0.069578514 0.5926457
0.055114366 0.099562794 0.55154574
0.049726114 0.073693767 0.59516698
0.055450156 0.1036896 0.55402565
0.050312243 0.077927575 0.59773982
0.056174263 0.10783409 0.55656195
0.050743587 0.082285836 0.60036784
0.056540281 0.1122885 0.55923915
0.058000803 0.11107568 0.56577176
0.05318094 0.10227805 0.5813489
0.053007565 0.099608645 0.58578092
0.054216631 0.094909444 0.59323734
0.054675683 0.093026653 0.59623063
0.050905883 0.090723559 0.60088128
0.051719442 0.086628169 0.60305101
0.056877583 0.11311817 0.56266743
0.055904984 0.11061476 0.56700885
0.055501476 0.10795137 0.57148355
0.055216394 0.10546978 0.5756321
0.054630436 0.10317276 0.57954562
0.054200292 0.10060328 0.5838719
0.053417444 0.098067716 0.58822298
0.05315955 0.095404908 0.59266347
0.052377246 0.092946216 0.59688789
0.052250944 0.090194881 0.60144407
0.051789775 0.088790819 0.60385972
0.03412164 -0.01426462 0.48175529
0.03380226 -0.017749008 0.48272994
0.03295657 -0.020159241 0.48688909
0.032462776 -0.022698803 0.49118069
0.032125495 -0.025259074 0.49547061
0.031398572 -0.027816698 0.49984518
0.030941267 -0.030439861 0.50426602
0.030495431 -0.03284388 0.50832361
0.029899484 -0.03544692 0.512743
0.029140599 -0.037836142 0.51684773
0.028901344 -0.040441241 0.52118903
0.028933445 -0.040153988 0.52535135
0.034528133 -0.0099983821 0.484326
0.029695621 -0.035895295 0.5279966
0.035452072 -0.0058337119 0.48689792
0.03006527 -0.031667635 0.53054011
0.035708807 -0.0013323463 0.48958993
0.030761546 -0.027356476 0.53317171
0.036371976 0.0028575137 0.49214587
0.031435944 -0.023096658 0.53577036
0.036737978 0.0070114583 0.49464539
0.031739451 -0.019031107 0.53821021
0.037450761 0.01121645 0.49721614
0.032547738 -0.014752687 0.54083568
0.03808675 0.01554841 0.49985287
0.032966767 -0.010473469 0.54341555
0.038881123 0.019679017 0.50238931
0.03336411 -0.0062719742 0.54594684
0.039418675 0.023723278 0.50484431
0.034118213 -0.0020029396 0.54856038
0.039602272 0.028024461 0.50740927
0.034550682 0.002174885 0.5510819
0.040437192 0.032409888 0.5101012
0.035307817 0.006515285 0.55373794
0.041038364 0.036710393 0.51271522
0.035853893 0.010860814 0.55637205
0.041684583 0.040741641 0.51517534
0.036541317 0.014947884 0.55887008
0.042237647 0.045196343 0.51787484
0.036969185 0.019271955 0.56147754
0.042892292 0.049368791 0.52041948
0.037655346 0.023552995 0.56409007
0.043624617 0.053656224 0.52304131
0.038267992 0.027785134 0.56666505
0.044082813 0.05777448 0.52553064
0.039010599 0.031959627 0.56922132
0.044409856 0.062028456 0.52808464
0.039349161 0.036343116 0.57185328
0.045197308 0.066366345 0.53074282
0.040126212 0.040535357 0.57442415
0.045866981 0.070373341 0.53319144
0.040866502 0.044928182 0.57710922
0.04621198 0.074844792 0.53587621
0.041218318 0.049061313 0.57959473
0.047027774 0.079050913 0.53845984
0.041792788 0.053289969 0.5821631
0.047376499 0.083316237 0.54102314
0.042208411 0.057497714 0.58470029
0.048075311 0.087571949 0.54362226
0.043050602 0.06184366 0.58736974
0.04863105 0.091718942 0.54614007
0.043716297 0.066072896 0.58994925
0.049207054 0.096061721 0.54877615
0.044336826 0.070169136 0.59244478
0.049957976 0.10037032 0.5514127
0.044726022 0.074548617 0.59508038
0.050582863 0.10472493 0.55406147
0.045289174 0.078732148 0.59762079
0.050936617 0.10885878 0.55654764
0.045950137 0.083122224 0.60029483
0.051793948 0.11314408 0.55918306
0.049168274 0.10208307 0.58258605
0.04816477 0.098189518 0.58922207
0.047602288 0.096383452 0.59232241
0.049584612 0.093435645 0.59672028
0.049142078 0.090922207 0.60095721
0.046624057 0.087275594 0.60283047
0.051685132 0.11372411 0.56285608
0.051114254 0.11119445 0.56714898
0.050789304 0.10873872 0.57126409
0.050063677 0.10640077 0.57527685
0.049635194 0.10377777 0.57969093
0.049313851 0.10109426 0.58417994
0.048840173 0.098763973 0.58812261
0.048381656 0.09615393 0.59252208
0.047546156 0.093655705 0.59682375
0.046811417 0.091206148 0.60102224
0.047215067 0.089572892 0.60361761
0.0289609 -0.013528695 0.48157936
0.028620895 -0.016998697 0.48267859
0.028060691 -0.01933426 0.48664966
0.027582753 -0.021966849 0.49109071
0.027045341 -0.024450604 0.49530044
0.026448242 -0.026920369 0.49950078
0.025744528 -0.029448558 0.50382161
0.025332479 -0.031967416 0.50806046
0.024921311 -0.034545451 0.51239651
0.024538072 -0.037061725 0.51662451
0.024010984 -0.039675876 0.52104646
0.024083296 -0.039389931 0.52523088
0.029589519 -0.0092806835 0.48416558
0.024864512 -0.035098709 0.52789551
0.030452909 -0.0050219009 0.48678598
0.025255607 -0.030741598 0.53051817
0.030722814 -0.00078240596 0.48932472
0.025920575 -0.026634904 0.53302515
0.031301871 0.0034550857 0.49189886
0.026569247 -0.022441013 0.53558171
0.03188128 0.0078252889 0.49455151
0.027122617 -0.018182114 0.53816551
0.032611217 0.012082789 0.49715534
0.027676143 -0.013841375 0.54079765
0.032951087 0.016247822 0.49965832
0.0283342 -0.0096576801 0.54334933
0.033793241 0.020510565 0.50227857
0.029013557 -0.0054110233 0.54594076
0.034394555 0.024594031 0.50476426
0.029606914 -0.0012397096 0.54847753
0.034739636 0.028989185 0.50740391
0.030005291 0.0029525924 0.55100352
0.035558455 0.033230029 0.51000845
0.030604741 0.0073362999 0.55366653
0.036100991 0.037385877 0.51252997
0.031054249 0.011506721 0.55618566
0.036658902 0.041714825 0.51515567
0.03166905 0.015844146 0.55882311
0.037325755 0.04579382 0.51764649
0.032007214 0.01998058 0.56130898
0.038072526 0.050272919 0.52038336
0.032784019 0.024166275 0.56387591
0.038410768 0.05463763 0.52300423
0.033381753 0.028484963 0.56650025
0.038938612 0.058660049 0.5254451
0.033993192 0.032831095 0.56914246
0.039694168 0.063026503 0.52811641
0.034549594 0.037015881 0.57168281
0.040369689 0.067057595 0.53057992
0.035158463 0.041310932 0.57429451
0.040696874 0.07149066 0.5332399
0.035737932 0.045402046 0.57678211
0.041468665 0.075556874 0.53573561
0.036372073 0.049668595 0.57937998
0.041942731 0.07974267 0.53826672
0.036692858 0.053994823 0.581976
0.042644113 0.08411102 0.54093271
0.037508465 0.058310296 0.58462429
0.043126062 0.088403627 0.54352796
0.03821402 0.062354345 0.58709902
0.043774307 0.092718169 0.54615587
0.038625814 0.066706091 0.5897209
0.044351831 0.096883371 0.5486871
0.03912925 0.070932597 0.59227961
0.045127518 0.10112584 0.55128741
0.039830469 0.075211808 0.59489286
0.04562825 0.10538164 0.55386311
0.040359087 0.079435036 0.59745258
0.046068966 0.10971493 0.55647755
0.040953457 0.083725691 0.60005999
0.046565391 0.11398244 0.55905962
0.045302533 0.10320236 0.58162713
0.044642463 0.10211267 0.58357096
0.042043693 0.094150975 0.59726536
0.040616892 0.09131965 0.6022501
0.041635774 0.087890238 0.60259759
0.04679893 0.11461687 0.56250298
0.046405099 0.11225618 0.56647736
0.045834042 0.10959741 0.57098281
0.045155235 0.10712157 0.57521176
0.044560224 0.10465527 0.5794059
0.044592202 0.10189746 0.58393657
0.043754183 0.099424705 0.58819687
0.043269396 0.096952945 0.59237486
0.042763397 0.094525397 0.5964849
0.042333432 0.091934428 0.60084653
0.042053647 0.090402529 0.60343111
0.023888782 -0.012607009 0.48152375
0.023679636 -0.016096812 0.48232299
0.023169652 -0.018692996 0.48671144
0.022595853 -0.021230886 0.49101856
0.021988524 -0.023772972 0.49534023
0.021549126 -0.026212493 0.4994548
0.020906053 -0.028786061 0.50383645
0.0204529 -0.031294707 0.50806791
0.019955162 -0.033835791 0.5123629
0.019333692 -0.036378402 0.51668864
0.019067779 -0.038945623 0.52097374
0.018923465 -0.038900178 0.52480966
0.024685549 -0.0084022563 0.48410431
0.019648703 -0.034417063 0.52768099
0.025392195 -0.0043693176 0.48657262
0.02011016 -0.030079784 0.5303002
0.025868502 -2.2107735e-05 0.48919946
0.020950925 -0.025869451 0.53288925
0.026408577 0.0042013247 0.49176067
0.02144913 -0.021549683 0.53550249
0.026990857 0.0084278136 0.49432871
0.022147026 -0.017373484 0.53805447
0.027519101 0.012784636 0.49696738
0.022767736 -0.012947882 0.54074478
0.0281238 0.016983526 0.49952173
0.023415735 -0.0088215563 0.54326135
0.028776892 0.021299016 0.50215077
0.023693904 -0.0046614101 0.54575408
0.029261278 0.02547304 0.50467616
0.02446465 -0.00045683142 0.5483315
0.029835198 0.02958823 0.50717741
0.025131423 0.0039646812 0.55102479
0.03081592 0.033772644 0.50976771
0.025584439 0.0082171336 0.55359286
0.031354908 0.038219664 0.51246101
0.026100742 0.01235774 0.55610228
0.03167209 0.042402837 0.51497203
0.026635552 0.016590945 0.55866867
0.032340795 0.046735011 0.51761276
0.02737199 0.020848986 0.56127357
0.033032484 0.050956901 0.52019101
0.02792768 0.025016405 0.56380355
0.033849612 0.055207212 0.52280092
0.028530283 0.029254436 0.5663808
0.034149092 0.059547994 0.52540302
0.029074673 0.033432391 0.56891561
0.034774721 0.063775659 0.52797687
0.029569561 0.037834339 0.57157707
0.035672538 0.068076357 0.53062612
0.030255938 0.041988693 0.57411474
0.035923369 0.072255492 0.53312689
0.030758765 0.046364617 0.57676172
0.036448844 0.076382235 0.53562921
0.031447791 0.050606895 0.57935172
0.037101008 0.080700874 0.53825998
0.031998459 0.05461305 0.58178568
0.037715644 0.085008308 0.54087973
0.032348871 0.059013952 0.58442938
0.038231686 0.089144573 0.54338652
0.03298609 0.06323494 0.58700067
0.039007232 0.09328565 0.54592693
0.033754196 0.067593172 0.58966857
0.039478175 0.097632661 0.54855305
0.034003064 0.071679741 0.59211439
0.039971292 0.10189995 0.55113459
0.034864828 0.075842202 0.59467763
0.040697925 0.10609587 0.55370164
0.035650857 0.080083758 0.59727871
0.0411691 0.11035274 0.55627447
0.035954803 0.084217459 0.59975886
0.041784592 0.11459318 0.5588547
0.039243117 0.10956794 0.57253641
0.040783271 0.10680985 0.5767231
0.039228022 0.10551789 0.5792042
0.03764616 0.098064214 0.59183043
0.038706966 0.095044732 0.59655666
0.037564963 0.092196763 0.60150379
0.036657479 0.088799179 0.60251194
0.041791312 0.11530495 0.56251436
0.041322373 0.11289556 0.56658602
0.040993489 0.11040546 0.57075858
0.040205136 0.10794626 0.57498521
0.039896727 0.10539415 0.5792551
0.039541572 0.10273342 0.58371443
0.038782902 0.10025702 0.58796263
0.038211547 0.097716555 0.59227341
0.037805796 0.095123932 0.59663218
0.03723 0.09277074 0.60063589
0.037005991 0.091156036 0.60334402
0.019126073 -0.011897083 0.48137957
0.018703762 -0.015329288 0.48219639
0.018210668 -0.017970368 0.48665488
0.017626632 -0.020407988 0.49079931
0.01703532 -0.022903239 0.49504027
0.016642962 -0.025382861 0.49921009
0.0163339 -0.028066467 0.5036965
0.015500445 -0.030561207 0.50799191
0.015007668 -0.033011213 0.51213592
0.014232785 -0.035618998 0.51660395
0.013740106 -0.038042143 0.52070373
0.014030662 -0.038424917 0.52446008
0.01983008 -0.0077718734 0.48390213
0.0146077 -0.033666108 0.52752811
0.020524194 -0.003576057 0.48646525
0.015137146 -0.029240817 0.5302074
0.020942636 0.00076834951 0.48908359
0.015910739 -0.025142569 0.53272223
0.021544684 0.0049998015 0.4916569
0.016379708 -0.020716419 0.53539491
0.021972124 0.0093668103 0.49428967
0.016930616 -0.016488012 0.53796035
0.022598185 0.013489971 0.49680176
0.017671455 -0.012307951 0.54051971
0.023376392 0.017556427 0.49929836
0.01843291 -0.0081556924 0.54306501
0.023861254 0.022070039 0.50202459
0.018615037 -0.0039351201 0.54558218
0.024406785 0.026316617 0.50460017
0.019645335 0.00032607187 0.54822373
0.024921259 0.030505061 0.50713766
0.020195059 0.0046092197 0.55082142
0.025866019 0.034666296 0.50971001
0.020646989 0.0087837875 0.5533433
0.026375065 0.038968757 0.51231426
0.021237869 0.013147533 0.5559935
0.026937386 0.043178372 0.51486993
0.021773765 0.017349089 0.5585413
0.027663151 0.047295935 0.51739055
0.022282025 0.02155358 0.56108749
0.028100541 0.05169389 0.52004278
0.022951344 0.025841031 0.56370187
0.028807933 0.055825394 0.52256948
0.023323542 0.030170526 0.56630594
0.029347753 0.060254153 0.52525204
0.024102531 0.034417335 0.56890929
0.030085046 0.064447314 0.52781874
0.024745902 0.038611047 0.57146513
0.030461218 0.068769276 0.53041875
0.02530608 0.042914398 0.574076
0.030996144 0.07289739 0.53292304
0.025856571 0.047194511 0.57667196
0.031519614 0.077131897 0.53548884
0.026487118 0.051434781 0.57925385
0.032237418 0.081121892 0.53793305
0.027106019 0.055580083 0.58177817
0.032726899 0.085704789 0.54070079
0.027530303 0.059865396 0.58436227
0.033316061 0.089930311 0.5432691
0.028314251 0.064192191 0.58701348
0.03386087 0.094219774 0.54586989
0.028755514 0.068253636 0.58946723
0.034458637 0.098442063 0.54843724
0.029261691 0.072643787 0.59212297
0.035213757 0.10270277 0.55104595
0.029850671 0.07681483 0.59465903
0.035738818 0.10688925 0.55358356
0.03078652 0.081050336 0.59727424
0.036285549 0.11107029 0.55612051
0.031232888 0.085148022 0.59974998
0.036888979 0.11528291 0.5586828
0.034468107 0.11509486 0.56453246
0.036606744 0.11110932 0.57060218
0.037851281 0.10808797 0.57528955
0.031307545 0.096215338 0.59632027
0.031803086 0.094230548 0.59947312
0.031732164 0.089507908 0.60238707
0.036855884 0.11619677 0.56217396
0.036289342 0.11359717 0.56658095
0.035628114 0.11113665 0.57078069
0.035132565 0.10861054 0.57505059
0.034964915 0.10611482 0.57919556
0.034440216 0.10359207 0.58346653
0.033822149 0.10103914 0.58780855
0.033351153 0.098467857 0.59214711
0.03303609 0.095807582 0.5965966
0.032313235 0.093326285 0.60084462
0.032322921 0.091902718 0.60318482
0.014422545 -0.011373593 0.48113218
0.013707772 -0.014621144 0.48217207
0.013116118 -0.017139219 0.48645067
0.012928365 -0.019727079 0.49075183
0.012228522 -0.022244183 0.49505353
0.011643287 -0.024764858 0.49933493
0.011321817 -0.027249599 0.503497
0.010662824 -0.029796811 0.5078389
0.010306941 -0.032384895 0.51217884
0.0096134152 -0.034720659 0.51618069
0.0090741683 -0.037299123 0.52054667
0.0091732256 -0.037618555 0.52436042
0.014734904 -0.0069654346 0.48377565
0.0096777314 -0.032697123 0.52751732
0.015509671 -0.0028435253 0.48630461
0.010454888 -0.02846946 0.53010911
0.015989177 0.001562437 0.48896658
0.010915658 -0.024278093 0.53264195
0.016730629 0.0057731662 0.49154413
0.011364046 -0.020135123 0.53514475
0.01725967 0.0099947006 0.49410293
0.012205779 -0.015877295 0.53776199
0.017761294 0.014314732 0.49671671
0.012733998 -0.011436978 0.54045004
0.018527171 0.018617563 0.49935159
0.013577608 -0.0072165518 0.5430454
0.019156778 0.022731196 0.50185847
0.013673673 -0.003168324 0.54545045
0.019578602 0.026873384 0.50435764
0.014349453 0.00096773729 0.54797608
0.020277934 0.031106986 0.50694376
0.014994737 0.0053126942 0.55062163
0.020844737 0.035557531 0.50964242
0.015820146 0.0097332466 0.55333316
0.021333983 0.039636504 0.5121122
0.01600704 0.013957806 0.55585325
0.02206406 0.043922015 0.5147326
0.016847353 0.018093245 0.55839795
0.022615589 0.048222903 0.51734096
0.017409194 0.022426143 0.56102645
0.023333076 0.052488226 0.51994795
0.017887149 0.026583631 0.56354135
0.024005497 0.056660425 0.52249455
0.018564338 0.030762151 0.56609225
0.024209557 0.061108124 0.52514857
0.019055296 0.035151873 0.56874597
0.02498381 0.065097794 0.52759933
0.019727016 0.039274305 0.57126302
0.02535593 0.069392368 0.53018272
0.02034688 0.04358371 0.57388455
0.025840679 0.073808461 0.53285128
0.020867061 0.047962923 0.57653546
0.026638716 0.077808633 0.53531104
0.021637412 0.051894393 0.57895136
0.02722347 0.0822604 0.53801256
0.022003053 0.056274917 0.58158481
0.027816193 0.086600065 0.5406487
0.022671191 0.060447473 0.58413106
0.02831611 0.090798676 0.54319048
0.023466075 0.064695373 0.58673692
0.029029271 0.094955057 0.54573256
0.023969019 0.069028944 0.58935887
0.029576778 0.099171072 0.54829025
0.024384782 0.073342085 0.5919584
0.030077392 0.10338841 0.55084318
0.02501772 0.07763733 0.59457308
0.030874951 0.1075971 0.55342621
0.025701111 0.081730455 0.59707421
0.031431295 0.11197229 0.55607903
0.026311081 0.086047202 0.5996989
0.031819467 0.11625163 0.55865532
0.031287298 0.11737372 0.56150895
0.031806529 0.11471079 0.56577224
0.02605298 0.097266659 0.59579033
0.029549124 0.094081253 0.6002335
0.026712084 0.09024027 0.60222566
0.032155722 0.11688536 0.56211424
0.031526744 0.1143485 0.5664323
0.031039773 0.11199835 0.57041061
0.030449193 0.10945414 0.57473201
0.029849214 0.10688505 0.5790965
0.029364303 0.10437563 0.58333647
0.028862391 0.10178491 0.58771408
0.028538354 0.099310428 0.59185988
0.027902778 0.096699536 0.59630126
0.027159926 0.094188318 0.6006031
0.026972959 0.092732579 0.60304105
0.0093685091 -0.010432264 0.48109034
0.0071442742 -0.012018146 0.48292771
0.0066224248 -0.014492121 0.48714218
0.0062169437 -0.017178742 0.4913941
0.0058170175 -0.019605014 0.49560168
0.005331961 -0.022373728 0.499993
0.0048672399 -0.024948422 0.50424254
0.0043938905 -0.027455632 0.50834221
0.0041858512 -0.030220918 0.51245254
0.0036377092 -0.032854699 0.51682478
0.0032086717 -0.035344332 0.52111822
0.0034532475 -0.036619455 0.52408296
0.0097905733 -0.0060686241 0.48372048
0.0072062174 -0.0071416749 0.48586729
0.0067098429 -0.0096350852 0.48997402
0.0061969142 -0.012206666 0.49424663
0.005698964 -0.014667531 0.49860099
0.0051789987 -0.017295878 0.50280762
0.0046933838 -0.019679984 0.5071457
0.0041619567 -0.022347113 0.51155615
0.003688969 -0.024665669 0.51580209
0.0031682854 -0.027294792 0.52003103
0.0026444751 -0.029910032 0.52445745
0.0039985497 -0.031826295 0.52715254
0.010544349 -0.0019770265 0.48622903
0.0077850511 -0.0029620873 0.48845357
0.0073041199 -0.0053335354 0.49268988
0.0068085389 -0.0078241415 0.4967832
0.0062785801 -0.010489071 0.50115144
0.0057738959 -0.013037138 0.50525206
0.0052745184 -0.015475828 0.50978839
0.0047577582 -0.018079761 0.51401669
0.0042858394 -0.020350289 0.5185011
0.0037466227 -0.023122497 0.52259362
0.0032352204 -0.025662951 0.52698958
0.0045321956 -0.027502429 0.52979285
0.01116018 0.0021671997 0.48875239
0.0084050223 0.0014896058 0.491079
0.0079111522 -0.0010383986 0.49489149
0.0074033067 -0.0035346802 0.4994106
0.0068806978 -0.0061541088 0.50376779
0.0063531632 -0.0088056028 0.50812334
0.0058657583 -0.011220307 0.51235092
0.0053112479 -0.014065772 0.5165906
0.0048502632 -0.016301099 0.52087021
0.0043334966 -0.018891517 0.52517712
0.0038339507 -0.021378025 0.52944249
0.0049437834 -0.023217991 0.53230739
0.011756367 0.0066463817 0.49147147
0.009015671 0.0058185235 0.4933413
0.008482758 0.003097686 0.49749586
0.0079818405 0.00065094046 0.50204307
0.0074694678 -0.001911859 0.50634581
0.0069606248 -0.0044528265 0.51064306
0.0064457543 -0.0070314314 0.51494759
0.005910866 -0.009773409 0.51905346
0.0054025203 -0.012300747 0.52341115
0.0049284627 -0.014590694 0.52786303
0.0044407556 -0.017015576 0.53204292
0.0054407758 -0.019078586 0.53480399
0.012321301 0.010796525 0.4939923
0.0095820734 0.0099042058 0.49584797
0.0090718698 0.0073537622 0.5001412
0.0085767535 0.0049037728 0.50445265
0.0080882553 0.0024938714 0.50874901
0.0075597446 -0.00014637876 0.51320624
0.0070212819 -0.0028904686 0.51743352
0.0065143802 -0.005379336 0.52196032
0.0060060313 -0.007931618 0.52617353
0.0055401698 -0.010181198 0.53055286
0.0050076824 -0.012916801 0.53460592
0.0060081771 -0.014732681 0.5374788
0.013073884 0.015073432 0.49661028
0.010182795 0.014245627 0.49855399
0.0096375793 0.01145866 0.50278527
0.009154629 0.0090849996 0.50708425
0.0086559588 0.0066226553 0.51145697
0.0081236986 0.0039712228 0.51598954
0.0076145576 0.0013915207 0.52007341
0.0071011176 -0.0011686552 0.52443123
0.0066136071 -0.0035804827 0.52867949
0.0061146002 -0.0060317144 0.53312927
0.0056258785 -0.0085054263 0.53706402
0.006732116 -0.010405243 0.54008466
0.013470842 0.019209623 0.49910295
0.010774141 0.018508 0.50115234
0.010223223 0.015686968 0.50539929
0.0097401747 0.013317263 0.50972486
0.0092364661 0.010793449 0.51392961
0.0087084435 0.0081520826 0.5183621
0.0082003865 0.0056249723 0.52271038
0.0076906709 0.0030763727 0.52699602
0.0071719959 0.00045997091 0.53122365
0.0066937809 -0.0018721148 0.53558666
0.0061734016 -0.0045134574 0.53973341
0.0073885107 -0.0063077286 0.5426175
0.014392093 0.023516037 0.5017584
0.011353777 0.022666629 0.50358707
0.010825595 0.020012166 0.50794959
0.01034406 0.01765275 0.5122782
0.0098165199 0.015030075 0.516801
0.0093299281 0.012616923 0.52100724
0.0087966891 0.0098832697 0.52509969
0.0082972078 0.0074807275 0.52984947
0.0077729076 0.0047833174 0.53381777
0.0072802627 0.0023555644 0.53816569
0.0067759072 -0.0001656767 0.54240954
0.0079897679 -0.0019837543 0.54526448
0.014927487 0.027720623 0.50430787
0.01192294 0.026806656 0.50630558
0.011430342 0.024378218 0.51064783
0.01087958 0.021546844 0.51482898
0.010425463 0.019387998 0.51929522
0.0099145696 0.016821874 0.52352333
0.0093600005 0.014010606 0.52796352
0.0088649355 0.011559447 0.5322662
0.0083895922 0.0092031099 0.53638119
0.0078818519 0.0066471435 0.54055029
0.0073559918 0.0040202271 0.54498565
0.0083382437 0.0021860134 0.54771847
0.015267748 0.031892281 0.50681484
0.0125215 0.031112704 0.50888735
0.011998862 0.02849634 0.5132634
0.011481211 0.025876824 0.51743466
0.010998192 0.023525458 0.52186549
0.010487834 0.020951238 0.52602667
0.0099911783 0.018530086 0.53056288
0.0094649289 0.015879702 0.5348767
0.0089578945 0.013320675 0.5390017
0.0084533356 0.010770828 0.5430873
0.007932758 0.0081712306 0.5474835
0.0092735197 0.0065189898 0.55043042
0.015788294 0.036159251 0.50939947
0.013087529 0.035228901 0.51158494
0.012612259 0.032908238 0.51590401
0.012087732 0.030249771 0.52010661
0.011595584 0.027838212 0.52452987
0.011083653 0.025270808 0.52878934
0.010584058 0.022770729 0.53297782
0.010076491 0.020212542 0.53712761
0.0095744096 0.017724719 0.54148018
0.0090666153 0.015183158 0.54573476
0.0085695777 0.012735942 0.55013418
0.0096756592 0.010488734 0.5528236
0.016330831 0.040482618 0.51202005
0.013683334 0.03952305 0.51420075
0.013160781 0.036879983 0.51841879
0.012674635 0.034467738 0.52261358
0.012167702 0.031933803 0.5268802
0.011659667 0.029433787 0.53138477
0.011144098 0.02685136 0.53569323
0.010651024 0.02435343 0.53965026
0.010146718 0.021885689 0.54420257
0.0096462229 0.019344699 0.54818749
0.0091158068 0.016674962 0.55254495
0.010429933 0.015020564 0.55557156
0.017063189 0.044760935 0.51463652
0.014292415 0.043930013 0.51697409
0.013790782 0.041343711 0.52073896
0.01329662 0.038916733 0.52514809
0.012758212 0.036175534 0.5293901
0.01223749 0.033591237 0.53388047
0.011751052 0.03119095 0.5381555
0.011224677 0.028543558 0.54249144
0.010755632 0.026207726 0.54648972
0.01021727 0.023514621 0.55100894
0.0097272471 0.02111432 0.55541795
0.010786904 0.019272491 0.55817014
0.017753128 0.049007129 0.5172289
0.014902654 0.048236135 0.5191195
0.014376154 0.045601401 0.52353352
0.013883643 0.043162819 0.52781367
0.013351776 0.040457107 0.53201681
0.012859818 0.038062427 0.53653079
0.012345683 0.035483193 0.54080415
0.011826145 0.032838438 0.5448997
0.011332488 0.030399326 0.54921961
0.010826152 0.027902432 0.55367869
0.010304337 0.025267664 0.55791724
0.011590946 0.023394015 0.56070369
0.018328737 0.053279351 0.51982319
0.015447433 0.052231606 0.52191186
0.01494884 0.049759828 0.526227
0.014427705 0.047140695 0.53053081
0.013937445 0.044714794 0.53480023
0.013422173 0.042120386 0.53902817
0.012912475 0.039571017 0.54330873
0.012448994 0.037327755 0.54763567
0.011927938 0.034705125 0.55191624
0.011394366 0.031992506 0.55614311
0.010907393 0.029615086 0.56057078
0.011799181 0.027697973 0.5631749
0.018649688 0.057414223 0.52230608
0.016018894 0.056362759 0.52449304
0.015532465 0.053938057 0.5286262
0.015027476 0.051457312 0.53312856
0.014522532 0.048949521 0.53747243
0.014004266 0.046332996 0.54168397
0.013510681 0.043871369 0.54587066
0.012991155 0.041248657 0.55009359
0.012543919 0.039117459 0.55446273
0.011989869 0.036296599 0.55882788
0.011485475 0.033774395 0.56306756
0.012476671 0.031886633 0.56571925
0.019319758 0.06151301 0.524809
0.016649742 0.060866114 0.52701133
0.016156718 0.058431786 0.53133529
0.015624123 0.05572946 0.53558534
0.015093357 0.05306055 0.53996062
0.01460834 0.050663363 0.54420054
0.014090406 0.048062909 0.54849291
0.013600689 0.045636885 0.55274135
0.01308382 0.043051571 0.5570817
0.012599304 0.04064706 0.5612604
0.012057628 0.037900455 0.5655933
0.013202994 0.036110289 0.56835616
0.02007132 0.06580326 0.52743477
0.017233137 0.065081924 0.52963698
0.01672571 0.062565073 0.53402114
0.016213333 0.060016874 0.53840864
0.015715271 0.057523515 0.54257882
0.015196789 0.054903496 0.54677826
0.01465252 0.05213761 0.55109632
0.014177416 0.049796775 0.55529219
0.013671617 0.047286365 0.55965286
0.013198856 0.044976253 0.56393921
0.012666367 0.042268526 0.56815398
0.01386352 0.040429935 0.57096279
0.020650068 0.070120871 0.53005624
0.017859966 0.069599152 0.53238595
0.017297972 0.066688567 0.53652787
0.016805692 0.064256519 0.54083729
0.016297717 0.061713915 0.54509264
0.015790906 0.059176926 0.54933703
0.015293274 0.056710895 0.55364954
0.014762448 0.054033842 0.55797994
0.014258424 0.051502991 0.56215566
0.013753694 0.049002912 0.56653631
0.013247039 0.046446506 0.57066214
0.014444483 0.044859726 0.57367772
0.021040749 0.07438378 0.53262311
0.018420206 0.073639125 0.53485805
0.017926572 0.071167514 0.53898871
0.017394403 0.068495408 0.54339802
0.016900122 0.066028446 0.54757977
0.016383154 0.063441038 0.55191171
0.01586456 0.06083655 0.55620539
0.01534848 0.058238503 0.56044233
0.014863105 0.055810113 0.5645147
0.014352977 0.053321835 0.56916559
0.013854994 0.05081692 0.57326579
0.015055206 0.048936479 0.57616973
0.021791006 0.078535348 0.53516674
0.019003348 0.077835709 0.53738171
0.018509744 0.075368747 0.54153824
0.018014019 0.072889403 0.54570222
0.017492201 0.070286229 0.55012411
0.016945846 0.067546844 0.55467379
0.016443886 0.065016106 0.5587731
0.015927466 0.062437508 0.5631355
0.015443263 0.060057718 0.56744587
0.014943988 0.057578456 0.57174307
0.014420834 0.054926593 0.57593256
0.015783815 0.053257424 0.57885218
0.02206834 0.082948208 0.53780884
0.019597461 0.082139641 0.54011756
0.019086096 0.079551846 0.54423761
0.018575046 0.076993689 0.54851782
0.018084183 0.074547872 0.55269438
0.017566226 0.071951121 0.55700904
0.017069943 0.069491908 0.56131071
0.016538279 0.066835016 0.56578922
0.016070697 0.064535156 0.56994146
0.015538109 0.061833043 0.5741924
0.01500875 0.059160564 0.57849449
0.016184688 0.057407219 0.58127356
0.022959629 0.087059513 0.54034531
0.020202873 0.086451665 0.54247767
0.019703917 0.083957896 0.5466789
0.019180411 0.081302285 0.55085975
0.018673399 0.078757122 0.55506432
0.018159565 0.076233819 0.55965072
0.017636646 0.073611185 0.5640009
0.017120242 0.071031317 0.56835544
0.016617978 0.068522722 0.57259434
0.016126098 0.066077843 0.57681441
0.015625942 0.063533545 0.58076751
0.01664873 0.061730754 0.58391494
0.023549121 0.091348439 0.54295111
0.020794343 0.090706155 0.54502577
0.020261828 0.088009909 0.54930788
0.019774821 0.085609972 0.55360627
0.01924674 0.082927302 0.55780143
0.018753989 0.080525622 0.56230456
0.018229982 0.077874616 0.56653094
0.017719302 0.075325832 0.57085168
0.017198352 0.072703183 0.57512814
0.016688988 0.070186123 0.57958353
0.016193125 0.067678511 0.58358878
0.017671226 0.065904438 0.58658141
0.024138613 0.095559627 0.54551095
0.021332469 0.094667837 0.54787087
0.020834798 0.09216094 0.55194795
0.020322518 0.089604899 0.55628633
0.019806135 0.086994559 0.56046343
0.019336335 0.084690705 0.56467533
0.018807516 0.082037285 0.56906784
0.018278476 0.079363108 0.57334799
0.01781657 0.07710962 0.57755685
0.017312001 0.074596092 0.58185327
0.016804794 0.07208173 0.58624375
0.017907791 0.07007122 0.58901525
0.024771767 0.099809855 0.54809904
0.021943282 0.099045083 0.55040723
0.021433601 0.09645234 0.55443567
0.020928042 0.093930289 0.55871975
0.020439183 0.091544658 0.56317043
0.019897893 0.08877559 0.56735861
0.019396538 0.086258143 0.57151222
0.018914752 0.083937541 0.57607532
0.018378936 0.08118026 0.58012712
0.017887622 0.078755811 0.58444452
0.017388474 0.076263934 0.58866394
0.018686578 0.07434769 0.59160709
0.025107497 0.10432667 0.5508095
0.022526681 0.10324828 0.55295962
0.021999013 0.10055208 0.55706096
0.021499995 0.098075375 0.56136334
0.021030113 0.095778719 0.56562006
0.020506313 0.093145564 0.56994224
0.020001458 0.090612188 0.57413441
0.019487068 0.088039994 0.57845813
0.018973641 0.085467249 0.58274257
0.018453687 0.082855791 0.58704662
0.017974725 0.080487654 0.5912286
0.019045986 0.078705519 0.59423041
0.026031829 0.10850446 0.55338919
0.023102039 0.10739326 0.55547523
0.022606399 0.10491444 0.5596391
0.022112317 0.10246344 0.56390595
0.021613937 0.10000591 0.56829572
0.021106461 0.09745875 0.57250601
0.020581175 0.0948226 0.57686639
0.020065738 0.092241392 0.581177
0.019568274 0.089771152 0.58545876
0.019060338 0.087256297 0.58987361
0.018566327 0.084755078 0.59384668
0.019801551 0.082779005 0.59675878
0.026534507 0.11265473 0.55590272
0.023706878 0.11173263 0.55801535
0.023200875 0.10918979 0.56219548
0.022732591 0.10692607 0.56658351
0.022178978 0.10409869 0.57089442
0.021706907 0.10177103 0.57505333
0.021158323 0.099006191 0.57953888
0.020671096 0.096607283 0.58385146
0.020171018 0.094069183 0.58783758
0.019695761 0.091780007 0.59233874
0.019174101 0.0891238 0.59644711
0.020186696 0.087002799 0.59933019
0.026892943 0.11698511 0.55850571
0.024455797 0.11607155 0.56058657
0.023965087 0.11349092 0.56477374
0.02331024 0.11107107 0.56901348
0.022780821 0.10838634 0.57324684
0.022237111 0.10568111 0.57789564
0.021773631 0.10338405 0.58191067
0.021232627 0.10063483 0.58620322
0.020738253 0.098187566 0.59050274
0.020336928 0.095926493 0.59480947
0.019817244 0.093251422 0.59911966
0.021102853 0.091343567 0.60198092
0.027011313 0.11765882 0.56201637
0.026749924 0.11517119 0.56616944
0.026041538 0.11270326 0.57039219
0.025252076 0.11007479 0.57489765
0.02491333 0.10755453 0.57912201
0.02439007 0.10503384 0.5833894
0.023978006 0.10243239 0.5877642
0.023531822 0.099905565 0.59202397
0.023004362 0.097409442 0.59625179
0.022424266 0.09491998 0.60048056
0.021523319 0.093476623 0.60306126
