# .PCD v0.7 - Point Cloud Data file format
VERSION 0.7
FIELDS x y z
SIZE 4 4 4
TYPE F F F
COUNT 1 1 1
WIDTH 1294
HEIGHT 1
VIEWPOINT 0 0 0 1 0 0 0
POINTS 1294
DATA ascii
0.071632907 -0.013084003 0.54269058
0.070026375 -0.01430356 0.54440111
0.066289753 -0.015798947 0.54737157
0.062585518 -0.017271455 0.55036831
0.058843568 -0.018596908 0.55342984
0.055128857 -0.020027373 0.55644703
0.051430665 -0.02141819 0.55942631
0.047531992 -0.023051316 0.56247163
0.043810062 -0.024320949 0.56557119
0.040104084 -0.025852371 0.56845027
0.036535978 -0.027259234 0.57132703
0.033988435 -0.028051753 0.57321912
0.072023019 -0.0086550284 0.5453583
0.070337772 -0.0095461644 0.54717314
0.066619143 -0.011083236 0.55009031
0.062949017 -0.012586158 0.55297822
0.05918204 -0.013969501 0.55604142
0.055390447 -0.01551949 0.5590266
0.051690679 -0.017158365 0.5618608
0.047914039 -0.018453889 0.56498867
0.044159934 -0.019814003 0.56805289
0.040461048 -0.021434771 0.57089746
0.036766585 -0.022817336 0.57388562
0.034145392 -0.023846649 0.57547516
0.072175115 -0.0045678355 0.54755944
0.07060422 -0.0053262366 0.54952097
0.066963226 -0.0066488562 0.55249071
0.063207418 -0.0082030091 0.55543602
0.059365377 -0.0097976653 0.55844593
0.055687636 -0.011218202 0.56139302
0.052057281 -0.01263727 0.56429166
0.048206381 -0.014115695 0.56738311
0.044478234 -0.015643355 0.57031608
0.04079704 -0.01700283 0.57330477
0.036952019 -0.018671622 0.57627165
0.034451794 -0.019255225 0.57812196
0.07249748 -0.00022147223 0.55010152
0.070921145 -0.001075021 0.55183566
0.067245156 -0.00224909 0.55493426
0.063567922 -0.0037493873 0.55783123
0.059601188 -0.005602302 0.56081033
0.0559012 -0.0067556752 0.56394684
0.05227787 -0.0082850149 0.5667696
0.048424929 -0.0098282974 0.56982279
0.044737287 -0.011305451 0.57274497
0.041112199 -0.012527624 0.57576066
0.037202623 -0.014238407 0.57876867
0.03456983 -0.0150484 0.58053523
0.072698995 0.0044730203 0.55266339
0.071136683 0.0032972759 0.5543313
0.06729015 0.0019929362 0.55752653
0.063578844 0.00049361121 0.56045961
0.059965163 -0.0010174876 0.56328362
0.056235075 -0.0023815408 0.56632036
0.052577902 -0.0039408403 0.56915969
0.04874685 -0.0055224858 0.57216626
0.045159731 -0.006757522 0.5751344
0.041249763 -0.0083519854 0.57821518
0.03732511 -0.0098862806 0.58134866
0.034991104 -0.010522427 0.58312523
0.07295005 0.0082992101 0.55486023
0.071292698 0.0076909745 0.55690229
0.067620233 0.0062378505 0.55982363
0.063938633 0.0049096821 0.56283224
0.060119174 0.003513149 0.56594187
0.056536276 0.0020069862 0.56873691
0.052774042 0.00031246711 0.57160151
0.048941866 -0.00099036377 0.57478273
0.045170493 -0.0025454704 0.57774365
0.041454293 -0.0041421121 0.58062124
0.037962984 -0.0053390972 0.5835132
0.035358585 -0.0059558749 0.58555812
0.073237255 0.012827436 0.55744773
0.071669668 0.011989511 0.5591839
0.068015039 0.010761947 0.56222695
0.064279504 0.0092471959 0.56517565
0.060456946 0.0079059629 0.56832296
0.056635052 0.0060942462 0.57117683
0.053011827 0.0049758451 0.57425511
0.049078725 0.0033310829 0.57732868
0.045338243 0.0017232904 0.58022463
0.041618314 0.00030935276 0.58321977
0.038003005 -0.0012005996 0.58604622
0.035462655 -0.0017351238 0.58808202
0.073420048 0.017727241 0.56008708
0.071900956 0.016367543 0.56166673
0.06805598 0.015197743 0.56494403
0.064409114 0.013680539 0.56779879
0.060659289 0.012118899 0.57073319
0.057009116 0.010617224 0.57360113
0.053159684 0.0091769369 0.57671475
0.049391665 0.0076846788 0.57971126
0.045699023 0.0062162904 0.5826441
0.041847985 0.0045717442 0.58563232
0.038102698 0.0031196559 0.5886302
0.035511978 0.0023245914 0.59030324
0.073664494 0.022090489 0.56253976
0.07217522 0.020898689 0.56420004
0.068404317 0.019347675 0.56716299
0.06458509 0.017741799 0.57014215
0.060874391 0.016409952 0.57317877
0.057096548 0.014891487 0.57616919
0.053421453 0.013407101 0.57907379
0.049520999 0.011931759 0.58221883
0.045892242 0.01054996 0.58513898
0.042249806 0.0090391384 0.58799314
0.038493935 0.0075699994 0.59099138
0.035954349 0.0067833066 0.59282684
0.074036121 0.026311684 0.56508207
0.072441004 0.025149141 0.56656754
0.068652719 0.023760438 0.56964958
0.06498915 0.022285778 0.57254827
0.061167143 0.020819623 0.57561719
0.057490256 0.019154131 0.57841104
0.053728878 0.017708998 0.58142996
0.049924918 0.016323864 0.58453053
0.046265963 0.014929183 0.58747417
0.04252357 0.013432623 0.59044129
0.038626421 0.011904896 0.59355026
0.03607383 0.011296148 0.59535533
0.074087434 0.030597597 0.5672546
0.07263957 0.02946908 0.56904829
0.068919301 0.028226148 0.57215017
0.065267503 0.0267113 0.57501155
0.06150756 0.025195319 0.57798493
0.057543095 0.023490466 0.58105379
0.053985994 0.022028256 0.58384931
0.050221477 0.020918392 0.58708006
0.046481453 0.019267935 0.58994901
0.042765286 0.017937221 0.59299201
0.039022829 0.016311191 0.59587866
0.036373943 0.015805215 0.59784979
0.074268028 0.035019364 0.56965607
0.073068067 0.033901852 0.57135975
0.06918367 0.03255903 0.57457042
0.065597385 0.03110515 0.57740152
0.061779913 0.029647954 0.58047134
0.05787836 0.027885199 0.58343869
0.054146558 0.026601054 0.58652693
0.050416213 0.025261883 0.58957946
0.0467363 0.023563936 0.5923562
0.043020941 0.022165921 0.59535652
0.0392562 0.02063122 0.59832323
0.036589399 0.019672483 0.60000175
0.074685052 0.039439492 0.57235318
0.073229879 0.038139731 0.57382768
0.069400758 0.036760461 0.57695818
0.065581463 0.035171885 0.57994819
0.061845146 0.033829205 0.58300471
0.058112301 0.032266907 0.58592099
0.054491967 0.030744307 0.58874482
0.050735887 0.029478356 0.59186971
0.046819247 0.02803918 0.59505403
0.043215461 0.026367366 0.59776777
0.039361972 0.024986591 0.60092264
0.036972158 0.024140477 0.60251957
0.074888431 0.043504123 0.57460749
0.073219456 0.042567123 0.57659298
0.06948185 0.041024242 0.57952636
0.065989248 0.039796975 0.5824008
0.062288441 0.038280196 0.58531207
0.058469959 0.036768381 0.58834898
0.054627694 0.03528225 0.59142667
0.050867833 0.033656858 0.59433186
0.047140952 0.032386824 0.59742373
0.043379664 0.030734718 0.60031378
0.039759189 0.029535357 0.60333884
0.037183482 0.028384121 0.60490364
0.075109452 0.04788686 0.57704043
0.073824733 0.046939209 0.57868254
0.069962703 0.045487061 0.58180195
0.066221431 0.044101309 0.58483684
0.062390454 0.042606402 0.5878973
0.058807015 0.041089211 0.59068602
0.05498296 0.039589386 0.59373623
0.051273417 0.038221344 0.59674907
0.047520794 0.036607556 0.59965396
0.043816566 0.035310879 0.60270572
0.039954294 0.033794284 0.60578525
0.037414074 0.033072993 0.60759032
0.075497985 0.052332055 0.57971418
0.073741511 0.051132716 0.58137816
0.070127703 0.04992535 0.5843913
0.066318825 0.048379056 0.58739674
0.062656574 0.047136001 0.59043813
0.059019193 0.045295153 0.59308171
0.055304736 0.04378229 0.59600961
0.051583037 0.042588029 0.59914327
0.047625121 0.041043304 0.60230494
0.044048123 0.039585322 0.60512382
0.040285315 0.038362633 0.60828257
0.037718996 0.037126873 0.60991114
0.075770564 0.056496549 0.58210438
0.073972732 0.055576503 0.58390194
0.070408657 0.054045863 0.58666217
0.066669688 0.05283286 0.58980215
0.062896743 0.051242337 0.59274268
0.058970347 0.049585201 0.59580159
0.055279404 0.048158593 0.59875864
0.051571801 0.046843011 0.60180211
0.047911756 0.045371782 0.60469925
0.043959916 0.043933272 0.60792071
0.040594105 0.042534944 0.61055666
0.037917443 0.041470151 0.61230803
0.075851947 0.060498834 0.58417511
0.074240416 0.059937686 0.58633637
0.070542142 0.058512449 0.58930194
0.066677943 0.057001479 0.59238696
0.063056432 0.055722319 0.5953635
0.059378035 0.054268904 0.5982908
0.055452377 0.052577015 0.6013273
0.051881857 0.051279485 0.60423923
0.048301041 0.049825586 0.60706466
0.044519812 0.048049808 0.60989851
0.04065907 0.046768922 0.61312312
0.038179494 0.045859553 0.61474615
0.076169536 0.065437458 0.58700258
0.074593537 0.06435407 0.58871615
0.070875265 0.063011654 0.59175408
0.06713935 0.061254822 0.59455252
0.063398488 0.060019985 0.59768093
0.059603818 0.058370061 0.6006071
0.05591793 0.057074375 0.60364038
0.052235764 0.055583522 0.60654831
0.048433479 0.054010801 0.60953045
0.044634797 0.052493617 0.6125434
0.040994756 0.051103979 0.61547047
0.038262721 0.04993818 0.61714721
0.076321788 0.069686547 0.58928353
0.074879475 0.068592601 0.59105521
0.0712386 0.067315303 0.59405303
0.067492299 0.065703392 0.5969525
0.063572176 0.064185105 0.60009128
0.059999499 0.062913172 0.60302138
0.056150775 0.061554447 0.60618502
0.052349996 0.059856459 0.60908765
0.048759982 0.058375418 0.61190575
0.044934653 0.056986839 0.61502647
0.041326478 0.055605821 0.61792564
0.038680498 0.054484013 0.61962211
0.07657212 0.074071012 0.59175408
0.075119615 0.073163629 0.59364891
0.071294494 0.07151556 0.59660798
0.067495391 0.070209578 0.59975272
0.063933983 0.068506144 0.60240263
0.059952229 0.06714239 0.60570174
0.056341168 0.065816395 0.60863823
0.052552387 0.06406372 0.6114943
0.048925716 0.062783286 0.61447537
0.045125585 0.061313987 0.61751962
0.041528516 0.059919506 0.62039894
0.038811415 0.058862634 0.62204587
0.076820359 0.078435324 0.59421206
0.075235099 0.077302247 0.59610337
0.071734644 0.076041117 0.59896499
0.067857474 0.074406408 0.60198659
0.064086445 0.072904341 0.60498011
0.060345814 0.071621887 0.60807866
0.056671128 0.070075408 0.61094421
0.052973513 0.068652272 0.61391038
0.049084727 0.067165226 0.61703593
0.045479514 0.065901585 0.62000507
0.041701395 0.064173788 0.62286556
0.039117038 0.063328072 0.62465024
0.077144608 0.083042569 0.59688491
0.0756111 0.081796184 0.59850758
0.07192342 0.080396794 0.60147816
0.068318486 0.078995362 0.6043613
0.064381823 0.077447519 0.60749888
0.060704365 0.076150313 0.61052245
0.057007007 0.074592032 0.61340427
0.053213496 0.072944574 0.6163308
0.049513597 0.071668006 0.61939055
0.045712803 0.070070088 0.62235546
0.041892879 0.068420663 0.62530828
0.039411489 0.067683905 0.62707424
0.077302024 0.086738862 0.59890044
0.07585568 0.086194001 0.60098886
0.072136372 0.084594294 0.60386777
0.068485133 0.083416216 0.60693812
0.064573191 0.081609868 0.60988915
0.06082923 0.080365859 0.61301506
0.057106584 0.078704938 0.61585933
0.053482033 0.077377148 0.61880875
0.049699221 0.075873964 0.62181383
0.046025019 0.074402139 0.62472534
0.042119466 0.072836936 0.62781978
0.039558105 0.071801983 0.62950224
0.077702835 0.092022538 0.60200197
0.075908758 0.090259142 0.60346264
0.072271973 0.088874742 0.60638952
0.068690404 0.087644562 0.60935491
0.064812303 0.08598318 0.61236084
0.061107498 0.084549017 0.61532766
0.057476673 0.083235107 0.61829221
0.053703904 0.081604853 0.62120783
0.050033826 0.080390133 0.62427497
0.046102479 0.078840196 0.62740576
0.042632125 0.077403136 0.63012654
0.039902158 0.076623224 0.63203186
0.07790184 0.095915653 0.60416645
0.076216996 0.094677329 0.60589027
0.072675496 0.093410604 0.60879111
0.068813883 0.091729946 0.61176795
0.064982563 0.09027981 0.6148566
0.061211504 0.088896342 0.61792397
0.057574287 0.087566875 0.62088549
0.053854734 0.085945502 0.62375116
0.050168831 0.08466778 0.62679565
0.046409238 0.083027273 0.62969112
0.042551644 0.081562564 0.63279808
0.040075965 0.080463737 0.63433397
0.078263998 0.10011575 0.60668653
0.0764893 0.099128589 0.60837591
0.072855555 0.097771257 0.6113165
0.069047466 0.096192084 0.61430067
0.065331593 0.094865739 0.61734611
0.061554454 0.093186453 0.62023574
0.057850555 0.091954798 0.62332761
0.05401735 0.090300933 0.62629145
0.050394207 0.088821389 0.62914497
0.046719354 0.087570041 0.63219434
0.042910006 0.085829191 0.63507926
0.040294424 0.085489452 0.63710397
0.078373387 0.10457587 0.60901755
0.076935321 0.10370712 0.61075979
0.073017612 0.10194702 0.61374557
0.069360599 0.10066276 0.61675584
0.065598786 0.099243976 0.61979163
0.061901979 0.097608276 0.62262475
0.058127884 0.096138246 0.62564141
0.054416951 0.094737135 0.62863517
0.050556064 0.093352973 0.63179564
0.046867259 0.091905139 0.63473731
0.043279231 0.09051232 0.63760817
0.040616311 0.089230277 0.63926351
0.078616962 0.10859113 0.61129802
0.077007957 0.10793779 0.61331618
0.07313408 0.10639515 0.6163916
0.069566593 0.10498814 0.6192323
0.065923557 0.10349052 0.62209529
0.062145248 0.10206725 0.62514544
0.058471221 0.10040473 0.62793809
0.054658465 0.099001035 0.63103628
0.050925829 0.097672567 0.63409787
0.047120437 0.096192099 0.63714063
0.043501846 0.09466242 0.6399582
0.040891472 0.093574792 0.64163125
0.078996904 0.11263587 0.61376393
0.077086948 0.11212354 0.61583799
0.073647782 0.11065558 0.61850709
0.069968864 0.10922334 0.6214481
0.066270836 0.1078176 0.62442553
0.06242669 0.10634059 0.62751085
0.058631614 0.10480879 0.63051093
0.054965444 0.10345543 0.63348776
0.051281434 0.10199799 0.63641846
0.047446966 0.10052171 0.63949412
0.043607078 0.098980993 0.64253533
0.041018728 0.098489843 0.64441109
0.079086512 0.11704794 0.61604655
0.077552043 0.11676499 0.6182245
0.073839188 0.11491136 0.62095535
0.070014752 0.11367086 0.62416726
0.066262282 0.1120738 0.62708241
0.062467642 0.11055671 0.63009119
0.058851946 0.10929736 0.63307393
0.055183809 0.10762971 0.63585728
0.051391743 0.10619033 0.63891178
0.047651958 0.10471386 0.64188868
0.043973118 0.10342674 0.64487809
0.041423067 0.10231912 0.64660466
0.077798948 0.11908331 0.61872709
0.073371127 0.11744552 0.62208211
0.069920227 0.11603073 0.62494266
0.066133603 0.11452294 0.62800229
0.062249016 0.11313365 0.63086128
0.058859371 0.11169825 0.63375229
0.055015601 0.11014631 0.63689607
0.051379636 0.10880376 0.63964701
0.04725619 0.10724548 0.64283025
0.044148628 0.10589974 0.64553356
0.041864984 0.10474214 0.6478197
0.069622695 -0.011826639 0.54078865
0.067798555 -0.014795694 0.54120004
0.063928157 -0.01615813 0.54400992
0.060288154 -0.017683491 0.54708594
0.056474373 -0.019129954 0.55003935
0.052944712 -0.020738091 0.55325127
0.049079236 -0.022174383 0.5561918
0.045038022 -0.023560248 0.55906045
0.041693091 -0.024985991 0.56192982
0.037726264 -0.026406869 0.56485319
0.034006611 -0.027963761 0.56799328
0.031613179 -0.02689233 0.57124341
0.06997814 -0.0076306118 0.54329824
0.031800576 -0.022222517 0.57380569
0.07021302 -0.0031374982 0.54580289
0.032111414 -0.018167797 0.57618988
0.070459083 0.0011994634 0.54824471
0.03224672 -0.013772096 0.57852173
0.070779376 0.0055646598 0.55079347
0.032629371 -0.0095286481 0.58108878
0.070805177 0.0098595591 0.55293846
0.032797568 -0.0049026525 0.58357519
0.071124583 0.014527677 0.55563509
0.03315676 -0.00066595338 0.58610952
0.071413979 0.018513437 0.55795854
0.033247381 0.0034928992 0.58826882
0.071834348 0.022848926 0.56061816
0.033459384 0.0080546802 0.59077847
0.072020523 0.027350046 0.56306565
0.033659317 0.012267994 0.59310162
0.07202819 0.031864889 0.56529605
0.033935562 0.016691882 0.59562403
0.072351985 0.035944819 0.56770891
0.034230657 0.021276461 0.59824914
0.072608367 0.040426578 0.57023489
0.034510363 0.025344979 0.60060108
0.072821938 0.044756286 0.57263243
0.034847192 0.029580154 0.60310668
0.073160008 0.049097657 0.5751918
0.035145834 0.033912092 0.60561192
0.073488533 0.053440407 0.57773983
0.035360448 0.038193792 0.60798717
0.073639378 0.057846799 0.58009642
0.035579078 0.042718649 0.61048698
0.073892877 0.062235199 0.58257288
0.03579028 0.047080617 0.6128974
0.074020267 0.066573359 0.58486652
0.036096882 0.051524669 0.61546779
0.074360982 0.070803516 0.58737445
0.036308181 0.05594001 0.6179046
0.07468687 0.075209796 0.58995044
0.036410265 0.060291275 0.62017298
0.074736357 0.079631545 0.59218752
0.036806867 0.064509638 0.62274516
0.07513278 0.083943725 0.59480572
0.037148215 0.068878636 0.62532222
0.075269878 0.088242218 0.59709197
0.037237063 0.073318578 0.6276176
0.075556979 0.092403956 0.59949905
0.037508883 0.077665277 0.6300965
0.075825348 0.097007081 0.60209978
0.03788263 0.081995279 0.63269496
0.076208264 0.10127876 0.60468107
0.037910029 0.086466275 0.63492858
0.076525763 0.10559727 0.60720336
0.038263984 0.090646043 0.63742834
0.076608256 0.1098856 0.60941619
0.03850938 0.094988421 0.63987201
0.076948501 0.11410084 0.61191624
0.03864754 0.099499129 0.64226401
0.077039912 0.11872875 0.61430728
0.073827595 0.11842514 0.62029624
0.058173276 0.11425217 0.62928545
0.054548029 0.11259744 0.6325897
0.0494872 0.10922804 0.6390841
0.047437396 0.10788571 0.64167482
0.041151267 0.10754925 0.64290589
0.039148532 0.10386422 0.64503932
0.075505771 0.1200698 0.6172061
0.071399286 0.11876212 0.61994249
0.067581102 0.11718059 0.62313616
0.064102814 0.11567964 0.62615252
0.060602244 0.11438741 0.62880045
0.056883007 0.11287396 0.6318633
0.05290018 0.11148855 0.63472533
0.049209811 0.1098635 0.63798344
0.045327511 0.10852706 0.64074838
0.041636676 0.10680575 0.64417756
0.039407074 0.10604692 0.64574999
0.066445455 -0.0099115185 0.53774697
0.06451723 -0.012948328 0.53824961
0.060642723 -0.014234679 0.54092479
0.056906894 -0.015709793 0.54392117
0.053280666 -0.017245334 0.54701388
0.049317945 -0.01866173 0.5499289
0.045505155 -0.020201307 0.5530476
0.041987564 -0.021604206 0.55589378
0.038080011 -0.023089126 0.55892491
0.034308575 -0.024388203 0.56161231
0.030709522 -0.025981952 0.56480563
0.028339488 -0.024938503 0.56807709
0.066570215 -0.0054923305 0.54007715
0.028679129 -0.020604502 0.57068777
0.067042738 -0.0013030013 0.54273027
0.028780686 -0.016217422 0.57297313
0.067059837 0.0034004562 0.54506528
0.029096743 -0.011819221 0.57553279
0.067357987 0.0076781129 0.54754329
0.029399976 -0.0074701766 0.57805222
0.06745965 0.011988023 0.54979074
0.029463068 -0.0032390384 0.58021259
0.0677903 0.016269963 0.55231154
0.029854767 0.0010980265 0.58283705
0.068065517 0.020704437 0.55483788
0.029987421 0.0055279918 0.58518243
0.068452992 0.024888363 0.55738175
0.03010832 0.0098808184 0.58747512
0.068672545 0.029041618 0.55969995
0.030464277 0.01422077 0.59005618
0.068647817 0.033550497 0.56188685
0.030609347 0.018540239 0.59236276
0.06905356 0.037994526 0.56458151
0.03096489 0.022954997 0.59498012
0.069306687 0.042403944 0.56706786
0.03117983 0.027425095 0.59744841
0.06959898 0.046517741 0.56945789
0.031497635 0.03158823 0.5998947
0.069814831 0.051101733 0.57198334
0.031634647 0.036063567 0.60226786
0.070107915 0.055362977 0.57444686
0.031944983 0.040432293 0.60480589
0.070448749 0.059727542 0.57702106
0.032208085 0.044766642 0.6072678
0.070612967 0.06397789 0.57931769
0.032559618 0.049009245 0.60979545
0.070685297 0.068402886 0.58158499
0.032635182 0.053568598 0.61213285
0.07106109 0.072807819 0.58422291
0.03300903 0.057821847 0.6146937
0.071369819 0.076890394 0.58661819
0.033351567 0.062296078 0.61732405
0.071446657 0.08154133 0.58900225
0.033444498 0.066587314 0.61955136
0.071845815 0.085800096 0.59159756
0.033682309 0.070927009 0.62198418
0.071932174 0.090231977 0.59388584
0.033815153 0.075282127 0.62429297
0.072251797 0.094570898 0.59642082
0.034227092 0.079682648 0.62697405
0.072479934 0.098828584 0.5988012
0.034525581 0.084001385 0.62947261
0.072714873 0.10328871 0.60128963
0.034798563 0.088190034 0.63187528
0.07306736 0.10767128 0.60388732
0.034907952 0.092733167 0.63424712
0.073334418 0.11213236 0.60641658
0.035139777 0.097027779 0.63665026
0.073428616 0.11642388 0.60864562
0.035429627 0.10151785 0.63922232
0.073852696 0.12075666 0.61130857
0.054418832 0.11533698 0.62773705
0.048476201 0.11314967 0.6322208
0.045635037 0.1121643 0.63425726
0.043528125 0.10968178 0.63887882
0.039871015 0.10820791 0.64186507
0.035736185 0.10575435 0.64169055
0.071764432 0.12202238 0.61411512
0.067974225 0.12057682 0.61706454
0.064494811 0.11910442 0.62003028
0.060819119 0.11782809 0.62266755
0.057031635 0.11627995 0.625799
0.05325897 0.11466079 0.6290549
0.049813047 0.11331343 0.63179523
0.046016276 0.11178261 0.63489676
0.042036116 0.11043693 0.63768792
0.03820724 0.10909199 0.64046252
0.036433816 0.10792591 0.64271235
0.062986597 -0.0079122661 0.53439361
0.060973398 -0.010906775 0.53498077
0.057445124 -0.012231426 0.53768903
0.053602062 -0.013770811 0.54081041
0.049900815 -0.015197095 0.54371667
0.046165701 -0.016596444 0.54657847
0.042261541 -0.018001014 0.54946655
0.03862397 -0.019487534 0.55247331
0.034910165 -0.021012157 0.55555546
0.031301096 -0.022505708 0.55857188
0.027439153 -0.024018485 0.56164795
0.025085088 -0.022982534 0.56496173
0.063259773 -0.0035648947 0.53687453
0.025437534 -0.018618992 0.56760007
0.0636888 0.00073835999 0.5395292
0.025548946 -0.014099983 0.56996262
0.063723594 0.0051615443 0.54174852
0.025851144 -0.0099107763 0.57240212
0.063964158 0.009509502 0.54418886
0.026139513 -0.0056254258 0.5748716
0.064200431 0.013997834 0.54669285
0.026362257 -0.0012487369 0.57730371
0.064540699 0.018331289 0.54925108
0.026582304 0.0032145334 0.57977509
0.064624593 0.022659123 0.55148506
0.026877271 0.0074868696 0.58224642
0.065039344 0.02697159 0.55412638
0.027184259 0.011820809 0.58476317
0.065299988 0.031151261 0.55650908
0.027436594 0.016095346 0.5871821
0.065379485 0.035721414 0.55885679
0.027558487 0.0204382 0.58947116
0.065779462 0.040016226 0.56147087
0.027807634 0.024936087 0.59199601
0.065998517 0.044286415 0.56384599
0.027964301 0.029243693 0.5943113
0.066221885 0.048736162 0.56631482
0.028225232 0.033688966 0.596825
0.066526279 0.052895613 0.56874245
0.028308973 0.037986927 0.59904414
0.066870183 0.057459615 0.57141864
0.028682882 0.042233307 0.60160172
0.066946179 0.061999165 0.57374686
0.028933097 0.046662778 0.60409421
0.06716001 0.066131614 0.57604766
0.0291915 0.051118065 0.6066097
0.0675136 0.070574328 0.57867634
0.029418793 0.055415597 0.60900861
0.067825399 0.074681014 0.58108735
0.029677223 0.05981743 0.61149788
0.067891702 0.079295531 0.5834403
0.029923065 0.064010367 0.61386853
0.068266347 0.083416641 0.58593714
0.030199286 0.068376049 0.61636233
0.068438828 0.087734707 0.58827746
0.030264976 0.072878994 0.61865962
0.068756312 0.092192233 0.59086812
0.030660268 0.07725355 0.62130708
0.068930387 0.096621491 0.59326506
0.030991606 0.081366859 0.6237458
0.069214344 0.10103462 0.59579188
0.031116977 0.085875303 0.62612063
0.069456369 0.10530644 0.59819657
0.031307608 0.090229504 0.62850142
0.069827586 0.10961317 0.60078049
0.03162802 0.094592728 0.63104939
0.070015416 0.11399902 0.60317332
0.031835519 0.098937519 0.63344669
0.070160665 0.11848109 0.60556012
0.032084454 0.10333812 0.63592345
0.070345223 0.12288035 0.60795546
0.052502953 0.11721793 0.62458938
0.050508942 0.11672007 0.62567461
0.037880253 0.11241217 0.63459849
0.032950759 0.11103171 0.63754714
0.03239958 0.10758338 0.63839865
0.068663456 0.12406605 0.61079788
0.065247647 0.12267519 0.61361241
0.061289228 0.12114715 0.61672539
0.057474978 0.11976852 0.61955822
0.053746186 0.11837076 0.62241656
0.05018504 0.1165976 0.62592471
0.04623583 0.11526896 0.62868255
0.042596087 0.11383449 0.63159716
0.03899543 0.11243468 0.63444614
0.035248365 0.11090745 0.63753629
0.033010647 0.11001218 0.6393519
0.05958036 -0.0057373634 0.5311926
0.057836294 -0.0088406689 0.5316273
0.054012656 -0.010347115 0.53468823
0.050209209 -0.011797048 0.53764677
0.04637105 -0.013239559 0.54059559
0.042812876 -0.0146671 0.54348963
0.038902566 -0.01611897 0.54646236
0.035242423 -0.017586568 0.54943782
0.031501181 -0.01906147 0.55243444
0.027650002 -0.020500055 0.5553776
0.024076989 -0.022061545 0.55851102
0.02169485 -0.021262735 0.56141353
0.059966896 -0.0014755381 0.5337736
0.021943904 -0.016664166 0.56418121
0.060299337 0.0026257541 0.5362078
0.022102814 -0.012182789 0.56658477
0.060467791 0.007114131 0.53862679
0.022518435 -0.007925462 0.56920004
0.0606829 0.011456426 0.54103243
0.022702394 -0.0034713042 0.57162166
0.060925983 0.015791979 0.54346985
0.023024121 0.00078367861 0.57411802
0.061128665 0.020278249 0.54593068
0.023285976 0.005320881 0.5766781
0.06138761 0.02457929 0.54837102
0.023576209 0.0095348787 0.57911485
0.06167477 0.028992292 0.55090177
0.023619218 0.013872124 0.58130223
0.061854511 0.03329546 0.55324382
0.023988448 0.018139917 0.58386445
0.062095836 0.037515189 0.55562204
0.024281088 0.022661902 0.5864557
0.062605463 0.04171199 0.55832535
0.024437279 0.027055498 0.58881265
0.062812209 0.046291184 0.56083703
0.024639402 0.031315751 0.59116167
0.062880389 0.050643578 0.56306344
0.02485067 0.035669636 0.59356821
0.06317737 0.055070549 0.56561339
0.025195248 0.040002123 0.59613132
0.063493408 0.059375353 0.5681271
0.025422659 0.044281445 0.59852141
0.06389194 0.063680582 0.57074451
0.025678869 0.048624404 0.60097891
0.063942954 0.068203971 0.57303345
0.025898404 0.052917548 0.6033659
0.064214841 0.072530515 0.57550251
0.026077352 0.05745947 0.60582441
0.064665332 0.076870009 0.57820189
0.026392162 0.061694063 0.60830206
0.064689502 0.081233807 0.58037871
0.026577279 0.06620656 0.61075383
0.0648982 0.085477218 0.58272767
0.026890844 0.070533574 0.61327541
0.065184638 0.089893766 0.58525932
0.027120426 0.074643403 0.61558485
0.065446489 0.094307348 0.5877586
0.027203277 0.079218373 0.61793911
0.065648586 0.09856306 0.5901053
0.027483106 0.08353512 0.6204133
0.066023171 0.10276252 0.59264064
0.027845331 0.087966159 0.62304705
0.066188067 0.10725195 0.5950557
0.027871355 0.092232451 0.62517822
0.066370435 0.11165176 0.59744859
0.028302584 0.096434154 0.62778568
0.066710606 0.11592083 0.59997499
0.028680716 0.10073747 0.63037652
0.066878736 0.1203148 0.60234714
0.028741781 0.10504063 0.63256979
0.06714344 0.12465727 0.60481507
0.055500902 0.1231149 0.61381364
0.053255126 0.12088697 0.61799699
0.050216928 0.1205296 0.61893791
0.039136536 0.11624005 0.62767327
0.036132399 0.11398945 0.63197327
0.031429693 0.1125125 0.63507038
0.02907626 0.10971633 0.63523275
0.065190196 0.12601542 0.60768563
0.0616455 0.12461608 0.61052823
0.058117896 0.12312289 0.61353576
0.054229707 0.12178794 0.61629862
0.050639283 0.12024892 0.61939389
0.0468667 0.11865453 0.62260592
0.042981975 0.11729963 0.62540382
0.039177313 0.11584732 0.62836671
0.035449266 0.11431172 0.63146973
0.031884428 0.1129805 0.63419342
0.029587589 0.11201548 0.63613886
0.056387223 -0.0038597507 0.52811259
0.054494131 -0.006850047 0.52842855
0.050626799 -0.0083902935 0.53155392
0.046944916 -0.0097730234 0.53438085
0.043181684 -0.011190413 0.53727752
0.03961236 -0.012657776 0.54024339
0.035850234 -0.014280687 0.54350501
0.031876415 -0.015624763 0.54629266
0.028258031 -0.01704292 0.5491761
0.024188194 -0.018476937 0.5521332
0.020604847 -0.019877946 0.55498266
0.018453747 -0.019612316 0.55808806
0.056714758 0.00033982284 0.53058898
0.018564202 -0.014677322 0.56092095
0.0570333 0.0046164645 0.53309202
0.018765343 -0.01011887 0.56341541
0.05716335 0.00911556 0.5354681
0.019140098 -0.0059642885 0.56592888
0.057419416 0.013451688 0.53792208
0.019300975 -0.0013906243 0.56838036
0.057554677 0.017972579 0.54031545
0.019523118 0.0029543745 0.57079613
0.057830423 0.022188414 0.54273486
0.019873288 0.0072032912 0.57332516
0.058209334 0.026308255 0.54523647
0.020238122 0.01141791 0.57585573
0.058377795 0.030970734 0.54774112
0.020215165 0.015841823 0.57800299
0.058595743 0.035336234 0.55016172
0.020755155 0.020108156 0.58077866
0.058795013 0.039647553 0.55253226
0.020974647 0.024511371 0.58321971
0.059281502 0.043828323 0.55519873
0.021132775 0.028822795 0.58553874
0.059473265 0.048261598 0.55761981
0.021376889 0.033301577 0.58804786
0.059703648 0.052584007 0.56003487
0.021589965 0.03762171 0.59044003
0.06004592 0.05677034 0.56252319
0.021784555 0.041951481 0.59281379
0.060186747 0.061321624 0.56493849
0.022083469 0.04633097 0.59534281
0.06051632 0.065527067 0.56742036
0.022183254 0.050825227 0.5976786
0.060724244 0.07008674 0.56992388
0.022556528 0.05513576 0.60026693
0.061071604 0.074350357 0.57245666
0.022841379 0.059422176 0.60273254
0.061174296 0.078835689 0.57479167
0.023067132 0.063844308 0.60519075
0.061389234 0.083078325 0.57714808
0.023287237 0.068244129 0.60763097
0.061592914 0.087436274 0.57954711
0.023561966 0.072582848 0.61010957
0.061934248 0.091489464 0.58196878
0.023832187 0.076823808 0.61253452
0.062103417 0.096224181 0.58450985
0.023968145 0.081258982 0.61488658
0.062351111 0.10055708 0.58695173
0.024341984 0.085653007 0.61751664
0.062567115 0.10496813 0.5893923
0.024496878 0.089847222 0.61977398
0.062820651 0.10929558 0.59183884
0.024683736 0.094373994 0.62223494
0.063177563 0.11362647 0.59441662
0.024933174 0.098649278 0.62465066
0.063383944 0.11793321 0.59679383
0.0254112 0.10291077 0.62734616
0.063604929 0.12222907 0.59918398
0.025568251 0.10714212 0.62962449
0.063862562 0.12654492 0.60162997
0.058527909 0.12808841 0.60467517
0.055206846 0.12489519 0.6106813
0.052360579 0.12258803 0.61506587
0.03120047 0.11696833 0.6271795
0.029049741 0.11554975 0.62991577
0.025751557 0.11163848 0.63206601
0.062045097 0.12807333 0.60434747
0.058167662 0.12658179 0.60738742
0.054388665 0.12520766 0.61020881
0.050668802 0.12374167 0.61318743
0.047274571 0.12219628 0.61627424
0.043533668 0.12074123 0.61923558
0.039672006 0.11929504 0.62219334
0.035914779 0.11779275 0.62524021
0.032177754 0.11618658 0.62846959
0.028317913 0.11481778 0.63128972
0.026473761 0.11390452 0.63309753
0.05323983 -0.0021934509 0.52498597
0.051057141 -0.0048913346 0.52529609
0.047263909 -0.0063232146 0.52822149
0.043732222 -0.0079214647 0.53141606
0.039845861 -0.0093201147 0.53429186
0.036054842 -0.010755593 0.53722346
0.032540701 -0.012247596 0.54022753
0.028650798 -0.013677814 0.54315978
0.024972143 -0.015225529 0.54627937
0.021327298 -0.016510122 0.54892826
0.017501192 -0.017996415 0.55195367
0.015195079 -0.017610483 0.55498505
0.053297117 0.0023982029 0.52731633
0.015250932 -0.012485973 0.55784464
0.053671848 0.0065775509 0.52984196
0.015623637 -0.0081952624 0.56042248
0.053840421 0.011127355 0.53229135
0.015787072 -0.0038681519 0.56275588
0.05418995 0.015408585 0.53483546
0.01594393 0.00041066483 0.56505722
0.05439778 0.019751482 0.53723228
0.016358569 0.0047180308 0.56769586
0.054584008 0.024205109 0.53965646
0.016558379 0.009292677 0.57019663
0.054946642 0.028578045 0.54226214
0.01697555 0.013560011 0.57281876
0.055225071 0.032782957 0.54467958
0.016901217 0.017821869 0.57482189
0.055364273 0.037067227 0.54696149
0.017209601 0.022039605 0.5772832
0.055684995 0.041382629 0.54948634
0.017490558 0.026485641 0.57982242
0.055910133 0.045958973 0.55201966
0.017888784 0.030969091 0.5825271
0.056096353 0.050160393 0.5543198
0.017868863 0.035396095 0.58467972
0.05643576 0.054523464 0.5568915
0.018286744 0.039574262 0.58725882
0.056655847 0.058945034 0.55934238
0.018512592 0.044027269 0.58973241
0.056987561 0.063289702 0.56189537
0.018688621 0.048314456 0.59206194
0.057292476 0.067546479 0.56437153
0.018996492 0.052576799 0.59454453
0.057276357 0.072205596 0.56664312
0.019173242 0.057106707 0.5969944
0.05765526 0.076245107 0.56910515
0.01947939 0.061310977 0.5994463
0.057756189 0.080702417 0.57142425
0.019744648 0.065725394 0.60195029
0.057927907 0.085261703 0.57388216
0.019941201 0.070237279 0.60441607
0.058322273 0.08930669 0.57636636
0.020319493 0.074216105 0.60684752
0.058559313 0.093880102 0.57891315
0.020413179 0.078765914 0.60920298
0.058805481 0.098332964 0.58141214
0.020715231 0.083024085 0.61167622
0.058994718 0.10265847 0.58377707
0.021099038 0.087332018 0.61427647
0.059327278 0.10688888 0.58627492
0.021285681 0.091799662 0.6167081
0.059547585 0.11122157 0.58868235
0.021415014 0.096266292 0.61906731
0.059736647 0.11556674 0.59105676
0.021689456 0.10066264 0.62157393
0.060123574 0.11983255 0.59364021
0.022004372 0.10483313 0.62402022
0.060344324 0.12433162 0.59613001
0.022262797 0.10925767 0.62652063
0.060456455 0.12876898 0.59845328
0.058718704 0.13050443 0.60036486
0.055706114 0.12864509 0.60397083
0.027984519 0.11922444 0.62349653
0.026889062 0.11613367 0.62909639
0.022386409 0.11360071 0.6288119
0.058840763 0.12993038 0.60137212
0.0549905 0.12849772 0.60430467
0.051507168 0.12714168 0.60706413
0.047680814 0.12569278 0.6100232
0.04381391 0.12423079 0.61300957
0.040125027 0.12277227 0.61597186
0.036315564 0.12126689 0.61902946
0.032812528 0.11978225 0.62201941
0.028860155 0.11830423 0.6250428
0.024943896 0.11692233 0.62789196
0.022886377 0.11604775 0.62965244
0.049844958 -2.034707e-06 0.52180731
0.046604961 -0.00058547541 0.52182281
0.042915452 -0.0020056278 0.5247426
0.039221425 -0.0036503791 0.52776092
0.035640992 -0.0050581545 0.53075242
0.03177898 -0.0067340103 0.53382832
0.028078472 -0.0082578212 0.5368095
0.024482612 -0.0097435126 0.53966957
0.020993352 -0.01154039 0.54269969
0.017139323 -0.013075631 0.54572344
0.013465971 -0.014519837 0.54876268
0.011469137 -0.015236204 0.55120701
0.049976755 0.0045165601 0.52419519
0.046450466 0.0045702001 0.52423531
0.042837847 0.0031048604 0.52708668
0.039089069 0.0016007919 0.53005582
0.035337798 0.00021308148 0.53309989
0.031605139 -0.0013553207 0.53601223
0.02789714 -0.0026765256 0.53905261
0.024021989 -0.0042405454 0.54211611
0.020399217 -0.0055201594 0.5450936
0.016652439 -0.0070849271 0.54802287
0.012789883 -0.0085987449 0.55110449
0.011566233 -0.010260152 0.55402189
0.050338555 0.0086687896 0.52669126
0.046665166 0.0088656126 0.52668399
0.043025419 0.0075361291 0.52964813
0.039422296 0.0060707275 0.5324896
0.035574082 0.0045005218 0.53552115
0.031941578 0.0029843878 0.53836167
0.028087694 0.0016521364 0.54154718
0.024352226 0.00011010468 0.54447877
0.020603161 -0.0010796087 0.54764378
0.016878605 -0.0028007356 0.55045265
0.013067201 -0.004252594 0.55351949
0.011761416 -0.0058062058 0.55648685
0.050606772 0.012909341 0.52911347
0.046973515 0.013415585 0.52919346
0.043527391 0.011861709 0.53181636
0.039659191 0.010473846 0.5349822
0.035837512 0.0089427847 0.53801048
0.032002993 0.0073822914 0.5410338
0.028349886 0.0060118595 0.54398638
0.024502825 0.0042528333 0.54689926
0.020895328 0.0030552913 0.54991192
0.01711724 0.0015407857 0.55290508
0.013409764 0.0001125196 0.55587834
0.011929281 -0.0013816099 0.55877674
0.050850481 0.017509049 0.5316816
0.047452703 0.017783603 0.53141183
0.043712098 0.016121153 0.53427392
0.039848007 0.014783705 0.53746682
0.036084451 0.013293458 0.54045993
0.032333698 0.011821968 0.54345137
0.028562203 0.010317719 0.54644406
0.024842482 0.008626624 0.54926658
0.021060353 0.0071792426 0.5523057
0.017322991 0.0059655719 0.55544358
0.013694901 0.0045766402 0.55835861
0.012124453 0.0028801034 0.56110364
0.05108463 0.021767898 0.53407001
0.047675814 0.021978339 0.53378916
0.043923482 0.020497454 0.53677636
0.040203393 0.019111281 0.53978896
0.036509972 0.017758556 0.54279459
0.032617591 0.016228018 0.54589683
0.028822061 0.014558591 0.54881179
0.024952319 0.013178955 0.55198431
0.021248519 0.011680868 0.5549103
0.017573338 0.010489759 0.55799747
0.013888966 0.0087941885 0.56078035
0.012330901 0.007352666 0.56361699
0.051439308 0.026116537 0.53665376
0.047886737 0.026443876 0.53634763
0.044070188 0.024736308 0.53926075
0.040390827 0.023416989 0.54227245
0.036627606 0.022031499 0.54533041
0.032683894 0.020505453 0.54848891
0.029048018 0.018957354 0.55131304
0.025251605 0.017480191 0.55434853
0.021587014 0.016116377 0.5573172
0.017781086 0.014755934 0.56043524
0.014283076 0.013275072 0.56315756
0.012687851 0.011754328 0.56617421
0.051562168 0.03040034 0.53891498
0.048129831 0.030816771 0.5388149
0.04428884 0.029081335 0.54173613
0.040594801 0.027770763 0.54476863
0.03690856 0.026296867 0.5476914
0.03303095 0.024760516 0.55077463
0.029254759 0.023311503 0.55380654
0.025507882 0.021830821 0.55678827
0.021767445 0.020277342 0.55971795
0.01806662 0.019008178 0.56278324
0.014365252 0.017416358 0.56564844
0.012965381 0.015941897 0.56862837
0.05202806 0.034740325 0.5416339
0.048428919 0.035063729 0.54114556
0.044588793 0.033501904 0.5441739
0.040897332 0.032201264 0.54720986
0.036972124 0.03069941 0.55036414
0.033332881 0.029326236 0.55330062
0.029625021 0.027640097 0.55611384
0.025655117 0.026382111 0.55946642
0.02203954 0.024704745 0.56218898
0.018306585 0.023345836 0.56523192
0.014597338 0.021881869 0.56818479
0.013206355 0.020379713 0.57114089
0.0522407 0.039063778 0.54402721
0.048544895 0.03934893 0.54369074
0.044815149 0.037988294 0.54672927
0.041010283 0.036230691 0.54959905
0.037320815 0.035138793 0.55276287
0.033601806 0.033631049 0.55569869
0.029645909 0.031941988 0.55876845
0.025930699 0.030553054 0.56177425
0.022372339 0.029213719 0.5646475
0.018694162 0.027703723 0.56753939
0.014821038 0.026181042 0.5706265
0.013327338 0.02470063 0.57334208
0.052324627 0.043398529 0.54626465
0.048817117 0.04375824 0.54615039
0.044985153 0.042233612 0.54919338
0.041278116 0.040666364 0.55207968
0.037527099 0.039392881 0.55519462
0.033845924 0.037864771 0.55807835
0.029999681 0.036548421 0.56126577
0.026191348 0.034980841 0.56425744
0.022539049 0.033459499 0.56711531
0.018915046 0.031938829 0.56994414
0.015077904 0.030433338 0.57300442
0.013778277 0.029072745 0.57611436
0.052525252 0.047791522 0.54867709
0.048935734 0.048017729 0.54867679
0.045266926 0.046750415 0.55170989
0.041523717 0.04515389 0.55461574
0.037751306 0.043824308 0.55771798
0.034012415 0.042321488 0.56067759
0.030346489 0.040865973 0.56359065
0.026679272 0.039350204 0.56646752
0.022917448 0.037937675 0.56950718
0.01919275 0.036457364 0.57246602
0.01541964 0.035090774 0.57554603
0.013911281 0.033178844 0.57829845
0.052738585 0.052239005 0.5511322
0.049181815 0.052422855 0.55116105
0.045435727 0.050843313 0.55408043
0.041803937 0.049468737 0.55700827
0.038075145 0.047997668 0.55997705
0.034214288 0.046603598 0.56313139
0.030438699 0.045096654 0.56612664
0.026916429 0.043598145 0.56886327
0.023040133 0.042242628 0.57205766
0.019482022 0.040710457 0.57481068
0.015638404 0.03913378 0.57783341
0.014270887 0.037792966 0.58098882
0.053079758 0.056593921 0.55370212
0.049379554 0.056960955 0.55377841
0.045937564 0.055344932 0.55635828
0.042167183 0.053998612 0.55944806
0.038363844 0.052334659 0.56237453
0.034475259 0.050861333 0.56550843
0.030799154 0.049513191 0.56849885
0.026978485 0.047952618 0.57150769
0.023500977 0.046609234 0.57429421
0.019547476 0.045042772 0.57743782
0.015788715 0.04372064 0.58053052
0.014338013 0.04221661 0.58330953
0.0533938 0.060924869 0.55622619
0.049920958 0.061285589 0.55590492
0.046057612 0.059751671 0.55897486
0.042361781 0.058369767 0.56196481
0.038597751 0.056730479 0.56486571
0.034776688 0.055433836 0.56803918
0.031024141 0.053922966 0.57100797
0.027352892 0.052318096 0.57383364
0.023632273 0.050943449 0.57685393
0.019800818 0.049543377 0.57997388
0.01604569 0.047975354 0.58290982
0.014731437 0.046388879 0.58585703
0.053630885 0.065310396 0.55868065
0.04992881 0.065453939 0.55849004
0.04619702 0.0640487 0.56150293
0.042408422 0.062507533 0.5644905
0.038724653 0.061135065 0.56747377
0.034993552 0.059601605 0.5704062
0.031249501 0.05811923 0.57338387
0.027609352 0.056923687 0.57643181
0.023833575 0.055374831 0.5794012
0.020051923 0.053733882 0.58231938
0.016291585 0.052436139 0.58542895
0.01478171 0.050876461 0.58798623
0.053703222 0.069610782 0.56088668
0.050125673 0.069704406 0.56092936
0.046526503 0.068306558 0.56380874
0.042675339 0.066929549 0.56696355
0.038910255 0.065497205 0.56999427
0.035179652 0.063940488 0.57291174
0.031531464 0.062519535 0.57582778
0.027791204 0.06095941 0.57875311
0.024173573 0.059873756 0.581846
0.020259783 0.058161423 0.5848574
0.016552694 0.056695759 0.587807
0.015096921 0.055147111 0.59046412
0.05400908 0.073790416 0.56332606
0.050522495 0.074280448 0.56336296
0.046801474 0.07291092 0.56638682
0.043009996 0.071283817 0.5693239
0.039155729 0.069711365 0.57236034
0.035502642 0.068359211 0.5753243
0.031729154 0.066832773 0.57830524
0.028058318 0.065456107 0.58127248
0.024261819 0.063952729 0.5842917
0.020643283 0.062582053 0.58720815
0.016781531 0.060930852 0.5902034
0.015404005 0.059455618 0.59304529
0.054362621 0.078153417 0.56591547
0.050728593 0.078616388 0.56584579
0.046934705 0.077183649 0.56890631
0.04312519 0.075723112 0.57196575
0.03947344 0.074270144 0.57486558
0.03574881 0.072707914 0.57777339
0.031887859 0.071036331 0.58075511
0.028286338 0.069726765 0.5836919
0.024509721 0.068295315 0.58673519
0.02086566 0.06703122 0.58974451
0.017093632 0.065392338 0.59265399
0.015711349 0.063866436 0.59556329
0.054600243 0.082586244 0.56839389
0.050989117 0.083249815 0.56845707
0.047174167 0.081412703 0.57128787
0.043463085 0.080042422 0.574301
0.039737493 0.078561313 0.57726026
0.036021102 0.077083156 0.58021176
0.03229342 0.075682618 0.58322334
0.028463338 0.074094057 0.58622456
0.024791921 0.072608143 0.58912438
0.021007493 0.07118994 0.59218407
0.017355794 0.069671139 0.59504288
0.015930574 0.068422504 0.59811783
0.054714601 0.087005645 0.57071114
0.051213801 0.087396353 0.57080269
0.047595855 0.085955441 0.57367486
0.043719221 0.084386699 0.57673693
0.040071789 0.082959928 0.57964855
0.036279559 0.081453025 0.58266115
0.03250353 0.079923175 0.58564264
0.028765265 0.078388162 0.58858156
0.025201995 0.076975159 0.59141409
0.021255983 0.07562016 0.59468144
0.017642403 0.074143112 0.59752655
0.016192239 0.072594561 0.60051119
0.05507201 0.091222182 0.57323331
0.051474459 0.091695033 0.57320559
0.047842555 0.090263382 0.57609797
0.044200718 0.088821925 0.57899469
0.040346183 0.087318175 0.58207417
0.036353841 0.085715622 0.58523571
0.032729656 0.084214963 0.58807719
0.028922429 0.082721971 0.59111404
0.025233442 0.081399284 0.59413373
0.021509431 0.079983786 0.59713221
0.01777716 0.07839071 0.60002875
0.016504802 0.077003211 0.603131
0.055105831 0.09582711 0.57554084
0.051650722 0.09613236 0.5757826
0.047989003 0.094583936 0.57863343
0.044241358 0.093093529 0.58160985
0.040606294 0.091684937 0.58451992
0.036820672 0.090166196 0.58751833
0.033102613 0.088769764 0.59052241
0.029189883 0.087228246 0.59363902
0.025633018 0.085947409 0.59654713
0.021841057 0.084320664 0.59948492
0.018030418 0.082730748 0.60246503
0.01667748 0.081285536 0.60533923
0.055558451 0.099967666 0.57814503
0.052062277 0.10050402 0.57807362
0.048391216 0.099056721 0.58099711
0.04466261 0.097458571 0.58388674
0.04096726 0.095965259 0.58680689
0.037045829 0.094565958 0.59002101
0.033227086 0.093030617 0.59304357
0.029424176 0.091534942 0.59607428
0.025723465 0.090081483 0.59902483
0.022061979 0.088682197 0.60196823
0.018522047 0.087140866 0.60469663
0.016820662 0.085757382 0.6077615
0.055804204 0.10436758 0.58061743
0.052332949 0.10486001 0.58050174
0.048524294 0.10324465 0.58346397
0.044833958 0.10190136 0.58647227
0.041084822 0.10028143 0.58936965
0.037267439 0.098976322 0.59253407
0.033512775 0.097391196 0.59545887
0.029744171 0.095917173 0.59846735
0.025970921 0.094367497 0.60143358
0.022133017 0.092948407 0.60454839
0.018576818 0.091450475 0.60732073
0.017312154 0.089947455 0.61055022
0.056052607 0.10868524 0.58305269
0.052293617 0.10900792 0.58312327
0.048693471 0.10752459 0.58595049
0.044910815 0.10604741 0.58897161
0.041204192 0.1044896 0.59186339
0.03760875 0.10321673 0.59481663
0.03375062 0.10166167 0.59786791
0.029952735 0.10006596 0.60083121
0.026381023 0.098838195 0.60378778
0.022642674 0.097391434 0.60678166
0.018845998 0.095962182 0.60984725
0.017361842 0.094290718 0.61266571
0.056328733 0.11303388 0.58553797
0.052624688 0.11347305 0.58555633
0.049017351 0.11190234 0.58833665
0.045282912 0.11044545 0.59132022
0.041504852 0.10914472 0.5944463
0.037722632 0.10744503 0.59732854
0.034070674 0.10596699 0.60021305
0.030251421 0.10474709 0.60343236
0.026558375 0.10303163 0.6062119
0.022845676 0.1016698 0.60923195
0.019164255 0.10022772 0.6121695
0.017751262 0.098627277 0.61524546
0.056397859 0.11773501 0.58793706
0.052870501 0.1177833 0.58798182
0.049173404 0.11613287 0.59080607
0.045447327 0.1147207 0.59380871
0.041827407 0.11346304 0.59679693
0.038021371 0.11191272 0.59979689
0.034338765 0.1104277 0.60270894
0.030558176 0.108933 0.60571706
0.026801584 0.10743018 0.60869509
0.023016132 0.10589603 0.61168367
0.019411355 0.104559 0.61460674
0.017839167 0.10315529 0.6175887
0.056870192 0.12193813 0.59059674
0.053113785 0.1220336 0.59037268
0.049472231 0.12059259 0.59326935
0.045779217 0.11919683 0.59624779
0.04200758 0.117819 0.59931922
0.038307808 0.11632501 0.6022436
0.034476936 0.11477939 0.60527235
0.030700549 0.11327397 0.60826939
0.026989998 0.11186364 0.61125702
0.023178045 0.11043869 0.6143412
0.019644493 0.1089403 0.61708963
0.018184703 0.1072936 0.62010103
0.057062916 0.12621182 0.59294057
0.053426139 0.12646505 0.59280425
0.049746837 0.1249691 0.59570611
0.046060178 0.12376685 0.59879827
0.042176992 0.12203807 0.6017676
0.038603958 0.12073329 0.60467768
0.034640186 0.11909518 0.60778731
0.030941501 0.11775559 0.61080658
0.027383944 0.11622626 0.6135608
0.023616469 0.11502288 0.61673647
0.01993232 0.11341011 0.61957067
0.018279798 0.11167824 0.62241769
0.057153519 0.13071027 0.59526694
0.053825825 0.13086465 0.59535027
0.050141513 0.12933025 0.59826654
0.046356298 0.1280005 0.60112375
0.042582717 0.12638614 0.60405004
0.038544051 0.12483383 0.60729116
0.035073005 0.12352889 0.61009485
0.031235002 0.12186748 0.61305904
0.027523469 0.12048144 0.61606276
0.023935458 0.11924917 0.61913353
0.020126255 0.11765583 0.62212604
0.01875568 0.1160512 0.62513041
0.055359297 0.13197562 0.59809047
0.051893812 0.13046366 0.60112506
0.048063964 0.12909904 0.60393482
0.043954466 0.12765616 0.6069116
0.040379077 0.12614664 0.60995293
0.036642052 0.12469251 0.6129123
0.032896951 0.12315318 0.61602378
0.029219236 0.12167187 0.61902541
0.025510574 0.12023468 0.62195176
0.021764724 0.11881758 0.62484598
0.019100336 0.11816616 0.62627149
