# .PCD v0.7 - Point Cloud Data file format
VERSION 0.7
FIELDS x y z
SIZE 4 4 4
TYPE F F F
COUNT 1 1 1
WIDTH 1294
HEIGHT 1
VIEWPOINT 0 0 0 1 0 0 0
POINTS 1294
DATA ascii
-0.011853775 0.16455945 0.50595605
-0.010173008 0.1643701 0.50798911
-0.0062392876 0.16388509 0.51104081
-0.0023289453 0.16335872 0.51409072
0.0016518366 0.16270272 0.51706648
0.0055823624 0.16213775 0.52009642
0.0094961021 0.1615738 0.52307159
0.01357981 0.16115296 0.52627891
0.01755633 0.16042957 0.52923465
0.021438584 0.16002879 0.5322572
0.025205234 0.15952224 0.53517991
0.02789793 0.15915549 0.53700006
-0.011089513 0.1597572 0.50415641
-0.0092639625 0.15930797 0.50599855
-0.0053634997 0.15888456 0.50904942
-0.0015102206 0.15845144 0.51205492
0.0024864227 0.1578351 0.51507717
0.0064679328 0.15738477 0.51818115
0.010319928 0.15708172 0.52125967
0.014350733 0.15636525 0.52425367
0.018338561 0.15573105 0.52725834
0.022194277 0.15540898 0.53032911
0.026107218 0.15483239 0.53330332
0.028782049 0.15485638 0.53512037
-0.01022825 0.15557238 0.50233459
-0.0084678065 0.15490454 0.50416362
-0.0046010381 0.15429321 0.50707912
-0.00066202972 0.15386739 0.51016116
0.003366163 0.15343702 0.51331586
0.0072498173 0.15291077 0.516294
0.011079023 0.15240943 0.51924044
0.015147887 0.1518487 0.52235526
0.01906183 0.1514098 0.52540869
0.022965457 0.15081573 0.52836508
0.026977699 0.15046366 0.53155094
0.029648624 0.14999117 0.53318137
-0.0094328728 0.15093149 0.50052172
-0.00772186 0.15049559 0.50228322
-0.0037757186 0.14970441 0.50516331
8.6470507e-05 0.14926448 0.50817245
0.0041913465 0.14904292 0.51151079
0.008170668 0.14821598 0.51439852
0.011962885 0.14783756 0.51738364
0.016017132 0.14734566 0.52052534
0.019897427 0.14687493 0.52353227
0.023772072 0.14616415 0.52639776
0.027848009 0.14582124 0.52964258
0.030598721 0.14558044 0.53139871
-0.0084637608 0.14609303 0.49845001
-0.0068269111 0.14589927 0.50042188
-0.0027175359 0.14515315 0.50346541
0.0011843368 0.14469311 0.50649661
0.0049701612 0.14430042 0.50946826
0.0089291707 0.14368391 0.51245862
0.012752704 0.14331888 0.51547778
0.016771585 0.1428806 0.51862019
0.020598933 0.14220496 0.52146572
0.024705771 0.14173633 0.52466506
0.028845351 0.14119458 0.52785039
0.03133361 0.14077133 0.52947456
-0.0077390242 0.14204642 0.49682871
-0.0058574919 0.14124653 0.4985913
-0.001988465 0.14075838 0.50157881
0.0019238275 0.14013031 0.50452316
0.0059777424 0.13949883 0.50758511
0.0097292475 0.13911805 0.51053452
0.013638955 0.13884005 0.51367605
0.01773211 0.13810036 0.51670951
0.021688882 0.13766687 0.51980215
0.025570944 0.13730907 0.52287489
0.029297393 0.136646 0.52564245
0.032099091 0.13606979 0.52742106
-0.0068738759 0.13726911 0.49490225
-0.005168627 0.13682014 0.49665281
-0.0012612185 0.13609864 0.49953985
0.0026646545 0.13564166 0.5025931
0.006736625 0.13494879 0.50563532
0.010684695 0.13476385 0.50886214
0.014584348 0.13394216 0.51168561
0.018704791 0.13351485 0.51491994
0.022612024 0.13315549 0.518013
0.026546221 0.13259849 0.5210163
0.030334238 0.13220365 0.52398854
0.033084489 0.13156965 0.52569669
-0.0058417227 0.13225174 0.49271864
-0.0042904075 0.13222644 0.49477887
-0.00014762674 0.13133606 0.49776843
0.0036750063 0.13093138 0.50076425
0.0076051299 0.13051701 0.50384533
0.011435654 0.13009371 0.50683725
0.015512796 0.12949264 0.50993615
0.019482139 0.12899323 0.51300186
0.023370516 0.12851025 0.51600862
0.027396049 0.12812865 0.51918888
0.031349611 0.12759861 0.52222389
0.034045089 0.12741014 0.52390969
-0.0049838629 0.12768681 0.49083737
-0.0034218309 0.12749162 0.49281645
0.00053546205 0.12705398 0.49590719
0.0045343209 0.12664846 0.4990513
0.0084793232 0.12600806 0.50201625
0.012453174 0.12553142 0.50509876
0.016317053 0.12507553 0.50810027
0.020444062 0.12448372 0.5112465
0.024281174 0.12394311 0.5141772
0.028100349 0.12353401 0.51716763
0.032061681 0.12301645 0.52021629
0.034737494 0.12268739 0.5219965
-0.0042553181 0.12311006 0.489122
-0.0026169149 0.12305487 0.49096996
0.0014029732 0.12243239 0.49400833
0.0052560754 0.12197244 0.49699843
0.0092947073 0.12141465 0.50008941
0.013113264 0.12115313 0.50316334
0.017087258 0.12060659 0.50620621
0.021126222 0.11997148 0.50925344
0.024994902 0.11942786 0.51220906
0.028933473 0.11894742 0.51525968
0.033042941 0.11841397 0.51842433
0.035752967 0.11800335 0.52004659
-0.0032710265 0.11885022 0.4871279
-0.0017160298 0.11850552 0.48914039
0.0022633085 0.11776385 0.49207667
0.0060922671 0.11735387 0.49507484
0.010046048 0.11688457 0.49814463
0.014187057 0.11650452 0.50142318
0.017920213 0.11609076 0.50433838
0.021985587 0.11518076 0.50725144
0.025881123 0.11486769 0.51036096
0.029832754 0.11422302 0.51332909
0.033737503 0.11388222 0.51643062
0.036586165 0.11330546 0.51807696
-0.0023513045 0.11430378 0.48516941
-0.0010516644 0.11396316 0.4871152
0.0030914452 0.11323738 0.49019873
0.0068605486 0.1127983 0.49312982
0.01089629 0.11223337 0.49621433
0.01494934 0.11195102 0.49947429
0.018931247 0.11124735 0.50243437
0.022897061 0.11060387 0.50541514
0.026710626 0.11037567 0.50850379
0.030643698 0.10980406 0.51149786
0.034598142 0.10935226 0.5145781
0.037343793 0.10927641 0.51639587
-0.0016093347 0.10947825 0.4833948
-0.00012973882 0.10948178 0.48534209
0.0039398763 0.10882626 0.48840359
0.0079433415 0.10840204 0.49154094
0.011915145 0.10775901 0.49452701
0.01582546 0.10735484 0.49759716
0.019615978 0.10697082 0.50057769
0.023630735 0.10623394 0.5035466
0.027785935 0.10559405 0.50668919
0.031518251 0.10538029 0.50971752
0.035615668 0.10471275 0.51279569
0.038094543 0.10456636 0.51447225
-0.00079193152 0.10525464 0.48162344
0.0010410901 0.10469952 0.48360774
0.0049619935 0.10427174 0.48667338
0.0086820051 0.10364062 0.48945373
0.012567157 0.10320528 0.4924849
0.016589772 0.10269871 0.49559152
0.020646628 0.10215111 0.49870372
0.024571683 0.1017999 0.50181645
0.028551586 0.10108376 0.50476772
0.032471303 0.10076056 0.50789195
0.036346585 0.10002775 0.51074541
0.038954329 0.10013379 0.51264191
8.8151544e-05 0.10069844 0.47971478
0.0014850181 0.10032159 0.48149011
0.0055736415 0.099726282 0.48460191
0.0095399041 0.099126935 0.48760819
0.013581404 0.09859512 0.4907164
0.017330645 0.098225944 0.49367052
0.021362845 0.097703308 0.4967761
0.025297035 0.097102612 0.49975452
0.029216755 0.096742921 0.50285792
0.033163473 0.096068211 0.50580478
0.037235506 0.095542289 0.50894213
0.039916448 0.095196933 0.51065224
0.00085747056 0.095882162 0.4779062
0.0026788712 0.095750906 0.47989565
0.006544333 0.095030472 0.48274788
0.010546815 0.094566464 0.48586178
0.014458995 0.0938574 0.48875993
0.018185942 0.093807198 0.49187681
0.022087909 0.093359992 0.49491543
0.026081655 0.092565008 0.49783352
0.030256987 0.092015885 0.50104481
0.034014273 0.091586418 0.5039714
0.038048137 0.090799108 0.50692773
0.040645257 0.090905599 0.50892997
0.0016467934 0.091478564 0.47614104
0.0035743788 0.091086239 0.47799587
0.0072976965 0.090742387 0.48094255
0.011306515 0.089957967 0.48387936
0.015255831 0.089561798 0.48698699
0.019365277 0.089151599 0.49022177
0.023262616 0.088624492 0.493211
0.027208295 0.087968297 0.49616751
0.031058203 0.08750663 0.49915394
0.035254311 0.086846322 0.50231951
0.038782839 0.086470731 0.50508368
0.041534927 0.086405993 0.50702983
0.0025408389 0.08746089 0.4743048
0.0044060796 0.086531088 0.47610462
0.0083122607 0.085998408 0.47909811
0.012387998 0.085465334 0.48223451
0.016243588 0.084818028 0.48512006
0.020119395 0.084326871 0.48811156
0.024218893 0.083954588 0.49135953
0.02801067 0.08335565 0.49421877
0.031773448 0.082919635 0.49714628
0.035683867 0.082718693 0.50033224
0.039815813 0.081939332 0.50337583
0.042377044 0.08183223 0.50511885
0.0034811348 0.082245439 0.47220713
0.0051533729 0.081964225 0.47413546
0.0091043711 0.081330992 0.47710952
0.012967318 0.081134975 0.4802582
0.016972609 0.080373041 0.48320484
0.020931523 0.080028802 0.48635015
0.024857286 0.079363286 0.48928455
0.028727654 0.07891041 0.49229327
0.032715585 0.078478619 0.49541318
0.03671388 0.077988923 0.4985089
0.040561993 0.077450447 0.50145012
0.043339398 0.077516533 0.50342906
0.0043809116 0.077901825 0.47030866
0.0059318542 0.077551618 0.47228041
0.0098103378 0.076891467 0.47517797
0.013723236 0.076533288 0.47827649
0.017861757 0.075976804 0.48145252
0.021662736 0.07534904 0.48430312
0.025760408 0.074660383 0.48736945
0.029713813 0.07436458 0.49053764
0.033480126 0.07395269 0.49348187
0.037542913 0.07330934 0.49654457
0.041356415 0.072779395 0.49946141
0.04406029 0.072783813 0.50141758
0.0052394196 0.073309146 0.46842188
0.0068503469 0.072754659 0.47032475
0.010844983 0.072391361 0.47348934
0.014899036 0.071673587 0.47650227
0.01857404 0.071517661 0.47951514
0.022824328 0.070759952 0.48267096
0.026655573 0.070169024 0.48556808
0.030580783 0.069938935 0.48874989
0.034442011 0.069290116 0.49163935
0.038454521 0.068747945 0.49471718
0.042251643 0.068238743 0.49763203
0.045025744 0.068258099 0.49950713
0.006094683 0.068738669 0.46654305
0.0077999011 0.068354428 0.46862113
0.011520145 0.067755431 0.47141996
0.015578501 0.067348592 0.47461355
0.019548763 0.066858068 0.47768512
0.02354132 0.06614764 0.48065034
0.027388476 0.065758958 0.48367602
0.031294446 0.065224387 0.48666826
0.035404887 0.064651743 0.48981142
0.039245684 0.063996829 0.49268013
0.043165069 0.063745849 0.49584517
0.045866471 0.063501634 0.49764013
0.0069509 0.063839957 0.46460778
0.0085410178 0.063716702 0.46660641
0.012441713 0.063162051 0.4695828
0.016246118 0.062655948 0.47250551
0.020396043 0.062122084 0.47570407
0.024311651 0.061462939 0.47863352
0.028181959 0.061074302 0.48167875
0.032140173 0.060728043 0.4848223
0.036087144 0.060034059 0.48775843
0.040066753 0.059630297 0.49088728
0.044055019 0.059271373 0.49404898
0.046669487 0.058951423 0.49574634
0.0077148881 0.060031787 0.46297562
0.0094090495 0.059109084 0.46471596
0.013293901 0.058752865 0.46779191
0.017210349 0.057979859 0.47065726
0.021264013 0.057738736 0.47394121
0.025270496 0.056984954 0.47689351
0.029143188 0.056692906 0.47999573
0.032989573 0.05609636 0.48290241
0.036973171 0.055600449 0.48598218
0.040839311 0.055131495 0.48897818
0.044948697 0.054633796 0.49216309
0.047580961 0.054576531 0.49404201
0.008675091 0.054379478 0.46077865
0.010411583 0.054753184 0.46308231
0.01425731 0.054210871 0.4660193
0.018079504 0.053533077 0.46885931
0.022131953 0.053154498 0.47206399
0.026043352 0.052627802 0.47506529
0.029900629 0.052012771 0.47797066
0.033839356 0.051659554 0.48109379
0.037768003 0.050915554 0.48398596
0.041911233 0.050386935 0.48718184
0.045550596 0.049994588 0.49003005
0.048424955 0.049652606 0.49185005
0.0094548445 0.050329104 0.45908532
0.011211284 0.050159246 0.46114194
0.014977548 0.049543321 0.46396998
0.019005876 0.049194753 0.46717137
0.023059484 0.048614457 0.4702622
0.027060818 0.047995985 0.47328717
0.030921418 0.047394156 0.47620285
0.034800891 0.047061145 0.47928748
0.038731363 0.046376258 0.48221484
0.042652149 0.046041489 0.48533335
0.046732355 0.045462206 0.48844719
0.049245637 0.045535222 0.49028385
0.010185467 0.045784265 0.45737261
0.012061214 0.045509517 0.45921221
0.015910499 0.044939697 0.46213657
0.019903459 0.044511616 0.46526286
0.023855884 0.043862388 0.46822906
0.027786832 0.043559641 0.47137433
0.031750184 0.04281497 0.47429544
0.035752654 0.042453408 0.4774676
0.039557688 0.042021364 0.48043305
0.043482285 0.0413142 0.48334274
0.047434378 0.041059822 0.48653346
0.050285336 0.040333897 0.48808306
0.011167755 0.041284785 0.4553408
0.012743453 0.040819705 0.45711815
0.01681589 0.040525466 0.46038771
0.020711228 0.039863765 0.46329862
0.024692621 0.039288551 0.46633139
0.028542023 0.038983762 0.46940672
0.032524209 0.038456976 0.47246772
0.036451351 0.037891179 0.47546005
0.040556442 0.03722313 0.47854438
0.044445753 0.036720157 0.48154056
0.048232857 0.036214203 0.48444879
0.050921649 0.036350846 0.48650464
0.011943229 0.03706184 0.45362398
0.013766682 0.036296159 0.45540655
0.017845321 0.035791844 0.45856175
0.02160494 0.035312712 0.46146205
0.025428269 0.034889072 0.46444768
0.029427566 0.034309447 0.46749306
0.033243593 0.034046322 0.47056395
0.037287876 0.033426344 0.47362429
0.041259144 0.032770008 0.47660235
0.045274813 0.032236934 0.47968802
0.049061462 0.031861544 0.48267019
0.051731739 0.031854779 0.48458475
0.012623427 0.032648101 0.4519988
0.014770798 0.031824648 0.45370841
0.018365987 0.031483144 0.45654827
0.02224794 0.030968845 0.45953178
0.02615894 0.030415267 0.46251747
0.030220363 0.029856771 0.46562728
0.034210663 0.029384851 0.4687264
0.038098503 0.02879262 0.47167051
0.041979756 0.02830264 0.47466731
0.046030167 0.027748793 0.47777048
0.050069984 0.027261436 0.48090255
0.052845106 0.026734203 0.48247731
0.013609093 0.028219163 0.44997448
0.015444484 0.027090341 0.45156667
0.019258361 0.026998997 0.45474863
0.023358878 0.02619639 0.4577525
0.027282797 0.025818735 0.46084923
0.031276446 0.025331199 0.46394223
0.035130497 0.024665773 0.46681619
0.038938355 0.0244115 0.4698852
0.042949367 0.02384156 0.47294599
0.046890166 0.02334094 0.47598696
0.050802592 0.022701964 0.47888723
0.053420667 0.022652507 0.48085034
0.015644565 0.025246978 0.45006663
0.020297039 0.024716511 0.45347506
0.023945641 0.024199769 0.45639291
0.027941903 0.023666069 0.45951033
0.032015823 0.023236141 0.46241075
0.035607122 0.022694454 0.4653632
0.039667189 0.022136748 0.46856806
0.043487262 0.021702856 0.47136253
0.047825333 0.021184102 0.47459921
0.051122639 0.020665228 0.4773623
0.053573277 0.020158038 0.47971147
-0.010045676 0.16571437 0.50380284
-0.0086485334 0.1676235 0.50639421
-0.0045930631 0.16721141 0.50924289
-0.0007391246 0.16664168 0.51238304
0.0032740105 0.16615802 0.51538652
0.0070321951 0.16550925 0.51867527
0.011094863 0.16504127 0.52166319
0.015323328 0.16463839 0.5245682
0.018868772 0.16409691 0.52749926
0.023029288 0.16365626 0.53046519
0.026967254 0.16307545 0.5336706
0.030033104 0.16051084 0.53488028
-0.0093109962 0.16118148 0.50208688
0.031012291 0.15569028 0.53282821
-0.0084149726 0.1565007 0.50013655
0.031746712 0.15134883 0.5311448
-0.0075645987 0.15195961 0.49826902
0.032694183 0.1468817 0.5291636
-0.0067631723 0.14730273 0.49644557
0.033419773 0.14227007 0.52744621
-0.0057576001 0.14306438 0.49442744
0.034397542 0.13753824 0.52538121
-0.0048832223 0.13811179 0.49245954
0.035139114 0.13296109 0.52364886
-0.0041491687 0.13386331 0.49079221
0.036063589 0.12877905 0.52174544
-0.003429912 0.12911671 0.48906034
0.036993168 0.12405817 0.51974487
-0.0024954388 0.12448592 0.48706853
0.037848629 0.11969302 0.51790023
-0.0014237761 0.12005361 0.48493201
0.038697101 0.11503094 0.51601481
-0.00069305487 0.11567205 0.48324662
0.039569773 0.11018906 0.51406777
0.00018413272 0.11097686 0.48131835
0.040330853 0.10587103 0.51235366
0.001057148 0.10648146 0.4794291
0.041088838 0.1013219 0.51060468
0.0018395465 0.10182681 0.4776307
0.041898571 0.096723303 0.50878024
0.0026294366 0.09718214 0.4758243
0.042759348 0.092273697 0.50691462
0.0035678102 0.092686102 0.47385007
0.043675136 0.087581106 0.50493664
0.0044248793 0.0880858 0.47196388
0.044557627 0.083056919 0.50303024
0.0053645708 0.083684444 0.47000387
0.045388144 0.07833904 0.50115877
0.0061184391 0.079135612 0.46826032
0.046283301 0.073762447 0.49922711
0.0069254749 0.074431852 0.46642169
0.047245096 0.069378294 0.49724129
0.0079435483 0.07004109 0.4643617
0.047954228 0.064774662 0.49554661
0.0086752083 0.065345764 0.46262234
0.048740771 0.060089067 0.49373764
0.0095981397 0.060971737 0.46068871
0.049733654 0.055633754 0.49169952
0.010375915 0.056553602 0.4589361
0.050567027 0.051052555 0.4898473
0.011273071 0.051725268 0.45695952
0.051319949 0.046366677 0.48808193
0.012005193 0.047085643 0.45522892
0.052366342 0.041953906 0.48598146
0.012797572 0.042477831 0.45342547
0.053098265 0.037438735 0.48427206
0.013759051 0.038178608 0.45145434
0.05395044 0.032893136 0.48240143
0.014509719 0.033644959 0.44971749
0.054923218 0.028309956 0.4803679
0.015545541 0.029002428 0.44759214
0.019684948 0.025376439 0.45159164
0.035869293 0.024708197 0.46058595
0.039729752 0.024039596 0.46396953
0.045292027 0.022315383 0.4706949
0.047541272 0.021633729 0.4733766
0.05382143 0.022365123 0.47445771
0.055589058 0.023438618 0.4786844
0.017754344 0.026341811 0.44836503
0.022034673 0.026007503 0.45112696
0.026074221 0.025423765 0.45438588
0.029764023 0.024846971 0.45746851
0.033441782 0.024429485 0.46015832
0.037372235 0.023881048 0.4632816
0.041542821 0.023469329 0.4661817
0.045462903 0.022833109 0.46951377
0.049525917 0.022442281 0.47231418
0.053462211 0.021734208 0.47582826
0.055794176 0.021516234 0.47742012
-0.0072051175 0.1676105 0.5004338
-0.0057008527 0.16951545 0.50313592
-0.0016537346 0.1691608 0.50584108
0.0022868859 0.16864356 0.50889313
0.0061288401 0.16806409 0.51205158
0.01028456 0.16762614 0.51500875
0.014311926 0.16707282 0.51818806
0.018024625 0.16657537 0.52108818
0.02213691 0.16607766 0.52417094
0.026084032 0.1656974 0.52689284
0.029908584 0.16507022 0.53015935
0.032951221 0.16250092 0.53140402
-0.0062441258 0.16313288 0.49843335
0.033740081 0.15781127 0.52964342
-0.005598871 0.15846755 0.49681121
0.034710824 0.15339264 0.52764022
-0.004489271 0.15383926 0.49459246
0.035523299 0.14870849 0.52579778
-0.0036921296 0.14929444 0.49279341
0.036333665 0.14408767 0.52396876
-0.0027398858 0.1449513 0.4908269
0.037296049 0.1398675 0.52200979
-0.0019660974 0.14036369 0.48905095
0.038037185 0.13515341 0.52025497
-0.0011143293 0.13569245 0.48715973
0.038994834 0.13065585 0.51825547
-0.00040656328 0.13113341 0.48547432
0.039942883 0.12624785 0.51628351
0.00041985977 0.12680377 0.48367342
0.040711533 0.12157337 0.5144996
0.0015144031 0.12241578 0.4815146
0.04163349 0.11716934 0.51256216
0.0022705328 0.11758021 0.47971991
0.042420294 0.11242206 0.51074249
0.0031328928 0.11295974 0.47782347
0.043325782 0.1077875 0.50878763
0.0038953274 0.10858241 0.47609761
0.044080853 0.10333155 0.50705814
0.0048273169 0.10383518 0.47408947
0.045046058 0.098784372 0.50504053
0.0056243455 0.099312447 0.47229427
0.045855787 0.094135858 0.50320768
0.0064102076 0.094631791 0.470487
0.046692755 0.089577101 0.50135458
0.0073013091 0.09027274 0.4685972
0.047441486 0.085003234 0.49961346
0.0083030257 0.085851692 0.46655336
0.048472837 0.080446713 0.49750838
0.0090722963 0.081089988 0.46475402
0.049207371 0.075835928 0.49577951
0.0098149497 0.076723725 0.46305573
0.050018128 0.071045808 0.49392152
0.010867197 0.072075956 0.46090814
0.050972458 0.066731341 0.49195713
0.011584064 0.067429721 0.45919627
0.051829673 0.062197372 0.49008191
0.012576891 0.062985256 0.45716003
0.052769318 0.057772934 0.48811808
0.01337255 0.058354914 0.45534852
0.053510416 0.05297263 0.48634881
0.014217447 0.053912789 0.45350471
0.054317113 0.048387155 0.48453051
0.015105555 0.049264252 0.45157012
0.055111896 0.043959424 0.4827542
0.015886974 0.044552132 0.44976336
0.056114003 0.039378628 0.480683
0.016751215 0.03986451 0.44785318
0.056964945 0.034895942 0.47882453
0.017704671 0.03554824 0.44588959
0.057819013 0.030152857 0.47691825
0.018420499 0.03079991 0.44416189
0.039410103 0.026104838 0.45880207
0.045652498 0.025400892 0.46335623
0.048627105 0.025109395 0.46541947
0.051119201 0.023585543 0.4702597
0.05498166 0.023056924 0.47330382
0.05860002 0.025638372 0.47514522
0.021140385 0.028384253 0.44494051
0.02513002 0.027897581 0.44794053
0.028816275 0.02734229 0.45096931
0.032664858 0.026964054 0.45364141
0.03666858 0.026400328 0.45683518
0.040669199 0.025781363 0.46016198
0.044301856 0.025314182 0.46295208
0.04831193 0.024764881 0.46611369
0.05247337 0.024382442 0.4689385
0.056484859 0.023976937 0.47175115
0.058431614 0.023383647 0.4740802
-0.0041332161 0.16975856 0.49680683
-0.0025249273 0.17159338 0.49952927
0.0011855685 0.17115602 0.50228232
0.0052428804 0.17060757 0.50546336
0.0091412775 0.17012139 0.50842071
0.013068813 0.1696606 0.51132953
0.017164608 0.16922233 0.51426017
0.021009784 0.16868122 0.51732683
0.024936683 0.16812357 0.52047086
0.028754786 0.16757277 0.52354878
0.032826446 0.16704713 0.52668095
0.035859935 0.16444637 0.52795774
-0.0033007031 0.16517508 0.49495536
0.036645714 0.15971486 0.52619117
-0.0025956277 0.16044979 0.49324548
0.037640542 0.1551553 0.52413297
-0.0015661931 0.15607506 0.49117345
0.038413543 0.15069231 0.52237898
-0.00070907362 0.15152974 0.48929644
0.03921986 0.14615157 0.52056873
0.00018477067 0.14685199 0.48734948
0.040097203 0.14159925 0.51866424
0.00096363435 0.14220248 0.48555654
0.040997233 0.1369653 0.51671666
0.0019334843 0.13786289 0.48356777
0.0417955 0.13242948 0.51491767
0.0026514609 0.13314551 0.48184249
0.042599447 0.12781902 0.51309872
0.0034533646 0.12874123 0.48006088
0.043430217 0.12333164 0.51126564
0.0044843387 0.12416945 0.4779537
0.044375144 0.11893221 0.50929916
0.0052091852 0.11948691 0.47622535
0.045261603 0.11422982 0.50735766
0.0060638841 0.11504332 0.47436857
0.04617203 0.10982365 0.50543481
0.0069581959 0.11041868 0.47242993
0.047037099 0.1051588 0.5035274
0.0077224476 0.10598224 0.4706918
0.047999933 0.10084866 0.50155264
0.0085536027 0.10110256 0.46879229
0.04873278 0.096244529 0.49982712
0.0095799025 0.096564919 0.46669692
0.049602114 0.091607876 0.49791887
0.010405648 0.092262477 0.46490148
0.050471462 0.086936228 0.49600476
0.011200587 0.087490119 0.46306702
0.051326506 0.08245606 0.4941414
0.011946694 0.083096579 0.46135965
0.05218308 0.07783673 0.49225265
0.012998159 0.078497007 0.45922121
0.052999247 0.073437013 0.49045327
0.013700556 0.074014731 0.45755568
0.053833853 0.068831988 0.48859546
0.014601622 0.069579527 0.45564014
0.05485915 0.064342447 0.4865095
0.015427183 0.064835526 0.45377067
0.055606537 0.059587345 0.48473966
0.016353587 0.060289495 0.45180359
0.056339569 0.055164129 0.4830443
0.017193705 0.055628791 0.44992927
0.057321399 0.050598338 0.48100191
0.018031567 0.051156327 0.44808951
0.058217477 0.046106204 0.47908327
0.018780828 0.046496257 0.44633323
0.059018333 0.041451097 0.47726086
0.019686559 0.041976437 0.44439739
0.059899509 0.036948144 0.47535974
0.020647191 0.037412867 0.44238293
0.060762908 0.032341301 0.47346422
0.021558568 0.032883793 0.44043821
0.041000094 0.027808428 0.4553836
0.043056119 0.027748451 0.45646563
0.056266215 0.026506558 0.4655005
0.061373468 0.026246563 0.46845827
0.061538164 0.027814224 0.47168863
0.023877401 0.030394539 0.44129851
0.02748733 0.029890195 0.44416866
0.031657048 0.029368162 0.44733655
0.035659548 0.028935283 0.45021176
0.039580565 0.028474689 0.45311713
0.04339689 0.027707666 0.45671996
0.047524896 0.027333096 0.45951039
0.051363725 0.026831165 0.46247882
0.055158176 0.026349053 0.46537897
0.059118439 0.02579464 0.4685303
0.061480731 0.025476128 0.47038051
-0.0010588747 0.17167206 0.49313724
0.0002441965 0.17362608 0.49584743
0.004276894 0.17309918 0.49896491
0.0082803629 0.17261131 0.50197417
0.012316994 0.1721344 0.50497186
0.016073909 0.17162491 0.5079214
0.020183524 0.17115229 0.51094186
0.02404796 0.17062885 0.51397437
0.02799391 0.17011261 0.51702636
0.032042794 0.16964068 0.52001756
0.035836287 0.16903351 0.52322131
0.038788255 0.1668959 0.524427
-0.0003318144 0.1670378 0.49141413
0.039733093 0.16194777 0.52255833
0.00039751548 0.16262504 0.48972532
0.040683307 0.15736867 0.52055472
0.0013422444 0.15802777 0.48772582
0.041387476 0.1527043 0.51885629
0.0022171107 0.15351821 0.4858318
0.042312402 0.14812213 0.51688504
0.0030693808 0.14898205 0.48396263
0.043086451 0.14357153 0.51511502
0.0039879279 0.14434619 0.48199064
0.043972757 0.13881551 0.51316464
0.0048200646 0.139825 0.48015013
0.044760656 0.13434246 0.51138967
0.005657753 0.13516062 0.47827831
0.045763426 0.13004218 0.50936478
0.0065498119 0.1307314 0.47637546
0.046504892 0.12542263 0.50762546
0.0073757637 0.1263108 0.4745599
0.04736447 0.12064497 0.50570619
0.0079949657 0.12159409 0.47296295
0.048295777 0.1161551 0.50374216
0.0089326361 0.11686237 0.47095001
0.049160812 0.11174135 0.50187701
0.009920137 0.11251737 0.46893743
0.050041322 0.10722499 0.49997449
0.010753793 0.10782766 0.46706659
0.050816722 0.10257132 0.49818537
0.011543997 0.10323499 0.46526849
0.051667333 0.098108858 0.49633074
0.012272417 0.098543964 0.46353406
0.052511521 0.093549848 0.49446821
0.013313595 0.09405183 0.46142703
0.05337134 0.089083195 0.49260092
0.01414211 0.089490272 0.45958444
0.054320972 0.084421001 0.49058414
0.014839725 0.084704004 0.457874
0.055095341 0.079898581 0.48881841
0.015862964 0.080400079 0.4558219
0.056033328 0.07525789 0.4868204
0.016719043 0.075995013 0.45396984
0.056830682 0.070646398 0.48500985
0.01755812 0.071328014 0.45209578
0.057639215 0.066347413 0.48323733
0.01841493 0.066693127 0.4502041
0.05866883 0.06176693 0.48113045
0.019278899 0.062283851 0.44834107
0.059489045 0.057205565 0.47929865
0.020000041 0.057724871 0.44663832
0.06027472 0.0524344 0.47747642
0.020947689 0.053130791 0.44463557
0.061273299 0.048223794 0.47547203
0.021860844 0.048603758 0.44268888
0.061952483 0.043595389 0.47381207
0.022624409 0.044017464 0.44092643
0.062695749 0.038930461 0.47206277
0.023546856 0.039513052 0.43897149
0.063676842 0.03464213 0.47006801
0.024384558 0.03494446 0.43711579
0.037067741 0.031741917 0.44402832
0.039655752 0.030429795 0.44839728
0.042722892 0.030637905 0.44928783
0.054396696 0.029167697 0.45817837
0.057739422 0.027957201 0.46264392
0.062637843 0.027589723 0.46576795
0.064531729 0.029707089 0.46807304
0.026998496 0.032392621 0.43786103
0.030737448 0.03190209 0.44075638
0.034474824 0.031338796 0.44382784
0.038543426 0.030950025 0.4466258
0.042350486 0.030362353 0.4497883
0.046347 0.029761806 0.45306835
0.050415434 0.029357567 0.45590377
0.05442049 0.028868124 0.45891762
0.058363277 0.028304547 0.46208334
0.062111061 0.027867973 0.46485141
0.064543307 0.02750659 0.46683764
0.0017846571 0.1736238 0.48977375
0.0032287249 0.17563447 0.49232274
0.0073102149 0.17508917 0.49550718
0.011182318 0.17463246 0.49838084
0.015140645 0.17416261 0.50132573
0.018915109 0.17362513 0.50435132
0.022905918 0.17300168 0.50768453
0.027060812 0.17261945 0.5105058
0.030875821 0.17212638 0.51344192
0.035140499 0.17169203 0.51643997
0.038918003 0.17120628 0.51934117
0.04160051 0.16918316 0.52108824
0.002541123 0.16912058 0.48803449
0.042742651 0.16401401 0.5189985
0.0033227275 0.16455254 0.48625168
0.043679576 0.15930927 0.51699108
0.0042988248 0.15999036 0.48421738
0.044389885 0.15479407 0.51530975
0.005141492 0.15543821 0.48235798
0.045360651 0.15012223 0.51326388
0.0061188792 0.15084849 0.48031738
0.046230882 0.14560166 0.511374
0.0069180788 0.14639084 0.47853029
0.046982143 0.14102323 0.50962889
0.0076169753 0.14190474 0.47686866
0.047714218 0.13646099 0.50791138
0.0086032432 0.13713688 0.47478655
0.048787158 0.13215414 0.50579429
0.0094815185 0.13260122 0.4728837
0.049400173 0.12733325 0.50418782
0.010360876 0.12814081 0.47099209
0.050286289 0.12275881 0.50226825
0.010993607 0.12346729 0.46938485
0.051196534 0.11834715 0.50034475
0.011907699 0.11889632 0.46742958
0.052082211 0.11366944 0.49840841
0.012766361 0.11438811 0.4655568
0.05295331 0.10918401 0.49652332
0.01350861 0.10988037 0.46383524
0.053840585 0.10471109 0.49461934
0.014489078 0.10525426 0.46178448
0.05466146 0.10006559 0.49277255
0.015245416 0.10074288 0.46004403
0.0556591 0.095544077 0.49071711
0.016177546 0.096028879 0.45804128
0.056407735 0.090877846 0.48896059
0.016934421 0.091439381 0.45628697
0.057216946 0.086340226 0.48714709
0.017927757 0.08692316 0.45423803
0.05810288 0.081739821 0.48522341
0.01877897 0.082511455 0.45239115
0.058987726 0.07716798 0.48330593
0.019666143 0.078000121 0.45048082
0.059817012 0.072591141 0.48145977
0.020377325 0.07362394 0.44882172
0.06062635 0.068115421 0.47965649
0.021380302 0.068784468 0.44670588
0.061582763 0.063608848 0.47765708
0.022228483 0.064245433 0.44484153
0.062350892 0.058860153 0.4758614
0.023119086 0.059667453 0.44291556
0.063235596 0.054567173 0.47399101
0.023961581 0.055126816 0.44105834
0.06417568 0.049910426 0.47198758
0.024727345 0.050460055 0.4392795
0.065008804 0.045425758 0.4701519
0.025600275 0.045995712 0.43739557
0.065667145 0.04068321 0.46849978
0.026459649 0.041524678 0.43552813
0.066559091 0.036351264 0.46661344
0.02729631 0.036990523 0.43367955
0.033257496 0.034981489 0.43441591
0.037068084 0.033116862 0.44068509
0.040263701 0.03183946 0.44524634
0.06213684 0.030951813 0.45736447
0.064498499 0.030229032 0.46019736
0.067494579 0.031728536 0.46462166
0.029776871 0.03442046 0.43419522
0.033860415 0.033913061 0.4372884
0.037827276 0.033478007 0.44015265
0.041750595 0.032965079 0.44318631
0.045364413 0.032341987 0.44634694
0.04930678 0.031840518 0.44936144
0.053367298 0.031364515 0.45236778
0.057333544 0.030830353 0.45547268
0.061296772 0.030215412 0.45877248
0.065342844 0.029796883 0.46163246
0.067318305 0.029403478 0.46348873
0.0045434455 0.17572826 0.48654592
0.0063123731 0.17763387 0.48886508
0.010302778 0.17715788 0.4918395
0.014061354 0.17651682 0.49510974
0.018138552 0.17608018 0.49802798
0.022127353 0.17560117 0.50100905
0.025851194 0.17503667 0.50407726
0.029937061 0.17457703 0.5070554
0.033832923 0.17399666 0.51024055
0.037652314 0.17360742 0.51292616
0.041684162 0.17309596 0.51600575
0.044522509 0.17109247 0.51761389
0.005596214 0.17116179 0.48441136
0.045751177 0.16580102 0.51539308
0.0063124504 0.16662236 0.48271823
0.046495501 0.16115488 0.51364553
0.0072717457 0.16196474 0.4806897
0.047405511 0.15672155 0.51171869
0.0080311988 0.15735541 0.47892871
0.048308928 0.15234335 0.50980967
0.0089116674 0.15285391 0.47702876
0.049025774 0.14763111 0.50808674
0.0098347701 0.14826958 0.47505954
0.049967565 0.14291207 0.50607061
0.010606276 0.14355484 0.47326517
0.050672956 0.13823605 0.5043686
0.011400856 0.13910469 0.47148538
0.051745769 0.13414896 0.50228858
0.012318818 0.13474211 0.46956009
0.052520931 0.12965068 0.50052589
0.013108036 0.13013351 0.46776059
0.053371154 0.12496131 0.49863362
0.014031233 0.12538275 0.46576324
0.054142334 0.12009605 0.49681437
0.014894152 0.12104551 0.46391371
0.055213731 0.11578255 0.49469814
0.015680728 0.11636802 0.46210605
0.055897318 0.11119305 0.49303901
0.01657078 0.11177489 0.46017826
0.056790542 0.10656227 0.49110076
0.017358733 0.10712455 0.45837337
0.057681575 0.1021531 0.48920259
0.01814582 0.10259215 0.45658946
0.058467772 0.097611733 0.48741832
0.019269759 0.09804675 0.45436603
0.05941619 0.092963926 0.48540556
0.019949492 0.093639351 0.45274252
0.060189821 0.088481501 0.48364753
0.020937463 0.089152686 0.45070547
0.061044276 0.083841741 0.48175809
0.021896662 0.084482059 0.44867486
0.061973531 0.079188071 0.4797692
0.022566102 0.08005093 0.4470607
0.062639236 0.074840859 0.478174
0.02347967 0.075288922 0.44507399
0.063654721 0.07027217 0.47608748
0.024357621 0.070634171 0.44315153
0.064444289 0.0657418 0.47430068
0.025247892 0.066171773 0.44124544
0.065184399 0.061065599 0.47255358
0.026007945 0.06163238 0.43949541
0.066110536 0.056467041 0.47057801
0.026876621 0.05712606 0.43760997
0.067079425 0.051937521 0.46855855
0.027771713 0.05264461 0.4356944
0.067922667 0.047304556 0.46668482
0.028499428 0.048005983 0.43396971
0.068681657 0.042844832 0.46494958
0.029407473 0.043336153 0.43200564
0.06954366 0.038203269 0.46305007
0.030382287 0.038855702 0.42998675
0.032673813 0.036755219 0.42983711
0.035960983 0.035838112 0.43356395
0.064953007 0.033138677 0.45332921
0.066542819 0.031002656 0.45924705
0.07048735 0.033801615 0.46108481
0.032646731 0.036307618 0.43091318
0.036693733 0.03583996 0.43389308
0.040364854 0.035372153 0.43670222
0.044390842 0.034888595 0.43971121
0.048459131 0.034401625 0.44274777
0.052350555 0.033889398 0.44576514
0.05636904 0.033361077 0.4488796
0.060080688 0.032800317 0.45193321
0.064236231 0.032314762 0.45500603
0.068340316 0.031895235 0.4578948
0.070520744 0.031564146 0.45969301
0.0076132054 0.1776121 0.48287728
0.010678293 0.17870843 0.48336869
0.014568614 0.17820545 0.48632962
0.01844677 0.17776451 0.48952752
0.022245603 0.17717406 0.49252263
0.026292607 0.17674726 0.49578214
0.030188812 0.17626286 0.49886245
0.033967547 0.1758232 0.50183654
0.037625629 0.17541766 0.50515908
0.041676927 0.17494355 0.5082761
0.045569066 0.17436047 0.51133019
0.047835663 0.17339896 0.51343101
0.008592641 0.17302872 0.48083508
0.012036979 0.17378742 0.48084629
0.015833555 0.17334595 0.48379919
0.019777542 0.17287004 0.48685694
0.023754865 0.17226721 0.48987055
0.027663363 0.17186974 0.49294299
0.03160803 0.17121938 0.49590197
0.035682544 0.1707374 0.49906641
0.039539479 0.17008989 0.50195301
0.043465268 0.16968058 0.50503325
0.047538355 0.1691515 0.50816971
0.048993811 0.16822179 0.511298
0.0093121054 0.16853121 0.47914484
0.012912775 0.16927357 0.47901574
0.016776297 0.16867036 0.48193309
0.02056187 0.16823426 0.48487979
0.0246036 0.16777405 0.48802894
0.028409891 0.16737625 0.49101493
0.032520462 0.16665614 0.49407423
0.036439113 0.16622864 0.49713814
0.040465709 0.16541344 0.50007242
0.04432486 0.16518526 0.50319958
0.048354972 0.16461797 0.50627798
0.049915481 0.16360414 0.50935388
0.01012285 0.16405828 0.47734019
0.013746835 0.16453752 0.47702348
0.01732759 0.16428477 0.4799017
0.021440173 0.16361664 0.48299229
0.025461446 0.16312905 0.4861086
0.029489873 0.16266602 0.48924494
0.033358138 0.1620995 0.49218717
0.03734912 0.16184363 0.49540982
0.041209858 0.16111612 0.49825406
0.045185022 0.16063507 0.5013352
0.049101062 0.1601005 0.50433594
0.05082823 0.15914389 0.50732368
0.011037691 0.15926258 0.47534615
0.014335599 0.1600934 0.4749904
0.018228674 0.15979293 0.47810504
0.0223497 0.15907271 0.4811731
0.026314402 0.15857363 0.48423514
0.0302692 0.15806147 0.48728135
0.034239426 0.15757304 0.49035409
0.038100839 0.15731516 0.49346626
0.042098254 0.15675944 0.49652365
0.046105035 0.15597662 0.49945965
0.049939509 0.15544407 0.50239271
0.051696319 0.15474768 0.50544363
0.011878358 0.15481217 0.47350645
0.015175311 0.15569286 0.47319391
0.019129481 0.15518996 0.47624487
0.023071129 0.15460292 0.47923738
0.026990671 0.15399472 0.48219916
0.031093888 0.153467 0.48536178
0.035048693 0.1531433 0.48851529
0.039165214 0.15246545 0.49160367
0.043058723 0.15200827 0.49462947
0.046999462 0.15123592 0.49751571
0.050818805 0.15100268 0.50060636
0.052618437 0.1500793 0.50351512
0.012650036 0.15013069 0.47171748
0.016100004 0.15099336 0.47129896
0.020069147 0.15069906 0.47448131
0.023981161 0.1500627 0.47742072
0.027972899 0.14945078 0.48044133
0.03213669 0.14888947 0.48363593
0.035938513 0.14852425 0.4866367
0.03994466 0.14799266 0.48971519
0.043827944 0.14741257 0.4926624
0.047875647 0.14674972 0.49570122
0.051535551 0.14638916 0.49858487
0.053391226 0.14538538 0.5016681
0.013580145 0.14578795 0.46977976
0.016963225 0.14641181 0.46941927
0.020953352 0.1461339 0.47262865
0.024884645 0.14547989 0.47557428
0.02876417 0.14500643 0.47857901
0.032848775 0.14449324 0.48173419
0.036838889 0.14394259 0.4847883
0.040786799 0.14344251 0.48783559
0.044708204 0.14302458 0.49090728
0.048658181 0.14232209 0.49384108
0.052524347 0.1419674 0.49690214
0.054190565 0.14091802 0.49992475
0.014266327 0.14098291 0.468081
0.017728694 0.14199749 0.46755227
0.02176326 0.14153275 0.47069281
0.025694169 0.14086947 0.47363284
0.02984288 0.14029241 0.47680578
0.033694386 0.13973659 0.47973996
0.037543371 0.13948002 0.48284239
0.041807625 0.13861485 0.4859488
0.045552131 0.13840047 0.48898706
0.049515802 0.13777681 0.4919773
0.053424548 0.13727978 0.49499327
0.055073686 0.13626328 0.49802256
0.01513855 0.13649474 0.466194
0.018716048 0.13743939 0.46579069
0.022675551 0.13681939 0.4687795
0.026618082 0.13658561 0.47197384
0.030601315 0.13569823 0.47483045
0.034509897 0.13524295 0.47787005
0.038645118 0.13485068 0.4811368
0.0425804 0.13426936 0.48412716
0.046347171 0.13372232 0.48699486
0.050207917 0.13329233 0.49000847
0.054290909 0.1327669 0.49315533
0.056000616 0.13194415 0.49601844
0.016110025 0.13214833 0.46420196
0.019555096 0.13283485 0.46387753
0.023589956 0.13233456 0.46699807
0.027469108 0.13195018 0.4700532
0.031476036 0.13122426 0.47302172
0.035335504 0.13081214 0.47604442
0.039441399 0.13007915 0.47909245
0.043437675 0.12963842 0.48221433
0.047265504 0.12923515 0.4852154
0.051060777 0.128847 0.48819757
0.055106636 0.12832317 0.49131399
0.056715652 0.12708257 0.49432796
0.017007854 0.1276063 0.46227264
0.020532666 0.12830597 0.46212435
0.024446081 0.12761942 0.46503633
0.028359428 0.12724636 0.46812677
0.032376427 0.12656899 0.47113144
0.036309302 0.12609726 0.47418216
0.040170129 0.12561537 0.4771663
0.044016678 0.12519774 0.48017499
0.047999721 0.12461577 0.48320529
0.051922064 0.12412772 0.48623785
0.05593019 0.12348987 0.48925751
0.05759532 0.12290373 0.4924809
0.017909156 0.1229958 0.46032733
0.021400861 0.12369133 0.46022999
0.025321983 0.12329835 0.46331564
0.029164499 0.12274823 0.4662455
0.033093996 0.1222479 0.46927708
0.037196457 0.12159058 0.47236532
0.041170713 0.12110278 0.47544181
0.044854064 0.12074768 0.47834834
0.048984487 0.12004012 0.48143154
0.052700497 0.11970127 0.48437488
0.056735221 0.1192506 0.48752359
0.058421317 0.11797923 0.49055099
0.018692462 0.11832421 0.45852491
0.022359801 0.11890616 0.45831519
0.025919508 0.11872277 0.46121511
0.029929776 0.11806459 0.46422502
0.033895053 0.11773062 0.46738154
0.03800885 0.11714329 0.47051916
0.041909561 0.11653984 0.47346774
0.04592194 0.11608465 0.47659498
0.049594101 0.11558726 0.47941107
0.05375864 0.11506405 0.48262802
0.0577618 0.11438628 0.48562077
0.059437346 0.11351956 0.48854154
0.019490402 0.11370829 0.45671287
0.022865221 0.11454367 0.45625824
0.026933962 0.11403583 0.45940307
0.03084866 0.11345777 0.46237794
0.034774899 0.1131192 0.46549886
0.038856816 0.11237906 0.46852258
0.042803381 0.11190838 0.47158545
0.04663128 0.11158462 0.47463185
0.050576556 0.11098485 0.47762015
0.054643426 0.11035047 0.48069137
0.058578026 0.10994001 0.48377845
0.060138211 0.10896341 0.48686749
0.020359099 0.10913029 0.45481533
0.023947101 0.11005111 0.45461375
0.027897296 0.10947809 0.45762143
0.031877652 0.10901991 0.46071994
0.035780855 0.10843842 0.46368316
0.039696701 0.10800412 0.46674082
0.043640897 0.10750745 0.46978691
0.047539938 0.1067595 0.47265184
0.051503442 0.10631682 0.47574496
0.055449642 0.10597017 0.47887814
0.059461005 0.10526521 0.48186234
0.061146367 0.10461473 0.48468873
0.021331068 0.10483132 0.45283064
0.024831772 0.10557576 0.45281261
0.028630452 0.10506901 0.45573014
0.032726157 0.10439872 0.45880526
0.036707785 0.1038363 0.46184552
0.040616963 0.10342737 0.464912
0.044466313 0.1029181 0.46787086
0.048385773 0.10250744 0.47094506
0.052287526 0.10165355 0.47375196
0.056367934 0.10130996 0.47700015
0.060273733 0.10081594 0.48001534
0.061925843 0.10007022 0.48289496
0.02209904 0.10037337 0.45108405
0.025570285 0.1008611 0.4507519
0.029517366 0.10025559 0.45373845
0.033478558 0.099888518 0.45687267
0.037526708 0.099427342 0.46002668
0.041399732 0.098841108 0.46296173
0.045366455 0.098375492 0.46604452
0.049253602 0.097805776 0.46900088
0.053252988 0.097302414 0.47208974
0.057081185 0.096755505 0.47500932
0.061117381 0.096375093 0.47819924
0.062737271 0.095426075 0.48113611
0.022874996 0.095679171 0.44928738
0.026466642 0.096298724 0.44891107
0.030481491 0.095720604 0.45197043
0.034507148 0.09516374 0.455051
0.03835224 0.094687007 0.4580248
0.042253066 0.094287381 0.46108952
0.046283003 0.093929395 0.46428695
0.050107505 0.093326092 0.46717131
0.054102711 0.092756256 0.47021878
0.057988334 0.092080079 0.47311327
0.061923947 0.091736592 0.47623929
0.063552737 0.090768039 0.47925791
0.023754578 0.091054179 0.44736782
0.027377881 0.091445848 0.44691747
0.03131127 0.091292202 0.45014971
0.035246655 0.090693064 0.45313004
0.039169822 0.090205371 0.45616347
0.043083113 0.089719646 0.45918971
0.04702979 0.08914385 0.46219286
0.051045734 0.088713594 0.46533731
0.054904964 0.088261396 0.468337
0.058912676 0.087672904 0.47138441
0.062740475 0.087267235 0.47438407
0.064482361 0.0860148 0.47728968
0.024723427 0.086588696 0.44535917
0.02820316 0.087098211 0.4451389
0.032012291 0.086627409 0.44808573
0.036087289 0.086149707 0.45125303
0.039934244 0.085647136 0.45421368
0.043927763 0.085149966 0.45730111
0.047896538 0.084686607 0.4603869
0.05182026 0.084249973 0.4634499
0.055573434 0.083779663 0.46634978
0.059784647 0.083032534 0.46947864
0.063579276 0.082603157 0.47243679
0.065284014 0.081606738 0.47552067
0.025461532 0.082033403 0.44363499
0.029026633 0.082606561 0.44327685
0.032854337 0.08211796 0.44622922
0.036690976 0.081634365 0.44919199
0.040757414 0.081098914 0.45231915
0.044957448 0.080592915 0.45557585
0.048758168 0.080183059 0.45855027
0.052772678 0.079662494 0.46164212
0.056694955 0.079024374 0.46458918
0.060633462 0.078466788 0.46759579
0.064535052 0.078096136 0.47067767
0.066112116 0.076871313 0.47370762
0.026535068 0.077481791 0.44147596
0.029984044 0.07791809 0.44141579
0.033815689 0.077538766 0.44443369
0.037761942 0.077048749 0.4474853
0.041599337 0.076533504 0.45043069
0.045582119 0.076052807 0.45351842
0.04951873 0.07547798 0.45651361
0.053642619 0.074950688 0.45969394
0.057422977 0.074341387 0.46253762
0.061384823 0.073973648 0.46567202
0.065377921 0.073555723 0.46880421
0.066984177 0.072558194 0.47173762
0.027183615 0.072887875 0.43986157
0.03065202 0.073432177 0.43942577
0.034520939 0.072938532 0.44241005
0.038416959 0.07257542 0.44549149
0.042301945 0.072117813 0.44850987
0.046473127 0.071432233 0.45163998
0.05048988 0.070950896 0.45475602
0.054498699 0.070435628 0.45784608
0.058400314 0.069932029 0.4608523
0.06227072 0.069391951 0.46381137
0.065963306 0.069073156 0.46674639
0.06795156 0.067974314 0.46975332
0.028049245 0.06828548 0.4379639
0.031478904 0.068884306 0.43753457
0.03546305 0.068494946 0.44067547
0.039381489 0.067878306 0.44363153
0.04329557 0.067527182 0.44673505
0.047371008 0.066798232 0.44975969
0.051300593 0.066406481 0.45285317
0.055275384 0.065887056 0.45591211
0.059235752 0.065446645 0.4590039
0.063305095 0.064829186 0.46208686
0.067027867 0.064454451 0.46501547
0.068602502 0.063200943 0.46821502
0.028893255 0.063760534 0.43610734
0.032610033 0.064387366 0.43592918
0.036387466 0.063972302 0.43888098
0.040377695 0.063448414 0.44195041
0.044258837 0.0630541 0.44500154
0.048085909 0.062414601 0.44786748
0.052143078 0.061932489 0.4510172
0.056119904 0.06152796 0.45414329
0.059931327 0.060853094 0.45697588
0.063878238 0.060321189 0.46000421
0.06789723 0.059737757 0.46306401
0.069586948 0.058950193 0.46614051
0.029723862 0.05917231 0.43425754
0.033395592 0.059755579 0.43395534
0.037158482 0.059430733 0.43694621
0.041098222 0.058911964 0.43997598
0.04512931 0.058200292 0.44297299
0.049060795 0.057916708 0.44612968
0.052899558 0.057466932 0.44911346
0.056999471 0.056644998 0.45210582
0.060823645 0.056428351 0.45521
0.064763114 0.055819184 0.45818806
0.068645388 0.055314109 0.46117711
0.070322305 0.054270968 0.46435821
0.030793874 0.054484531 0.43208018
0.034239274 0.055243134 0.43209851
0.038085151 0.054954067 0.4351798
0.042026926 0.054391727 0.43818644
0.045886304 0.053722113 0.44106251
0.049884442 0.053264052 0.44417608
0.053756852 0.052804634 0.4471828
0.057740089 0.052300811 0.45025778
0.061693445 0.05181919 0.45332015
0.065671995 0.051355213 0.45641384
0.06949307 0.050779715 0.45931116
0.071337938 0.049726099 0.46228114
0.03144256 0.049805924 0.43045136
0.035070185 0.050793976 0.43026689
0.038906612 0.050310045 0.4332293
0.042814422 0.049748495 0.43620774
0.046817899 0.0491236 0.43923086
0.050707817 0.048664257 0.4422524
0.054735921 0.048187226 0.44538048
0.058711495 0.047697335 0.44845691
0.062635779 0.047141701 0.45145261
0.066673577 0.046545073 0.45452079
0.070370018 0.046183512 0.45743471
0.072073996 0.045228422 0.46061203
0.032317851 0.045390144 0.42857254
0.035868593 0.046188027 0.42831862
0.039734311 0.045742244 0.43132746
0.043685418 0.044975489 0.43422562
0.047726113 0.044666767 0.43746015
0.051518906 0.044074252 0.44032389
0.055676579 0.043622613 0.44357577
0.059605651 0.042997286 0.44653586
0.063321769 0.042655677 0.44947773
0.067366086 0.041844919 0.4524295
0.071206838 0.041522458 0.45548749
0.073056206 0.040788919 0.45863035
0.033323381 0.040875435 0.42650801
0.036597528 0.041493937 0.4264659
0.040464859 0.041061595 0.42951384
0.044450842 0.040573835 0.4323658
0.048394658 0.04020305 0.43548322
0.052661445 0.039616898 0.43875065
0.056336191 0.039081633 0.44154736
0.060342234 0.038725555 0.44472566
0.06427402 0.038143143 0.44771248
0.068120845 0.037387908 0.45061994
0.072114214 0.03696233 0.4537625
0.073736548 0.035966322 0.45690185
0.035760291 0.038378552 0.42729521
0.039439205 0.03779155 0.43039769
0.043454889 0.037371442 0.43324766
0.047760289 0.036936685 0.43626523
0.051547632 0.036368743 0.43937087
0.055486031 0.035867259 0.44238344
0.059446335 0.035303503 0.4455575
0.063330427 0.03477253 0.44861716
0.067237943 0.034279361 0.4515956
0.071178988 0.033807114 0.45453867
0.07392396 0.033737317 0.45595831
