# .PCD v0.7 - Point Cloud Data file format
VERSION 0.7
FIELDS x y z
SIZE 4 4 4
TYPE F F F
COUNT 1 1 1
WIDTH 1294
HEIGHT 1
VIEWPOINT 0 0 0 1 0 0 0
POINTS 1294
DATA ascii
0.30292073 -0.091748804 0.91438013
0.30531633 -0.091355592 0.91542935
0.31016219 -0.090534821 0.91635996
0.31499913 -0.089760549 0.91729498
0.31989866 -0.08909139 0.91811913
0.32475451 -0.08834859 0.91902333
0.32957107 -0.087611735 0.91988629
0.33459619 -0.086679481 0.92089611
0.33950201 -0.086076573 0.92169714
0.34426743 -0.085191876 0.92263353
0.34891963 -0.084446132 0.92352074
0.35212481 -0.083926834 0.92391461
0.30410638 -0.096162409 0.91193086
0.30661127 -0.095980361 0.91271853
0.31141126 -0.095110834 0.91366965
0.31615356 -0.094266251 0.91460019
0.32107633 -0.093552917 0.91546291
0.32597652 -0.092682958 0.91642272
0.33071411 -0.091712162 0.91743261
0.33568126 -0.091085099 0.91824454
0.34059364 -0.090392038 0.91909355
0.34533623 -0.089438565 0.92009294
0.35015526 -0.088714033 0.92095405
0.35323375 -0.087827593 0.92139435
0.30519003 -0.099958993 0.90948445
0.30769551 -0.10000535 0.91026598
0.31245866 -0.099329814 0.91109145
0.31730607 -0.098449945 0.91205311
0.32226309 -0.097545229 0.91303962
0.32704493 -0.096781328 0.91392249
0.33175933 -0.09601105 0.91480374
0.33676946 -0.095219865 0.91572297
0.34158638 -0.094360977 0.91666877
0.34639442 -0.093656525 0.91751629
0.35132995 -0.092680819 0.91854584
0.35446066 -0.092275485 0.91876912
0.30635047 -0.10420987 0.90702671
0.30871823 -0.1040522 0.90779454
0.31358323 -0.10352566 0.90853435
0.31833661 -0.10268478 0.90946352
0.32338277 -0.10155158 0.91060185
0.32828936 -0.10104895 0.91133004
0.33295536 -0.10017119 0.9122752
0.33794585 -0.099317804 0.91323209
0.34272224 -0.098500952 0.91414791
0.34749749 -0.097919643 0.91491491
0.35251102 -0.096914075 0.91596985
0.35570082 -0.096259564 0.91629446
0.30759647 -0.10860623 0.90424079
0.30992845 -0.1082325 0.90525442
0.31499282 -0.10760844 0.90607256
0.31979543 -0.10677411 0.90700167
0.32445392 -0.10591234 0.90793604
0.32933047 -0.10521153 0.90878701
0.33403459 -0.10431045 0.90975004
0.33898038 -0.10341647 0.91072881
0.34369668 -0.10281651 0.9115026
0.34875122 -0.10192317 0.91249013
0.35384771 -0.10109025 0.91344291
0.35680717 -0.10069284 0.91374648
0.3086164 -0.11230485 0.90204787
0.31123149 -0.11244323 0.90270281
0.31599444 -0.11164705 0.90360451
0.32081392 -0.11097285 0.90443385
0.32580742 -0.11025545 0.90530509
0.33042347 -0.10939337 0.90623611
0.3352313 -0.10837922 0.90727925
0.34027559 -0.10775425 0.90809631
0.34514499 -0.10687603 0.90905875
0.34992081 -0.10594866 0.91004443
0.3545129 -0.10536961 0.91079462
0.35785055 -0.1050189 0.91108119
0.30982295 -0.11666893 0.89944375
0.31218454 -0.11652583 0.90020293
0.31700027 -0.11594418 0.9009735
0.3218323 -0.11509897 0.90191191
0.32684943 -0.11443539 0.90275109
0.33170211 -0.11331806 0.90386325
0.33651078 -0.11283651 0.90456992
0.34158099 -0.11189848 0.90558696
0.34638777 -0.11096437 0.90657949
0.35123241 -0.11021378 0.9074592
0.35589364 -0.10935339 0.90839291
0.35917217 -0.10907562 0.90863329
0.31112203 -0.12122095 0.89651132
0.31337416 -0.12070905 0.89765924
0.31848302 -0.12021448 0.89839929
0.32318699 -0.11935228 0.89933777
0.3280232 -0.1184642 0.90030366
0.33273733 -0.11761753 0.90123314
0.33775857 -0.11686288 0.90213025
0.34264499 -0.1160447 0.90305614
0.3474316 -0.11523712 0.90396702
0.35238418 -0.11428577 0.90498263
0.35725197 -0.11350258 0.90588486
0.36034843 -0.11281715 0.90617675
0.31228301 -0.12538308 0.89397317
0.31455535 -0.12503284 0.89502603
0.31942546 -0.12415849 0.89598608
0.32434589 -0.12323919 0.89697874
0.32920581 -0.12256624 0.8978107
0.33409724 -0.12172441 0.89875197
0.33885309 -0.12089851 0.89967185
0.34393537 -0.12011846 0.90059006
0.34866041 -0.11938385 0.90144968
0.35336024 -0.11852708 0.90238434
0.35823727 -0.11772919 0.90329665
0.36139947 -0.1171804 0.90366638
0.31341302 -0.12958939 0.89163864
0.31565115 -0.12908739 0.89255583
0.32060263 -0.12837239 0.89342201
0.32534534 -0.12755397 0.89433604
0.33031827 -0.12676986 0.89524764
0.33501378 -0.12576963 0.89627266
0.33990705 -0.1249958 0.89717108
0.34488225 -0.12428682 0.89803547
0.34964615 -0.12354477 0.89890301
0.3544943 -0.12271821 0.89983106
0.35955364 -0.12188711 0.9007796
0.36269629 -0.12141138 0.90098488
0.31454384 -0.13342673 0.8889764
0.31686753 -0.13321999 0.89004636
0.32177207 -0.13263434 0.89082688
0.32648394 -0.13177523 0.89176404
0.33135054 -0.13093285 0.89270359
0.33644488 -0.12994206 0.89375597
0.34103921 -0.12911811 0.89466113
0.34605348 -0.12866805 0.89536512
0.35084477 -0.12769273 0.89638239
0.35571295 -0.12702177 0.89721376
0.36051622 -0.1260704 0.89821684
0.36383387 -0.12571079 0.89836478
0.31571698 -0.13755545 0.88634408
0.31779328 -0.13742352 0.88746774
0.32289857 -0.13676859 0.88830882
0.32753766 -0.13595748 0.88920957
0.33250719 -0.13518126 0.89011598
0.33749115 -0.13412425 0.89120096
0.34239796 -0.13350078 0.89200556
0.34728354 -0.132824 0.89284205
0.3519721 -0.13179299 0.89388591
0.35681573 -0.13105699 0.89475632
0.36168271 -0.13019736 0.89570677
0.3648496 -0.12938491 0.89610595
0.31690168 -0.14199704 0.88392448
0.31903386 -0.14148307 0.88500649
0.32404718 -0.14078389 0.88586783
0.32897371 -0.13988128 0.88685048
0.33386663 -0.1392021 0.88768911
0.33867824 -0.1383106 0.88865507
0.3433423 -0.13743883 0.88959622
0.34829023 -0.1368369 0.89039069
0.35340828 -0.13609439 0.89128816
0.35799673 -0.13507602 0.89231563
0.3630445 -0.13437942 0.89317822
0.3659417 -0.13371897 0.89356196
0.31798196 -0.14584197 0.88153821
0.32058737 -0.1457537 0.882438
0.32541257 -0.1448817 0.88339281
0.32999599 -0.14427367 0.88416064
0.33477747 -0.14342076 0.88509971
0.33972952 -0.14259204 0.88603777
0.34472457 -0.141792 0.88696128
0.34955302 -0.14084411 0.88796437
0.35445765 -0.14023343 0.88876069
0.35927889 -0.13926001 0.88977921
0.36405545 -0.13869995 0.89053285
0.36709005 -0.13775253 0.89108229
0.31914684 -0.1499901 0.87896675
0.32123846 -0.14986959 0.87989181
0.32627368 -0.14910558 0.88079596
0.33115873 -0.14838567 0.88165969
0.33613455 -0.14757532 0.88258815
0.34074754 -0.14670269 0.88352555
0.34571171 -0.14588645 0.88445675
0.35055742 -0.14517841 0.8853097
0.35537952 -0.14424051 0.88630587
0.36024243 -0.1436004 0.88711733
0.36525559 -0.1427743 0.88805884
0.36839497 -0.14224195 0.88836217
0.3203367 -0.15441588 0.87650585
0.32281509 -0.15392672 0.87746018
0.32757932 -0.15335782 0.87821835
0.33250558 -0.15249428 0.87917632
0.33732688 -0.15189895 0.87995595
0.34190476 -0.15072314 0.881082
0.3467072 -0.14987627 0.88201904
0.35163075 -0.1493378 0.88277131
0.35677132 -0.14850031 0.88373071
0.36139566 -0.14768371 0.88463372
0.36636829 -0.14712459 0.88540316
0.36944163 -0.14617625 0.88605154
0.32144678 -0.15844062 0.87411845
0.32402766 -0.15817335 0.87487835
0.32860821 -0.15728459 0.87582332
0.33355001 -0.15673086 0.87658674
0.33840933 -0.15581876 0.87756974
0.34346566 -0.15486768 0.87859386
0.34826434 -0.15410012 0.87948048
0.35312548 -0.15344232 0.88030291
0.35786435 -0.15262665 0.88121492
0.36303312 -0.15189058 0.88211256
0.36737525 -0.1510967 0.8829776
0.37060255 -0.15026726 0.88348943
0.32250446 -0.16206852 0.87166232
0.32515922 -0.16233435 0.8723439
0.3299689 -0.1615693 0.8732298
0.33498678 -0.16074893 0.8741681
0.33973712 -0.16011208 0.87496805
0.34450847 -0.1593166 0.87586999
0.34955165 -0.15833189 0.87691426
0.35422245 -0.15766895 0.87772405
0.35885367 -0.15685692 0.87862474
0.36366051 -0.15576753 0.87971538
0.3687534 -0.15516844 0.88052011
0.37173927 -0.15444356 0.88093084
0.32382059 -0.16683391 0.86882609
0.32618743 -0.16653448 0.86977601
0.33105457 -0.16585259 0.87061417
0.33580297 -0.16477403 0.87169307
0.34073991 -0.16419959 0.87246925
0.34560978 -0.16323376 0.87348706
0.3504467 -0.16259161 0.87429762
0.35521045 -0.16176063 0.87522131
0.36011806 -0.16087051 0.87619448
0.36503983 -0.16003336 0.87713534
0.36977834 -0.15929303 0.87799972
0.37300503 -0.15833011 0.8785435
0.32494682 -0.17077306 0.86627752
0.32725018 -0.17057422 0.86731237
0.33202893 -0.16994235 0.86811155
0.3368426 -0.16900523 0.86910653
0.34193817 -0.16818701 0.87004995
0.34662095 -0.16754909 0.87084496
0.35166955 -0.16687295 0.87169468
0.35653147 -0.16586182 0.87274051
0.36116648 -0.16502513 0.87365705
0.36617112 -0.16431636 0.87452376
0.37086692 -0.16357911 0.8753826
0.37403849 -0.16269776 0.87593198
0.32611367 -0.17496167 0.86373121
0.32849416 -0.17494208 0.86465657
0.33340836 -0.17398307 0.86567378
0.33840409 -0.17334962 0.86649215
0.34292075 -0.17229378 0.86753726
0.34815845 -0.17163472 0.86839205
0.3528775 -0.17095099 0.86921901
0.35770321 -0.16988514 0.87029636
0.36246049 -0.16924793 0.87109709
0.36740094 -0.16845718 0.87201023
0.37207615 -0.16770512 0.8728767
0.37526619 -0.16679136 0.87332445
0.32727513 -0.17912981 0.86119574
0.32976669 -0.17891353 0.86225361
0.33434963 -0.17827414 0.86304116
0.33934313 -0.17733657 0.86405146
0.34423047 -0.17650945 0.86498314
0.34915051 -0.17588905 0.86578691
0.35388422 -0.17500323 0.86674279
0.35869369 -0.17424008 0.8676275
0.36375514 -0.17344683 0.86855233
0.36848748 -0.17282227 0.86934298
0.37330654 -0.17177865 0.87040573
0.37647313 -0.17114078 0.87078631
0.32850435 -0.18361261 0.85857487
0.33078903 -0.18318468 0.85964036
0.33559248 -0.18244281 0.86051112
0.34027654 -0.18168536 0.86138177
0.34538555 -0.18084136 0.8623426
0.35020986 -0.18019633 0.86315393
0.35497198 -0.17930286 0.86411703
0.35984105 -0.17833923 0.8651334
0.3647047 -0.1777178 0.86593306
0.36960143 -0.17680314 0.86692083
0.37450767 -0.17584199 0.86793876
0.3775779 -0.17530574 0.86826277
0.32948536 -0.18707252 0.85638016
0.33196646 -0.18738481 0.85708499
0.33674568 -0.18645501 0.85807246
0.34157377 -0.18592054 0.85881424
0.3465575 -0.1848232 0.85992467
0.35149568 -0.18424043 0.86070621
0.35625839 -0.18325214 0.86172926
0.36099619 -0.18256892 0.86255747
0.36590004 -0.18174264 0.86348999
0.37065899 -0.18092871 0.86440253
0.37571734 -0.18006286 0.86537296
0.37881076 -0.17926446 0.86587864
0.33089653 -0.19225198 0.85340041
0.33330297 -0.1912957 0.85472566
0.33803865 -0.19055991 0.85558695
0.3427487 -0.18996371 0.85635781
0.34773424 -0.18900059 0.85738361
0.35255018 -0.18822801 0.85827482
0.3573018 -0.1875592 0.8590951
0.36214709 -0.18660876 0.86010116
0.36698946 -0.18604204 0.86086446
0.37209013 -0.18519515 0.86182648
0.37656873 -0.18438116 0.8627156
0.37992054 -0.18378392 0.8630318
0.33193144 -0.19594024 0.85111862
0.33439618 -0.19550498 0.85215747
0.33903605 -0.19486696 0.8529489
0.34399128 -0.19388252 0.85398567
0.34898314 -0.1931154 0.85488814
0.35391173 -0.1924026 0.85575098
0.35866708 -0.19171984 0.85658038
0.36343911 -0.1907692 0.85758042
0.36828232 -0.19014433 0.85838056
0.37310514 -0.18918183 0.85939234
0.37812963 -0.18840498 0.86030376
0.38106653 -0.18751942 0.86083812
0.33305544 -0.20011541 0.84878892
0.33555242 -0.19975206 0.84957063
0.34029311 -0.19904186 0.85041612
0.34520683 -0.19814648 0.8513931
0.35007611 -0.1974797 0.85222197
0.35491061 -0.19648267 0.85325652
0.35979563 -0.19590521 0.85403025
0.36471939 -0.19494194 0.85505092
0.36940241 -0.19411215 0.85596716
0.37423894 -0.19351092 0.85675186
0.37909824 -0.19245985 0.85782266
0.3824161 -0.19224519 0.8578676
0.33423504 -0.20418318 0.84606862
0.33650371 -0.20409325 0.8469072
0.34151176 -0.20304148 0.84799093
0.34631124 -0.20240557 0.8487944
0.35121429 -0.20165721 0.84967756
0.35594872 -0.20068899 0.8506856
0.36085159 -0.19989324 0.85159868
0.36568779 -0.19915354 0.85247082
0.370745 -0.1984549 0.8533355
0.37553322 -0.1976665 0.8542344
0.38019603 -0.19691455 0.85509974
0.38336271 -0.19590814 0.85575867
0.33530435 -0.20803812 0.84374952
0.3378697 -0.20816053 0.84445155
0.34289044 -0.2073112 0.84540838
0.34751886 -0.20654219 0.84628165
0.35222414 -0.20569825 0.84720868
0.3571493 -0.20494829 0.84809476
0.36184174 -0.20395046 0.84911793
0.36682311 -0.20322505 0.84999317
0.37171569 -0.20255896 0.85082352
0.37665981 -0.20175831 0.85174322
0.3813189 -0.20087944 0.85268843
0.38444638 -0.20002027 0.85321444
0.33638835 -0.2121003 0.84153396
0.33921096 -0.21218345 0.84202182
0.3436341 -0.21133453 0.84292841
0.34841359 -0.21055953 0.84381807
0.35322967 -0.20981327 0.84469271
0.35823059 -0.20902233 0.84561098
0.3631421 -0.20817047 0.84656024
0.36793068 -0.20746943 0.847404
0.37270871 -0.206671 0.84830838
0.37769601 -0.20587918 0.84922606
0.38266867 -0.20502611 0.85018122
0.38587773 -0.20464376 0.85030311
0.33755434 -0.21609952 0.8388263
0.34014598 -0.21657132 0.839315
0.34483844 -0.21540645 0.84045631
0.3498933 -0.21484031 0.84123707
0.35472101 -0.21391852 0.84222353
0.35963699 -0.21308079 0.84316427
0.36438584 -0.21246208 0.84395266
0.36906803 -0.21145836 0.84497869
0.37400734 -0.21069512 0.84587431
0.37885875 -0.20988749 0.84679067
0.38366145 -0.20922519 0.84757948
0.3867788 -0.20842063 0.8481673
0.34015581 -0.21832165 0.837695
0.34578401 -0.21731681 0.83862132
0.35033703 -0.21661624 0.83955526
0.3552793 -0.21582089 0.84051168
0.36015975 -0.21491094 0.84125149
0.36468703 -0.2142501 0.8422389
0.36972958 -0.21345553 0.84324259
0.37434846 -0.21262898 0.84399962
0.37962964 -0.21171299 0.84491301
0.38381603 -0.21112494 0.84586394
0.38709557 -0.21079347 0.84682119
0.30314982 -0.090181917 0.9117856
0.3049666 -0.087852955 0.9136796
0.30980298 -0.08693333 0.91438329
0.31464532 -0.086214103 0.9154191
0.31953612 -0.085369982 0.91627181
0.32438701 -0.084749579 0.91747385
0.32930827 -0.083876237 0.91829252
0.3343139 -0.082894109 0.91897106
0.33879262 -0.08224754 0.91995972
0.34377903 -0.081319615 0.92071849
0.34872508 -0.080583557 0.92177409
0.35258919 -0.082069799 0.92122662
0.30427238 -0.094344571 0.90945244
0.35384756 -0.086445384 0.91845566
0.30546707 -0.098608203 0.90682364
0.35493064 -0.090424441 0.91617191
0.30662119 -0.10274937 0.90430355
0.3560946 -0.094470009 0.91351551
0.30778649 -0.10701405 0.90183204
0.35723105 -0.098710537 0.91117674
0.30891839 -0.11082539 0.89914131
0.35845733 -0.10300238 0.90840429
0.31016341 -0.11535529 0.89647758
0.35959077 -0.10720576 0.90604883
0.31122729 -0.11924522 0.89421821
0.36069015 -0.11098365 0.90350205
0.31238988 -0.12361684 0.89185512
0.36190173 -0.11527722 0.90080941
0.31358418 -0.12782276 0.88917762
0.36302096 -0.1192483 0.8983261
0.31477305 -0.13180339 0.88633162
0.36419949 -0.12350604 0.89577806
0.31586346 -0.13582188 0.88404351
0.36542127 -0.12793015 0.89314538
0.31705621 -0.14010409 0.88144118
0.36650646 -0.13187997 0.89082503
0.31820679 -0.14419568 0.87889653
0.36763838 -0.13605231 0.8884505
0.31936675 -0.14846307 0.87645602
0.36879385 -0.14025897 0.88598067
0.32052657 -0.15271896 0.87400609
0.36993185 -0.14430973 0.88346726
0.32169417 -0.15679458 0.87135684
0.37113404 -0.14857966 0.88080388
0.32286221 -0.16099086 0.86881089
0.372293 -0.15269646 0.87823677
0.32401064 -0.16497532 0.86618376
0.37347838 -0.1570123 0.87570316
0.32514143 -0.1691484 0.8638159
0.37465137 -0.16117617 0.87310243
0.32631788 -0.17345665 0.86132342
0.37580198 -0.1651385 0.8704443
0.32748434 -0.17741103 0.85857373
0.3769325 -0.16937551 0.86813396
0.32863957 -0.18173033 0.85620391
0.37809992 -0.17367154 0.86567891
0.32977805 -0.18569279 0.85361052
0.37927318 -0.17769425 0.86295295
0.33088815 -0.18973441 0.85123789
0.38043118 -0.18187822 0.86044973
0.33211347 -0.19413932 0.84856957
0.38158995 -0.18618304 0.85804838
0.33325735 -0.19840503 0.84621322
0.38276827 -0.19015135 0.85524774
0.33441025 -0.20262495 0.84376878
0.38388649 -0.19429773 0.85292357
0.33554327 -0.20650586 0.84113288
0.38504201 -0.19844277 0.85039943
0.33667013 -0.21066521 0.83877403
0.3862364 -0.20259327 0.84767288
0.33789301 -0.21485664 0.8359316
0.34422752 -0.21693639 0.83728337
0.36217827 -0.21241835 0.83807993
0.36716419 -0.21178296 0.83931923
0.37540019 -0.21152838 0.84267271
0.37870908 -0.21141191 0.8439967
0.38430476 -0.2087982 0.84226429
0.38741088 -0.20709813 0.84536326
0.34086147 -0.21670605 0.83536327
0.34582686 -0.21564803 0.83589864
0.3508839 -0.21488251 0.83695674
0.35556331 -0.21422112 0.83801293
0.36000979 -0.21342517 0.8387413
0.36490321 -0.21266337 0.8397305
0.36986014 -0.21170716 0.84042925
0.37486404 -0.21102485 0.84159976
0.37967896 -0.21008438 0.84225941
0.38479924 -0.20945938 0.84357727
0.38755399 -0.20891409 0.84394276
0.30349287 -0.08764188 0.90773034
0.30545154 -0.085280992 0.90967524
0.31019971 -0.0843141 0.91026092
0.31506068 -0.083521985 0.91118544
0.31990388 -0.082815006 0.9122417
0.32488146 -0.081886247 0.9129951
0.32988358 -0.081098154 0.91399086
0.33447737 -0.080360636 0.91488278
0.33949193 -0.079497486 0.91576087
0.3441703 -0.078584336 0.91640288
0.34906116 -0.077924281 0.91755813
0.3529228 -0.079420723 0.91705155
0.3046625 -0.091694087 0.90504968
0.35411519 -0.083718218 0.91463816
0.30578923 -0.096006513 0.90282559
0.35527521 -0.087711357 0.91195697
0.30702823 -0.10016557 0.89986891
0.35644898 -0.091999412 0.90946084
0.30816939 -0.10432383 0.89743292
0.35760918 -0.096227229 0.90698427
0.30930907 -0.10824923 0.89480054
0.3587262 -0.10003207 0.90436721
0.310453 -0.11245447 0.89239097
0.35988772 -0.10436694 0.90197742
0.31163427 -0.11672015 0.88983536
0.36106059 -0.10843913 0.899297
0.31275529 -0.12091475 0.88753855
0.36221254 -0.11242783 0.89665473
0.31385973 -0.12485912 0.8851108
0.36337301 -0.11671773 0.89423114
0.31504539 -0.12879145 0.88223952
0.36451742 -0.12070924 0.89163166
0.31623578 -0.13323908 0.87979478
0.36569756 -0.12506437 0.88916039
0.31740934 -0.13745336 0.87723517
0.36688516 -0.12928122 0.88652825
0.31850708 -0.14145973 0.87489748
0.36799717 -0.13336492 0.88418221
0.31972471 -0.14577797 0.87219423
0.3691822 -0.13748279 0.88147706
0.32086128 -0.14991507 0.86976409
0.37034795 -0.14173734 0.87899441
0.32202747 -0.15420651 0.86731136
0.37150225 -0.14589886 0.87649119
0.32315466 -0.15816271 0.86477268
0.37263688 -0.15009728 0.87412518
0.32432315 -0.16215029 0.86204135
0.3738409 -0.15420735 0.87131184
0.32550174 -0.16652372 0.85959446
0.3749795 -0.15844478 0.86895907
0.32659209 -0.17052451 0.85729122
0.37617463 -0.16283494 0.86643857
0.3278203 -0.1747168 0.8544212
0.37730896 -0.1667323 0.86381024
0.32896161 -0.17899273 0.85208756
0.37846339 -0.17086489 0.86128104
0.3301326 -0.18300505 0.84936446
0.37961656 -0.1748715 0.85864806
0.33129099 -0.18724573 0.84690899
0.38079584 -0.1792891 0.85623628
0.33242333 -0.19129336 0.84442294
0.38194782 -0.18348394 0.85377467
0.33360934 -0.19552805 0.84181499
0.38306427 -0.18753049 0.85137236
0.33478087 -0.19985081 0.83936137
0.38426575 -0.19167125 0.84859955
0.33596873 -0.20412906 0.83678162
0.38540798 -0.19575624 0.84609348
0.33710319 -0.20802836 0.83415425
0.38660467 -0.20009029 0.84351581
0.33826524 -0.21240252 0.83179617
0.3639721 -0.21008976 0.83507496
0.37151283 -0.20873471 0.83630168
0.37504533 -0.20805083 0.83679563
0.3797743 -0.2085894 0.83984643
0.38456875 -0.20783179 0.84079713
0.3877354 -0.20422353 0.84111333
0.34159955 -0.21386528 0.83103317
0.34646982 -0.21303117 0.83189297
0.35111576 -0.21235225 0.83290499
0.35568768 -0.21146837 0.83354634
0.36067927 -0.21069676 0.83456433
0.36574405 -0.2099741 0.8356964
0.37021178 -0.20923552 0.83652878
0.37519014 -0.20844936 0.83751684
0.380097 -0.2074706 0.83815569
0.38487801 -0.20655911 0.8388474
0.38774648 -0.20646118 0.84000015
0.30384377 -0.084801413 0.90336978
0.30591944 -0.082475573 0.90527946
0.31042784 -0.081686571 0.90604764
0.31545472 -0.080884799 0.90703231
0.32022831 -0.080079019 0.90789431
0.32499745 -0.079241991 0.90870297
0.32991245 -0.078332394 0.90945917
0.33470598 -0.077591076 0.91043633
0.33960837 -0.076838374 0.91144454
0.34438685 -0.076114014 0.91244268
0.3493973 -0.075287916 0.91337979
0.35327461 -0.076815963 0.91290259
0.30500203 -0.08898779 0.9008674
0.3544735 -0.081154503 0.9104808
0.30615655 -0.093342565 0.89853239
0.35566872 -0.085276753 0.9077251
0.30732268 -0.097278677 0.89576864
0.35678679 -0.089362606 0.9053486
0.3084794 -0.10142221 0.89323664
0.35792947 -0.093514644 0.90289897
0.30967289 -0.10568348 0.89061213
0.35909289 -0.097659744 0.90033287
0.31083086 -0.1099468 0.88817859
0.36027893 -0.10187741 0.89770967
0.31197438 -0.11386433 0.88551903
0.36141855 -0.10602676 0.89527416
0.31313062 -0.11820824 0.88316542
0.36257496 -0.11024627 0.89281052
0.31424406 -0.12223047 0.88075775
0.36371297 -0.11434089 0.8903355
0.31545115 -0.12635526 0.87794113
0.36486235 -0.11832215 0.88770044
0.31660199 -0.13066399 0.8755855
0.36605901 -0.12260892 0.88508141
0.31773716 -0.13471052 0.87308335
0.36720085 -0.12660541 0.88249975
0.31891984 -0.13892071 0.87047166
0.36838424 -0.13086161 0.87992454
0.32003018 -0.14298332 0.86811596
0.36951989 -0.13475266 0.87728369
0.32124904 -0.14745425 0.86553997
0.37065667 -0.13898413 0.87493533
0.32244787 -0.15154746 0.86273956
0.37183535 -0.14321217 0.87236047
0.32354653 -0.15546592 0.86031979
0.37302125 -0.14747381 0.86977661
0.32473394 -0.15984306 0.85782915
0.37416404 -0.15155534 0.86726463
0.32583079 -0.16386911 0.85551345
0.37533587 -0.15577 0.86471456
0.32704887 -0.16801536 0.85265696
0.37645209 -0.15978423 0.86228526
0.32815272 -0.17213768 0.85038835
0.3776153 -0.16399074 0.85977399
0.32929814 -0.17616439 0.84781432
0.37880397 -0.16803807 0.85698748
0.33048761 -0.18050654 0.84528196
0.37997556 -0.17241071 0.85457724
0.33166239 -0.18463315 0.84263909
0.38107514 -0.17646857 0.85227484
0.33283851 -0.18889171 0.84010476
0.38226828 -0.18060008 0.84953827
0.33397526 -0.1929702 0.83762217
0.38342413 -0.1846827 0.84695762
0.33512777 -0.19725119 0.83523327
0.38458896 -0.18894583 0.84448749
0.33629182 -0.20135793 0.8326301
0.3857432 -0.19304261 0.84192789
0.33747905 -0.20549268 0.82992798
0.38691422 -0.19724356 0.83937013
0.33864647 -0.20960684 0.82731342
0.36328918 -0.20810913 0.83150744
0.36553514 -0.20751351 0.83155733
0.38115007 -0.20443071 0.83364266
0.38688266 -0.20304765 0.83399522
0.38804245 -0.20139062 0.83696663
0.34169924 -0.21125691 0.82679254
0.34619448 -0.21055776 0.82770234
0.35130304 -0.20969762 0.82862842
0.35611248 -0.20881273 0.829377
0.36087447 -0.20797759 0.83018547
0.36595005 -0.2074416 0.83162916
0.37081084 -0.20646651 0.83225292
0.37554353 -0.20569317 0.83314949
0.38020217 -0.2049166 0.83400697
0.38513514 -0.20415057 0.83500731
0.38806087 -0.20368306 0.83557898
0.30424359 -0.08218538 0.89894539
0.30602193 -0.079837605 0.90099156
0.31099311 -0.079024874 0.90193266
0.31587958 -0.078187451 0.90279436
0.32078576 -0.077330053 0.90363234
0.32544273 -0.076589078 0.90454745
0.33041978 -0.075704962 0.90537399
0.33520916 -0.074942246 0.90631402
0.34007433 -0.074147575 0.90723628
0.34498656 -0.073282003 0.90806353
0.34981707 -0.072614342 0.90917861
0.35346267 -0.073727615 0.90872312
0.30538508 -0.086447239 0.89659852
0.35481092 -0.078228712 0.9061172
0.30648154 -0.090495996 0.89430469
0.35599867 -0.082381018 0.90342778
0.30767161 -0.094667137 0.89161938
0.35714042 -0.086677581 0.90110981
0.30882555 -0.09877184 0.88906819
0.35832226 -0.090839252 0.89846003
0.30997917 -0.10290781 0.88654631
0.35945863 -0.095008925 0.89605945
0.3111704 -0.1071226 0.88389301
0.36066628 -0.099347182 0.89342695
0.31231573 -0.11124931 0.88140708
0.36179027 -0.10343894 0.89102411
0.31349194 -0.11551198 0.87887573
0.36293417 -0.10731038 0.888322
0.31463382 -0.11953526 0.87631762
0.36407635 -0.11155448 0.88595587
0.31575686 -0.12356704 0.87386733
0.36528152 -0.11592029 0.88336056
0.31688744 -0.12793535 0.8716718
0.36644602 -0.11999178 0.88072413
0.31810334 -0.13223729 0.86896336
0.36757773 -0.12400706 0.87821317
0.31925252 -0.13615552 0.86627424
0.36873454 -0.12811686 0.87565118
0.32043293 -0.14044353 0.86374283
0.36989251 -0.13238508 0.87322211
0.32158214 -0.14464946 0.86130571
0.37103051 -0.13645074 0.87072176
0.32273564 -0.14896543 0.85894215
0.37218672 -0.14061069 0.86820692
0.32392895 -0.15301123 0.85612959
0.37332797 -0.14467806 0.86569071
0.32508165 -0.15717757 0.85363919
0.37453264 -0.14891022 0.86298102
0.3262468 -0.16159275 0.85130054
0.37566334 -0.15305278 0.86058712
0.32739675 -0.16546252 0.84856474
0.37686056 -0.15726727 0.85790151
0.32852435 -0.16947174 0.84607029
0.37801549 -0.16148946 0.85544813
0.32970148 -0.17373657 0.84353602
0.379109 -0.16540895 0.85305679
0.33087659 -0.1779661 0.84098166
0.38031751 -0.16954243 0.85024011
0.33200711 -0.18197738 0.8384735
0.38146803 -0.17371072 0.847763
0.33313155 -0.18616849 0.83615535
0.38265282 -0.17808905 0.8452875
0.33432171 -0.19033583 0.83346623
0.3837772 -0.18187554 0.84261501
0.33548915 -0.19444758 0.83084935
0.3849051 -0.18614393 0.84034616
0.33663017 -0.19865416 0.8284564
0.38605708 -0.19043112 0.83796555
0.33779535 -0.20274185 0.82583046
0.3871929 -0.1942966 0.83530116
0.33895189 -0.20691264 0.82332361
0.35371301 -0.20593125 0.82354307
0.35825008 -0.20625567 0.82615399
0.3611891 -0.20510867 0.82561517
0.37550348 -0.20270817 0.82822609
0.38069403 -0.20270658 0.83060056
0.38635558 -0.20148265 0.83118212
0.38840425 -0.19881654 0.83262378
0.34221986 -0.2085381 0.82256323
0.34683174 -0.20778631 0.82344002
0.35154253 -0.20709825 0.82446671
0.3563605 -0.20615421 0.82512188
0.36117834 -0.20546535 0.82619631
0.36621326 -0.20472799 0.82729048
0.37105241 -0.20379746 0.82797754
0.37594274 -0.20296089 0.82884246
0.38087007 -0.20220834 0.82986242
0.38541657 -0.2014069 0.83062762
0.38847512 -0.20095459 0.831285
0.30457598 -0.079591222 0.89489961
0.30638462 -0.077152885 0.89674592
0.3114326 -0.076340765 0.8977232
0.31613776 -0.075517654 0.89852542
0.32095182 -0.074678808 0.89935166
0.32566595 -0.073956616 0.90032387
0.33072659 -0.073240951 0.90146542
0.33562624 -0.072264045 0.90210402
0.34032166 -0.071490511 0.90298325
0.34540892 -0.070524313 0.90372533
0.35005471 -0.069756232 0.90459085
0.3536852 -0.070822001 0.9047488
0.30569807 -0.083719894 0.89253926
0.35516259 -0.075482577 0.90183532
0.30683997 -0.087904379 0.89012218
0.35637274 -0.079758808 0.89913505
0.3080309 -0.092033878 0.88739574
0.35748538 -0.083910681 0.8968454
0.30918533 -0.096187621 0.88488513
0.3586975 -0.088146754 0.89409947
0.31038225 -0.10034323 0.88214958
0.35985255 -0.092263192 0.89155287
0.311506 -0.10441733 0.87973255
0.36098877 -0.096465342 0.88918155
0.3126097 -0.10854419 0.87746859
0.36211672 -0.10065683 0.88684511
0.3138456 -0.11286844 0.87467331
0.36328009 -0.10451679 0.88402915
0.31500581 -0.11699733 0.87210995
0.36443055 -0.10898664 0.88181686
0.31615081 -0.12105374 0.86956418
0.36560076 -0.11315074 0.8792311
0.31727603 -0.12537721 0.86735803
0.36674371 -0.11715254 0.87664837
0.31845275 -0.12953088 0.86472845
0.36793506 -0.12141584 0.87403691
0.31960225 -0.13363841 0.86220348
0.36908311 -0.12549835 0.87149787
0.32072163 -0.13777502 0.85986471
0.3702327 -0.12956476 0.86893624
0.32192683 -0.14196475 0.85711491
0.37140071 -0.13381359 0.86643654
0.32305056 -0.14610128 0.85475266
0.37258884 -0.13789861 0.86368608
0.3242614 -0.15038761 0.8520577
0.37374246 -0.14218566 0.86129659
0.32540134 -0.15459895 0.84967464
0.37488526 -0.14633396 0.85884315
0.32658726 -0.15867999 0.84693235
0.37606078 -0.15052302 0.856251
0.32771498 -0.16269681 0.84444398
0.37723014 -0.15468496 0.85366791
0.3288725 -0.1668001 0.84187269
0.37838617 -0.15886578 0.85117239
0.32995674 -0.17081837 0.83961719
0.37951627 -0.16295464 0.84873456
0.33121169 -0.17520711 0.83677685
0.38069066 -0.16703579 0.84605378
0.33236483 -0.17934686 0.83426076
0.38186628 -0.17139703 0.84361202
0.33353692 -0.18351322 0.83166695
0.3829782 -0.17529145 0.84110045
0.33468893 -0.18765596 0.8291595
0.38417929 -0.17952082 0.8384074
0.33584708 -0.19193918 0.82674247
0.38531739 -0.18361223 0.83592927
0.33699125 -0.19600099 0.82420594
0.3864634 -0.18799543 0.8336646
0.33813328 -0.20007268 0.82168937
0.38758522 -0.19192539 0.83113146
0.33928245 -0.20421068 0.81919289
0.3452248 -0.20431763 0.81700408
0.35181212 -0.20473683 0.82070976
0.35694042 -0.20483971 0.82322741
0.38117945 -0.19872011 0.82427204
0.38466346 -0.19860396 0.82567674
0.38877812 -0.1961233 0.82845443
0.3423388 -0.20590143 0.81828499
0.3473365 -0.20505574 0.81918406
0.35211146 -0.20418398 0.81993836
0.35694823 -0.20339356 0.8208546
0.36161172 -0.20279634 0.82200897
0.36645272 -0.20198998 0.82290089
0.37138277 -0.20112428 0.82373607
0.37629411 -0.2003388 0.82469457
0.38131389 -0.1996244 0.82581949
0.38614926 -0.19871332 0.82653677
0.38877159 -0.19843273 0.82727671
0.30485502 -0.076872051 0.8910284
0.30686405 -0.074444756 0.8925153
0.31172034 -0.073601127 0.89335304
0.31656101 -0.072973914 0.89453924
0.32145417 -0.072068751 0.89529276
0.32631296 -0.071228266 0.89613676
0.33101121 -0.070545487 0.89716643
0.33594531 -0.069657579 0.89796704
0.34084648 -0.068934396 0.89902323
0.3454029 -0.068069287 0.8996883
0.35035184 -0.06724342 0.90059769
0.35404569 -0.068248719 0.90056509
0.30606663 -0.080986217 0.88817829
0.35557145 -0.073004603 0.89748377
0.3071858 -0.085159846 0.88587296
0.35671982 -0.077273473 0.89510632
0.30839202 -0.089385167 0.88314897
0.35786718 -0.081296131 0.8925184
0.30953673 -0.093614884 0.88075674
0.35900149 -0.085267551 0.88995516
0.31069049 -0.097710446 0.87819862
0.36015636 -0.089606822 0.88760471
0.31187227 -0.10187465 0.87555122
0.36137071 -0.093895525 0.884893
0.31304181 -0.10620245 0.87311274
0.36251518 -0.098202959 0.88257009
0.31416279 -0.11027052 0.87070507
0.3636333 -0.1018521 0.87981051
0.31529763 -0.11422327 0.86812258
0.36475921 -0.10597128 0.87742156
0.31644988 -0.11844474 0.8656829
0.36594382 -0.11025476 0.87486374
0.31766596 -0.12276861 0.86299276
0.36714423 -0.11472706 0.87238735
0.31878138 -0.12671101 0.86050475
0.36830857 -0.11859377 0.86957216
0.31994712 -0.13099925 0.85805172
0.36942962 -0.12282373 0.86730623
0.3211222 -0.13518028 0.85545486
0.37061328 -0.12704009 0.86469465
0.3222827 -0.13944212 0.8530066
0.37175074 -0.13104436 0.86214328
0.32341871 -0.143591 0.85058981
0.37288836 -0.13520208 0.85972565
0.32464433 -0.1476669 0.84763139
0.37408978 -0.13942078 0.85702157
0.3257269 -0.1517231 0.84541816
0.37521201 -0.14352515 0.85463911
0.32690537 -0.15577714 0.84269208
0.37638751 -0.14775994 0.85208726
0.32811424 -0.16001499 0.83996487
0.37758517 -0.1519891 0.84941226
0.32919902 -0.16409656 0.83776206
0.37865174 -0.15599114 0.84723687
0.33041495 -0.16843367 0.83508444
0.37985414 -0.1601169 0.84444582
0.33159959 -0.17267691 0.83249122
0.38099039 -0.16426322 0.84202558
0.33274782 -0.17673245 0.82992744
0.38214386 -0.168562 0.83964717
0.33387828 -0.18089491 0.82755208
0.38332936 -0.17273909 0.83699125
0.33502999 -0.18499808 0.82501161
0.38451171 -0.17683908 0.83428472
0.33618337 -0.18907069 0.82243526
0.38568291 -0.18107021 0.83175248
0.33732593 -0.19333658 0.82008624
0.38679671 -0.18515652 0.82939923
0.33852145 -0.19758664 0.81744105
0.38797453 -0.18939114 0.8268348
0.33969522 -0.20163804 0.81473756
0.34215808 -0.20296082 0.81336999
0.34688452 -0.20272189 0.81514198
0.38111827 -0.19593343 0.81966472
0.38574445 -0.19728796 0.8240093
0.38912404 -0.19337487 0.82420123
0.34274852 -0.20335816 0.81429332
0.34765282 -0.20248944 0.81511188
0.35216191 -0.20173928 0.81594419
0.35706609 -0.20089103 0.81679618
0.36201948 -0.20003241 0.81765372
0.36682171 -0.19925141 0.8185696
0.37177989 -0.1984444 0.81951416
0.37646013 -0.19776222 0.82053655
0.38150337 -0.19687489 0.82138807
0.38640112 -0.1959464 0.82210523
0.389153 -0.19554709 0.82270956
0.30525976 -0.074285649 0.88660371
0.30776593 -0.072306216 0.88580418
0.31253907 -0.071518734 0.88667119
0.31739169 -0.070667446 0.88776135
0.32212758 -0.069989547 0.88868999
0.32714692 -0.069072112 0.88976192
0.33197385 -0.06826099 0.89073467
0.33664072 -0.067446038 0.89166945
0.34135363 -0.066622466 0.89297152
0.34632546 -0.065753847 0.89390963
0.35116488 -0.065038949 0.89485043
0.35430437 -0.065204442 0.89561951
0.30645591 -0.078434631 0.88386649
0.30916068 -0.076680511 0.88243592
0.31383353 -0.075862691 0.8833437
0.31868827 -0.075029954 0.88427621
0.323587 -0.074309826 0.88514119
0.32839623 -0.073412403 0.88611072
0.33325601 -0.072749265 0.88693643
0.33827117 -0.071879543 0.88790572
0.34302315 -0.071242474 0.88870591
0.3478539 -0.070350878 0.88967359
0.35286844 -0.069527484 0.8906135
0.35577801 -0.069869377 0.89265966
0.3075673 -0.082567215 0.88156676
0.31034538 -0.080786817 0.87994039
0.31510437 -0.080104455 0.88076985
0.3197636 -0.079285011 0.88167757
0.32473797 -0.078404889 0.88264996
0.3294217 -0.077541366 0.8835876
0.3344869 -0.076891609 0.88442206
0.33930933 -0.076020077 0.88537633
0.34427372 -0.07549049 0.8861264
0.34901828 -0.074444473 0.88718444
0.35398096 -0.073672391 0.88808757
0.35697937 -0.07406491 0.89003175
0.30869716 -0.086653054 0.87912738
0.31148422 -0.085123144 0.87729573
0.31588751 -0.084192529 0.87825227
0.32095391 -0.083491504 0.87911922
0.3259038 -0.082644753 0.88006848
0.33086193 -0.081771731 0.88103509
0.33562583 -0.081052095 0.88188851
0.34053296 -0.079989716 0.88297045
0.34529153 -0.079429261 0.88372278
0.35018465 -0.078591295 0.88466179
0.35500649 -0.077824838 0.8855496
0.3580898 -0.078116022 0.8873477
0.30992034 -0.091022156 0.87643915
0.31231478 -0.089255884 0.87475389
0.31710273 -0.088269085 0.87577814
0.32218075 -0.087616004 0.87661576
0.32706147 -0.086799026 0.87754047
0.33193034 -0.085998029 0.87845403
0.33681759 -0.085168861 0.87938696
0.34156564 -0.084151007 0.88042748
0.34648791 -0.083378419 0.88132757
0.35142717 -0.082823813 0.8820914
0.35614878 -0.082082212 0.88295513
0.35921243 -0.082114175 0.88482398
0.31105331 -0.095078789 0.87395769
0.31345242 -0.09326373 0.87231666
0.3183203 -0.092453927 0.87323576
0.32317483 -0.091730148 0.87409937
0.32800275 -0.091034219 0.87494314
0.33305424 -0.090199612 0.87589324
0.33791858 -0.089215137 0.87692237
0.34299004 -0.088522308 0.87778461
0.34778234 -0.087687925 0.87871289
0.35264024 -0.087144829 0.8794626
0.35733601 -0.086116835 0.88050514
0.36043552 -0.086357415 0.88220435
0.31221601 -0.099374637 0.87152749
0.31470168 -0.097534686 0.86972255
0.31958288 -0.0965169 0.87077415
0.32440224 -0.095850863 0.8715983
0.32931888 -0.095134839 0.87246221
0.3344456 -0.094313025 0.87341058
0.33912307 -0.093419239 0.87436676
0.34405544 -0.092620291 0.87528437
0.34883815 -0.091908924 0.87613416
0.35382476 -0.091224082 0.87698418
0.35832784 -0.090372413 0.87789917
0.36157641 -0.090666793 0.87972057
0.3133499 -0.10330525 0.86893064
0.31587258 -0.10171102 0.86718166
0.32077917 -0.10067039 0.86824983
0.32562262 -0.10001521 0.86906916
0.33039811 -0.099201262 0.86998314
0.33542642 -0.098358616 0.87093639
0.3403396 -0.097583488 0.87183732
0.3451997 -0.096772984 0.87275618
0.3500253 -0.095891237 0.87371719
0.35489285 -0.095277093 0.87451261
0.35964906 -0.09435194 0.8754952
0.36272281 -0.094748601 0.87734145
0.31451598 -0.10774135 0.86660546
0.31691939 -0.1057567 0.86471295
0.32188508 -0.10488333 0.86568034
0.32672828 -0.1042373 0.86649388
0.33183685 -0.10343575 0.86742789
0.33657992 -0.10271119 0.86828268
0.34131268 -0.10169616 0.86932009
0.3465701 -0.10113712 0.87011331
0.35117355 -0.10011535 0.87114418
0.356056 -0.099419966 0.87199217
0.36086798 -0.098619387 0.87290078
0.36392099 -0.098989561 0.87476397
0.31566486 -0.1118262 0.86406392
0.31824216 -0.10986942 0.86222494
0.32311943 -0.10917185 0.86307389
0.32796651 -0.10810389 0.86415434
0.33287936 -0.1076588 0.86484671
0.33769011 -0.10681762 0.86578083
0.34277767 -0.10584063 0.86682391
0.34762424 -0.10511338 0.86768907
0.35226306 -0.10440812 0.86852294
0.35701445 -0.10355803 0.86945772
0.36204106 -0.10272783 0.87040293
0.36501548 -0.10290095 0.87211186
0.31681019 -0.11574987 0.86140001
0.31938395 -0.11407607 0.85966247
0.32435086 -0.11323722 0.86060816
0.32912374 -0.11233668 0.86157662
0.3340618 -0.11172665 0.86237532
0.33881119 -0.11085959 0.86332065
0.34387097 -0.11022392 0.86414582
0.34878904 -0.10933975 0.86511606
0.35349935 -0.10847447 0.86605698
0.35816932 -0.10760517 0.86699712
0.3631503 -0.10678562 0.86793178
0.36622563 -0.10738203 0.86977535
0.31797674 -0.11987989 0.85880381
0.320694 -0.11816356 0.85718936
0.32551628 -0.11754593 0.85798317
0.33033088 -0.11662313 0.85896915
0.33528015 -0.11596254 0.85980082
0.34012112 -0.11512937 0.86073238
0.34487385 -0.1143298 0.86163533
0.34960753 -0.11347235 0.86257327
0.35451275 -0.11273003 0.86345285
0.3593412 -0.11191623 0.86437118
0.36427858 -0.11122006 0.86522424
0.36731169 -0.11116828 0.8672989
0.31915832 -0.12407474 0.85618454
0.32187182 -0.12237048 0.8546297
0.32669646 -0.12146454 0.8556059
0.33142835 -0.12073739 0.85646135
0.33626589 -0.11993317 0.85737437
0.34131959 -0.11922497 0.85824478
0.34621179 -0.11839387 0.85917938
0.3507435 -0.11752918 0.86010498
0.35583279 -0.11686069 0.86095333
0.36040422 -0.11596945 0.86189902
0.36536977 -0.11508232 0.8628751
0.36852506 -0.11568455 0.86469334
0.32032198 -0.12835816 0.85373825
0.32316518 -0.12671357 0.85199368
0.32754093 -0.12572236 0.85298622
0.33248147 -0.12504528 0.85382748
0.33735889 -0.12406738 0.85485357
0.34242484 -0.12328731 0.85577041
0.34722951 -0.12259296 0.85661125
0.3521677 -0.12171757 0.85757768
0.35668916 -0.12099509 0.85841256
0.36181584 -0.12013592 0.85938454
0.36674809 -0.11948024 0.86021155
0.36973214 -0.11970349 0.86198229
0.32147798 -0.13258441 0.85128284
0.32389143 -0.13079424 0.84947598
0.3289001 -0.1299516 0.85042763
0.33372134 -0.12922794 0.85128838
0.33855093 -0.12826733 0.85229951
0.34358144 -0.12764651 0.85311282
0.34843919 -0.12680782 0.85404927
0.35314769 -0.12586513 0.855039
0.35800698 -0.12515254 0.85589588
0.36301643 -0.1244337 0.85676938
0.36785802 -0.12354034 0.85773903
0.37085164 -0.12389699 0.85969895
0.32264444 -0.13675635 0.84872401
0.32532868 -0.1348121 0.84705752
0.33019337 -0.13407186 0.8479324
0.33509234 -0.13320991 0.84888703
0.33989954 -0.13249336 0.84974211
0.34471866 -0.13162938 0.85069132
0.34957415 -0.13081677 0.85161114
0.35438028 -0.13026363 0.85236287
0.35925815 -0.12939215 0.85332173
0.36411247 -0.12843286 0.85433412
0.36905545 -0.12780096 0.85514706
0.37194407 -0.12781836 0.85685229
0.32378012 -0.14063437 0.84607142
0.32652336 -0.138878 0.8445884
0.33120039 -0.13812304 0.84545684
0.33624613 -0.13742968 0.84631723
0.34114915 -0.13666879 0.84720838
0.34595951 -0.1357823 0.84817106
0.35069883 -0.13501313 0.84905374
0.35552186 -0.13412493 0.85001856
0.36033386 -0.13367406 0.85070616
0.3653529 -0.13266769 0.85176212
0.37016118 -0.13186511 0.85267162
0.37307259 -0.13198143 0.85442883
0.32489589 -0.14471668 0.84370422
0.32754433 -0.1432249 0.84192717
0.33240601 -0.1425173 0.84278119
0.3372792 -0.14157298 0.8437857
0.34226149 -0.14069167 0.84475952
0.34703174 -0.13998964 0.84560233
0.35191414 -0.13913943 0.84654814
0.35670131 -0.13841669 0.84740543
0.36162475 -0.13759249 0.84833831
0.36633897 -0.13686691 0.84919125
0.37130463 -0.13591093 0.85021091
0.37427205 -0.13622871 0.85201186
0.32606232 -0.14902365 0.84126395
0.32875547 -0.14737168 0.83940834
0.3336997 -0.14661516 0.84030014
0.33865666 -0.1458344 0.84120834
0.34338996 -0.14503497 0.84210956
0.34818983 -0.14414215 0.84307539
0.35314724 -0.14316639 0.84410685
0.35785833 -0.14249693 0.84492409
0.36277822 -0.1417388 0.84581488
0.36756611 -0.1411202 0.84660643
0.37240732 -0.14016131 0.84761751
0.3754248 -0.14049223 0.84948522
0.32724124 -0.15323791 0.83867568
0.32999191 -0.15179637 0.836716
0.33482581 -0.15065341 0.83784276
0.33967295 -0.14994346 0.83869696
0.34450239 -0.14912903 0.83961576
0.34931967 -0.14831595 0.84053266
0.3541801 -0.14757957 0.84140474
0.3591221 -0.14667875 0.8423875
0.36387214 -0.14585078 0.84330821
0.36880785 -0.1451067 0.84419143
0.3735182 -0.14424378 0.84513092
0.3766602 -0.14481552 0.84681797
0.32841039 -0.15727648 0.83598554
0.33111057 -0.15575747 0.83430672
0.33579957 -0.15496409 0.83520043
0.34081522 -0.15409005 0.83617246
0.34555143 -0.15331516 0.83705848
0.35046747 -0.15248683 0.83799326
0.35535234 -0.15163374 0.83894116
0.36018121 -0.15076943 0.83989137
0.3648015 -0.14999394 0.84076804
0.36999094 -0.14933743 0.84161717
0.37466109 -0.14850846 0.8425318
0.3777802 -0.14884096 0.84442121
0.32953846 -0.16145977 0.83364123
0.33223048 -0.15985936 0.83180863
0.33694273 -0.1590772 0.83269721
0.3416658 -0.15828721 0.83359164
0.34667233 -0.15747221 0.83452559
0.35184222 -0.15658462 0.83551908
0.3565194 -0.15573466 0.8364476
0.36146182 -0.15492223 0.83737457
0.36629379 -0.15425453 0.83820081
0.37114376 -0.15350312 0.83908153
0.37594387 -0.15258184 0.84006536
0.37899497 -0.15317221 0.84193891
0.33075237 -0.1655544 0.83076173
0.33351964 -0.16410881 0.82923138
0.33823407 -0.16321898 0.83018821
0.34309191 -0.16239923 0.83111274
0.34781671 -0.16163981 0.83198798
0.35271919 -0.160799 0.83292955
0.35756722 -0.160065 0.83379906
0.36264411 -0.15922315 0.8347559
0.36730111 -0.15857404 0.83555579
0.37217516 -0.15763015 0.83656007
0.37708879 -0.15672483 0.83754337
0.3800568 -0.15709309 0.83934206
0.33186528 -0.16979748 0.8285507
0.33444849 -0.16825622 0.82668853
0.33921143 -0.16746542 0.82758683
0.34400454 -0.16653864 0.82857352
0.34878635 -0.16570747 0.82949889
0.35392514 -0.16500419 0.83037335
0.35886934 -0.16415283 0.83132505
0.36380464 -0.16333711 0.83225352
0.368608 -0.16254526 0.83315587
0.37337393 -0.16179916 0.83402616
0.3779161 -0.16089609 0.83497691
0.3812691 -0.16124415 0.8366617
0.33303598 -0.17399359 0.8259905
0.33557394 -0.17241171 0.824157
0.34047589 -0.17148153 0.82515496
0.34530264 -0.17079419 0.82599324
0.35011762 -0.16984981 0.82699293
0.35513988 -0.16922021 0.82781106
0.35997486 -0.16831028 0.82879066
0.36486846 -0.16750978 0.82970595
0.36974245 -0.16663711 0.83066529
0.37475455 -0.16590098 0.83154988
0.37933517 -0.16504245 0.83247572
0.38246906 -0.16565496 0.83449841
0.33418512 -0.17812091 0.82348466
0.33707178 -0.17641765 0.82175112
0.34172052 -0.17558041 0.82266921
0.34663317 -0.17477918 0.82358658
0.35140875 -0.17388768 0.82454956
0.35612386 -0.17325261 0.82534546
0.36111772 -0.17238873 0.82630926
0.36601102 -0.17147571 0.82729566
0.37070778 -0.17088023 0.82806498
0.37556744 -0.17010105 0.82896405
0.38051689 -0.16934833 0.82985389
0.38356104 -0.16948642 0.83176541
0.33534387 -0.18231231 0.82098413
0.33814853 -0.18066841 0.81915534
0.34277722 -0.17974812 0.82012421
0.34762776 -0.17895851 0.82102907
0.35259515 -0.17832667 0.82184398
0.35742986 -0.17731082 0.82289052
0.36215475 -0.17648721 0.82380635
0.36720932 -0.1759401 0.82457507
0.37191063 -0.17489435 0.82562929
0.37676302 -0.17419282 0.8264786
0.38154265 -0.17340876 0.82737404
0.38469541 -0.17379074 0.82935745
0.33658487 -0.18653849 0.81807542
0.33929378 -0.18478389 0.81665075
0.3440235 -0.18380153 0.81766725
0.34887761 -0.18305366 0.81854606
0.35363311 -0.18243727 0.81933349
0.35855389 -0.18156938 0.82029372
0.36332032 -0.18074411 0.82121408
0.36822391 -0.17992565 0.82214165
0.37309027 -0.17909542 0.82307351
0.37798715 -0.1782397 0.82402396
0.38269335 -0.17754431 0.82485723
0.38589555 -0.17789342 0.82657725
0.33771524 -0.19086279 0.81584251
0.3404218 -0.18884197 0.81418097
0.34514463 -0.18805239 0.8150751
0.34995702 -0.18731491 0.81594384
0.35488838 -0.18660766 0.81680346
0.3596763 -0.18577656 0.81772929
0.36463436 -0.18491729 0.81868714
0.3695282 -0.18408778 0.81962085
0.37436068 -0.18333915 0.82049835
0.3793335 -0.18259311 0.82138586
0.38388145 -0.18173039 0.82231164
0.38703057 -0.18202043 0.82428902
0.33885002 -0.19487742 0.81331462
0.34151372 -0.19306336 0.81160498
0.3462716 -0.19222702 0.81253159
0.35114211 -0.19167507 0.81328797
0.35611153 -0.1906478 0.81435299
0.3607834 -0.18997827 0.81516701
0.36589995 -0.1890517 0.81618071
0.37073997 -0.1883693 0.8170169
0.37531161 -0.18748072 0.81796098
0.38029766 -0.186941 0.81871927
0.38502187 -0.18599281 0.81971377
0.38821593 -0.1860293 0.82161975
0.34003878 -0.1989539 0.81055325
0.34261498 -0.19738622 0.8091355
0.34738812 -0.19653521 0.81009769
0.35218856 -0.19570842 0.81082702
0.35704052 -0.19477341 0.8118239
0.36229432 -0.19394192 0.81278896
0.36681983 -0.19325544 0.81360149
0.37174785 -0.19228567 0.81462663
0.37659019 -0.19156063 0.81549001
0.38137344 -0.19102854 0.81630194
0.38629413 -0.1901301 0.81729352
0.38936853 -0.19048491 0.81926876
0.34316051 -0.20057847 0.80991423
0.3478426 -0.19992939 0.81099188
0.35264817 -0.19902927 0.81171352
0.35777882 -0.19805057 0.81245494
0.36254868 -0.19735079 0.8134895
0.36738542 -0.19654568 0.81438148
0.37233138 -0.19578776 0.81540108
0.37715185 -0.19502538 0.81635594
0.38194469 -0.19422279 0.81723201
0.38674396 -0.19339147 0.81806397
0.38972834 -0.19258735 0.81810939
