# .PCD v0.7 - Point Cloud Data file format
VERSION 0.7
FIELDS x y z
SIZE 4 4 4
TYPE F F F
COUNT 1 1 1
WIDTH 568
HEIGHT 1
VIEWPOINT 0 0 0 1 0 0 0
POINTS 568
DATA ascii
0.007961547 -0.015395282 0.54219997
0.012540561 -0.015432198 0.54350001
0.017083639 -0.015417999 0.54299998
0.02236126 -0.015862254 0.54277778
0.026847169 -0.015808752 0.54337502
0.033342436 -0.015446395 0.54400003
0.038413476 -0.015446395 0.54400003
0.042470306 -0.015953511 0.54400009
0.046020038 -0.015953511 0.54400003
0.0049173366 -0.011830965 0.54100001
0.00794583 -0.012339307 0.54115999
0.012505022 -0.012358085 0.54199994
0.017046994 -0.012354288 0.54183996
0.022104571 -0.012358086 0.54199988
0.027182367 -0.012369329 0.54247993
0.032290343 -0.012389245 0.54336005
0.037399266 -0.012403691 0.54399991
0.042457666 -0.012399893 0.54383993
0.046454694 -0.01254858 0.54400009
0.056162111 -0.012910808 0.54400009
0.0049332427 -0.0078209173 0.54275
0.0078795319 -0.007394155 0.54245836
0.012408809 -0.0072213062 0.54304755
0.017087189 -0.0073189354 0.54312003
0.021944741 -0.0077737831 0.54304999
0.026983688 -0.0085934475 0.54358339
0.031947896 -0.0089806449 0.54400009
0.035370849 -0.009360983 0.54400003
0.043991618 -0.009360983 0.54400003
0.0532616 -0.021100486 0.54860002
0.055042569 -0.020668432 0.54799998
0.0082005681 -0.017330065 0.54857147
0.012053302 -0.017524825 0.5477857
0.017215779 -0.017579768 0.54720002
0.022349523 -0.018422447 0.54800004
0.027488794 -0.017967377 0.54707694
0.032427151 -0.017447602 0.54661107
0.037280425 -0.017440567 0.54638886
0.042727005 -0.018092087 0.54729998
0.048042972 -0.017649129 0.54605258
0.052735489 -0.017635338 0.54649997
0.056096006 -0.015813487 0.54500002
0.049071431 -0.012256254 0.54563642
0.052732166 -0.012431363 0.54524004
0.056265354 -0.01039429 0.54500002
0.0049536941 -0.0053137927 0.54500002
0.023039784 -0.0055170129 0.54500002
0.027573606 -0.0061799991 0.54561543
0.032623108 -0.0065789185 0.54594117
0.037633434 -0.0072748661 0.5461666
0.042531084 -0.0071871774 0.54647821
0.047772881 -0.0073664566 0.54664004
0.052837223 -0.0074590356 0.54720831
0.056037318 -0.0074904258 0.54649997
0.0045109629 -0.0024957054 0.54611111
0.0075050616 -0.0022672352 0.54580003
0.012088864 -0.002267787 0.546
0.017181577 -0.0022681369 0.54611999
0.022291142 -0.0022702646 0.54655999
0.027337983 -0.0023585304 0.5472917
0.03257234 -0.0027877353 0.54809988
0.037570436 -0.0028683161 0.54805255
0.042395923 -0.0034726392 0.54849994
0.047082603 -0.0039841072 0.5485
0.052218646 -0.0040367912 0.54900002
0.055143017 -0.0043292358 0.54900002
0.004971873 0.0007856767 0.54699999
0.0076706097 0.0017162107 0.54772723
0.012128005 0.0023204838 0.54779994
0.016846839 0.0019475658 0.54846656
0.022378383 0.0012998969 0.54869998
0.026995944 0.00078854943 0.54900002
0.0034763156 -0.020838154 0.55250001
0.0073032239 -0.021277316 0.55199999
0.012228381 -0.021346677 0.55230004
0.017388631 -0.021362137 0.55270004
0.022495721 -0.021319717 0.55160004
0.027786782 -0.021624761 0.55283332
0.033017907 -0.021821234 0.55314285
0.037283115 -0.021675399 0.5528
0.042041421 -0.021258485 0.55337501
0.047492456 -0.021517728 0.55309093
0.051441576 -0.022078389 0.55199999
0.0035037687 -0.018322017 0.55069238
0.0068468549 -0.018905276 0.55020005
0.012356111 -0.01955949 0.55033332
0.017309418 -0.019725613 0.55020005
0.020380054 -0.019718444 0.55000001
0.028083969 -0.019727407 0.55024999
0.032200404 -0.019736368 0.55050004
0.038324453 -0.019718444 0.55000001
0.043000437 -0.019747123 0.55080003
0.046014909 -0.019718444 0.55000001
0.029608604 -0.00023543576 0.55000001
0.032684784 -0.00023543576 0.55000001
0.038153555 -0.00040633939 0.55000001
0.043046303 -0.0012609351 0.55018187
0.047414191 -0.0014539736 0.55062503
0.052152354 -0.0016031652 0.55044442
0.055740573 -0.0024343436 0.55057144
0.0071544731 0.0042781974 0.55020005
0.012176901 0.0048916717 0.55000001
0.017929105 0.004176545 0.5503
0.022444438 0.0038692148 0.55033338
0.027677651 0.0032347445 0.55042857
0.032754093 0.002848685 0.55115992
0.037554197 0.0027560061 0.55195236
0.042205796 0.0029433772 0.55270833
0.047445502 0.0025772185 0.55309087
0.052301276 0.0021712682 0.55322224
0.055544786 0.0013107343 0.55299997
0.0035786915 0.0082089081 0.55239999
0.0070732697 0.0074815592 0.55184996
0.012210484 0.0074776085 0.55149996
0.017378831 0.0074881511 0.55234993
0.022542993 0.0074932016 0.55274993
0.027473968 0.0073805517 0.55288881
0.032578211 0.0061322735 0.55399996
0.037570328 0.0059601269 0.55400002
0.040152453 0.0059601269 0.55400002
0.0035830266 0.010898238 0.55299997
0.0069881496 0.011552412 0.55363142
0.012319705 0.011362194 0.55370575
0.017010843 0.010707727 0.55379999
0.022981297 0.010478972 0.55399996
0.026897525 0.010435936 0.55399996
0.0040387716 -0.025252115 0.55900002
0.0050809453 -0.025252115 0.55900002
0.01393942 -0.025252115 0.55900002
0.017917754 -0.025403226 0.55850005
0.022650998 -0.025680179 0.55822223
0.027709946 -0.025654465 0.55766672
0.032292265 -0.02573932 0.55699992
0.036931317 -0.025350524 0.55733335
0.04251517 -0.025723154 0.55790007
0.047762245 -0.026114222 0.55671424
0.051429659 -0.026020417 0.55628574
0.0040387716 -0.024209913 0.55900002
0.0067250007 -0.023401443 0.5571
0.012562851 -0.023547404 0.55699998
0.017510211 -0.023587855 0.55660003
0.022672396 -0.023557721 0.55589998
0.027721908 -0.023686308 0.555875
0.03215415 -0.023829727 0.55500001
0.037564229 -0.023741035 0.55500001
0.04240568 -0.023275053 0.55533326
0.047238003 -0.023576789 0.55500001
0.051606808 -0.024036676 0.55500001
0.046433225 0.0049361414 0.55500001
0.053084973 0.0046405005 0.55500001
0.055745672 0.0039013978 0.55500001
0.029877773 0.0085577434 0.55500001
0.032605663 0.0081344405 0.55499995
0.037143074 0.0080458233 0.55533326
0.042451903 0.0076147248 0.55563164
0.047540922 0.0075362483 0.55585003
0.052707363 0.0075339815 0.55570006
0.056107312 0.0075257253 0.55516666
0.0074589248 0.014076375 0.55500001
0.01215826 0.013860804 0.55500001
0.017745741 0.013151954 0.55526656
0.022471026 0.012982374 0.55547059
0.028105149 0.012735717 0.55547369
0.032567535 0.012220267 0.55674994
0.037289929 0.012236511 0.55751991
0.04244009 0.012160954 0.55804163
0.047613684 0.011970196 0.55836368
0.052591611 0.011641841 0.55835295
0.055526529 0.011725944 0.55800003
0.0075809439 0.017318511 0.55731577
0.012329744 0.017414007 0.55687994
0.017533135 0.017425917 0.55727994
0.022660842 0.017354062 0.55775005
0.027318465 0.016567869 0.55800003
0.03216669 0.015388222 0.55880004
0.036867235 0.015393729 0.55900002
0.019150287 0.020604735 0.55900002
0.0040532215 -0.026911356 0.56099999
0.0073803924 -0.027464475 0.56156522
0.011898705 -0.027208878 0.56111103
0.017427661 -0.027466565 0.56161535
0.022910045 -0.028083764 0.56174999
0.027125865 -0.028548071 0.56230772
0.032495733 -0.027889539 0.56224996
0.03768792 -0.028084673 0.56184214
0.042789701 -0.027982671 0.56149995
0.047264874 -0.028342512 0.56239998
0.051148567 -0.028497174 0.5613333
0.0092661856 -0.024253223 0.56
0.010310223 -0.024253223 0.56
0.044763464 0.014377201 0.56
0.048939619 0.014377202 0.56
0.052617926 0.01438362 0.56025004
0.056748092 0.014188926 0.56080002
0.0092661856 0.019597529 0.56
0.02492675 0.019597529 0.56
0.027760569 0.019150073 0.56
0.032272708 0.018053709 0.56065005
0.037609138 0.017934754 0.56080955
0.042764157 0.017547529 0.56116003
0.047602765 0.017450806 0.56123799
0.052249946 0.017571157 0.56191289
0.056735661 0.016620202 0.56225008
0.0073656505 0.022886535 0.56047827
0.012414986 0.022760516 0.56072003
0.017531794 0.022977671 0.56156516
0.02261612 0.022652624 0.56154537
0.027312566 0.022966778 0.56239134
0.032245554 0.021719757 0.56278569
0.037687443 0.021820527 0.56346673
0.042214058 0.021615511 0.56360006
0.046925265 0.02124409 0.56366676
0.050340682 0.020789033 0.56400001
0.0075836908 0.027470067 0.56270587
0.012287523 0.027315268 0.56335294
0.017740512 0.027092015 0.56386673
0.022081751 0.026703853 0.56400007
0.025630549 0.02604665 0.56400001
0.014150911 -0.035158526 0.5675
0.017286576 -0.035081085 0.56624997
0.042837489 -0.036084101 0.5684545
0.046411097 -0.036444914 0.56900001
0.0035743201 -0.031747818 0.56800002
0.0072586546 -0.03139513 0.56639999
0.01266775 -0.032412164 0.56715792
0.017811509 -0.032436304 0.56615001
0.022446267 -0.032080963 0.56630766
0.027962193 -0.03203785 0.56683332
0.032423958 -0.032142535 0.56675005
0.037658468 -0.031983826 0.56620002
0.042431876 -0.032639876 0.56761116
0.047321223 -0.032400198 0.56694728
0.050608452 -0.031957444 0.56699997
0.0041074092 -0.029391427 0.56850004
0.0051627494 -0.029894602 0.56800002
0.013778202 -0.029325878 0.56519997
0.017951354 -0.029561142 0.565
0.021462552 -0.029736707 0.565
0.029362749 -0.029736707 0.565
0.032372348 -0.029435739 0.565
0.042529747 -0.029736707 0.565
0.047269862 -0.029736707 0.565
0.050956622 -0.029736707 0.565
0.054643378 0.019772505 0.565
0.057502497 0.019321054 0.565
0.032873947 0.023810491 0.565
0.037789624 0.023986056 0.565
0.042880863 0.023634927 0.565
0.047461379 0.02331572 0.565
0.052662712 0.022495741 0.56515783
0.057258733 0.022336183 0.56586665
0.013562356 0.029252993 0.565
0.017775794 0.029252995 0.565
0.022910921 0.028594626 0.565
0.027442828 0.02785988 0.5652222
0.032548007 0.02716862 0.56544
0.037649889 0.027041936 0.56565225
0.042412926 0.027371788 0.56663632
0.047454886 0.027254604 0.56719995
0.052631125 0.027154494 0.56800002
0.056482099 0.026815064 0.56809098
0.0082955603 0.032413159 0.565
0.012525534 0.032456543 0.56572008
0.017797263 0.032454174 0.56568003
0.022556229 0.032472663 0.5660001
0.027357342 0.03253457 0.56708002
0.032569993 0.03166664 0.56812501
0.037454553 0.031465843 0.56863648
0.042300429 0.031581786 0.56900012
0.047162507 0.03140498 0.56900007
0.052378189 0.030520938 0.56900001
0.0085576428 0.036211725 0.56840003
0.01258262 0.036311142 0.56829995
0.017008072 0.036157791 0.5686667
0.02214491 0.035825167 0.56900001
0.026918584 0.036178779 0.56900001
0.038655385 -0.035313409 0.56999999
0.049054481 -0.036679752 0.56999999
0.038655385 -0.034250699 0.56999999
0.0030555653 -0.028937155 0.56999999
0.033066597 0.034373466 0.5703333
0.037710156 0.034170628 0.57088888
0.042434804 0.034342937 0.57080001
0.048051614 0.033833053 0.57116669
0.052539516 0.032744274 0.57075
0.055126946 0.030574579 0.56999999
0.0075101624 0.038069125 0.57081819
0.012630766 0.038579177 0.57050002
0.017629657 0.038260177 0.57050002
0.022196801 0.038036399 0.57033336
0.027742177 0.038038027 0.5703572
0.032368891 0.037586045 0.57156253
0.037224289 0.037647422 0.57249999
0.042601984 0.037683729 0.57305002
0.047320262 0.037590794 0.57326669
0.051975116 0.03618256 0.5735333
0.007631823 0.042422865 0.5727728
0.012663977 0.042414177 0.57200015
0.017460048 0.042407133 0.57190007
0.022139413 0.042167518 0.57259107
0.027511207 0.041557983 0.57306254
0.032303326 0.041102581 0.57355553
0.037321448 0.04042064 0.574
0.042672139 0.04042064 0.574
0.045882557 0.04042064 0.574
0.0078926319 0.04577148 0.574
0.012708256 0.04577148 0.574
0.017523881 0.04577148 0.574
0.049178496 0.039419029 0.57499999
0.052832793 0.038782664 0.57509995
0.056146517 0.038346995 0.57499999
0.0052263746 0.044243172 0.57499999
0.023450425 0.044779193 0.57499999
0.027976658 0.044302732 0.57499999
0.032761302 0.043874219 0.57590908
0.037330143 0.042858694 0.57618749
0.042552158 0.042690698 0.57684618
0.047484845 0.042443257 0.5766471
0.052585773 0.042255104 0.5771001
0.056227613 0.042476133 0.5776667
0.0079109641 0.048023731 0.57533336
0.012739499 0.048029296 0.57539999
0.017577538 0.048058663 0.57575005
0.022429671 0.047568623 0.57629997
0.027813023 0.047588274 0.57655013
0.032614436 0.047583919 0.57780004
0.037349593 0.046137583 0.57858336
0.042495288 0.045620702 0.57887501
0.046899062 0.045399118 0.579
0.052758992 0.045090694 0.579
0.0075052842 0.052603759 0.57795465
0.012644839 0.052244004 0.57777268
0.017653629 0.052041512 0.57824999
0.022228576 0.051598787 0.57853329
0.027368018 0.050984286 0.57850003
0.030432818 0.050818905 0.57866669
0.034467589 0.049493983 0.57999998
0.038162116 0.048592851 0.57999998
0.042596105 0.048433963 0.58024997
0.047660373 0.048089795 0.5804444
0.052394524 0.047762249 0.58058822
0.056710899 0.047395367 0.58077776
0.0095971199 0.054900754 0.57999998
0.013381756 0.054900754 0.57999998
0.017166393 0.054900754 0.57999998
0.023005547 0.054251939 0.57999998
0.027317328 0.053772215 0.58054537
0.032673109 0.052500766 0.58088231
0.037568286 0.052213307 0.58149993
0.042435229 0.052514527 0.58216667
0.047648545 0.052424133 0.58249986
0.052590936 0.052480239 0.583125
0.05696528 0.052643903 0.5826875
0.0079974774 0.057767745 0.58162498
0.012333745 0.057761483 0.58156252
0.017217442 0.057780046 0.58175004
0.022653732 0.057809461 0.58205003
0.027673861 0.057737995 0.58294129
0.032417517 0.057331234 0.58362496
0.037348099 0.056850005 0.5844667
0.042475905 0.056873634 0.58447367
0.047334772 0.056757871 0.58450001
0.05221507 0.055592168 0.58499998
0.057314437 0.055800896 0.58457142
0.008028415 0.062344007 0.583875
0.012277985 0.062256075 0.58406669
0.01747971 0.06222336 0.5844444
0.022361683 0.061873388 0.58457142
0.027668104 0.061173636 0.58483332
0.030765688 0.061190967 0.58499998
0.0078101745 0.065657541 0.58499998
0.0107705 0.065190114 0.58499998
0.034824152 0.059838854 0.58600003
0.037896562 0.059640773 0.58620006
0.042130787 0.059690803 0.58633333
0.04773251 0.059640765 0.58620006
0.052269403 0.05803303 0.586375
0.0568472 0.057964504 0.586375
0.014066446 0.064209014 0.58600003
0.015705211 0.064209014 0.58600003
0.023470195 0.063793913 0.5862
0.027504217 0.063483827 0.5866363
0.032904204 0.062821329 0.58706248
0.037526436 0.062888242 0.58805871
0.042637769 0.062817186 0.58829999
0.047559872 0.062798373 0.58812493
0.052664958 0.062473428 0.58843476
0.056945164 0.062322158 0.58879989
0.00807459 0.068453096 0.58724993
0.01254545 0.067474902 0.58700007
0.017382922 0.067090727 0.5873
0.022341346 0.067184739 0.58812493
0.027276188 0.06718713 0.58814991
0.032244764 0.06725543 0.58875
0.036842547 0.066799268 0.58957142
0.042394981 0.065930627 0.58999997
0.047711492 0.065747291 0.58999997
0.053028006 0.065930627 0.58999997
0.056511238 0.066297293 0.58999997
0.0088111022 0.071492828 0.58942848
0.012499784 0.071395203 0.58939993
0.017011473 0.070759535 0.58959997
0.022412224 0.070147283 0.58999997
0.027117645 0.070636168 0.58999997
0.031211969 0.070147283 0.58999997
0.038254295 0.068816535 0.59116673
0.042479228 0.068236597 0.59163642
0.047300313 0.068147659 0.59173334
0.052288022 0.068178862 0.59200001
0.055646066 0.068787992 0.59249997
0.0069970856 0.073378272 0.59179997
0.012544321 0.074185871 0.59150004
0.017803792 0.073573865 0.5916
0.022469208 0.073083535 0.59150004
0.027581321 0.073528223 0.59174997
0.032418452 0.072586253 0.59193754
0.037260294 0.071966022 0.59288889
0.042444408 0.071640529 0.59324998
0.047438987 0.071666546 0.59346664
0.052431196 0.071132004 0.59362495
0.055539757 0.070912756 0.5933333
0.0039200964 0.077778272 0.59366661
0.0076032029 0.077717908 0.59320003
0.012421623 0.077473179 0.59314281
0.016877748 0.076665781 0.59362495
0.022555374 0.07612808 0.59375
0.027518641 0.076083198 0.5934
0.032518007 0.075574353 0.59375
0.0042916462 0.080589958 0.59399998
0.0059527848 0.080589958 0.59399998
0.039241511 0.074069716 0.59500003
0.04256938 0.074069716 0.59500003
0.047561187 0.074069716 0.59500003
0.05257554 0.073546179 0.59525001
0.056847837 0.073262237 0.59544444
0.013727838 0.079616316 0.59500003
0.018075336 0.078703038 0.59508348
0.02261482 0.078551598 0.5953334
0.027615977 0.078569189 0.59546673
0.032679416 0.078202412 0.59592319
0.037654016 0.076999307 0.59620005
0.042703759 0.077087134 0.59687501
0.047407255 0.076896854 0.59717649
0.052698772 0.077090278 0.5974375
0.05721147 0.077143468 0.59731251
0.0083066253 0.082640953 0.59600008
0.012639754 0.082529485 0.59600008
0.017649015 0.082570374 0.59630007
0.022695743 0.082728714 0.5974375
0.027492652 0.082705818 0.5981667
0.032127839 0.082447469 0.59828568
0.037462287 0.081130952 0.59861541
0.041808754 0.080770597 0.5988571
0.008664567 0.086540416 0.59855556
0.012683704 0.086720534 0.59808338
0.017502496 0.086328648 0.59818184
0.02241908 0.085958794 0.59899998
0.026104346 0.085735433 0.59899998
0.049079474 0.079166718 0.60000002
0.05075739 0.079166718 0.60000002
0.033877861 0.084116988 0.6002
0.037365157 0.084271245 0.60049999
0.042721946 0.083362028 0.60035282
0.047368243 0.082241312 0.60082352
0.052562404 0.08216276 0.60145003
0.057286281 0.082131341 0.60215384
0.0077002207 0.088721141 0.60085714
0.012724586 0.089234494 0.60000002
0.018013289 0.08877036 0.60022223
0.022955244 0.088258117 0.60027266
0.027446086 0.087859705 0.60042852
0.032355059 0.087704048 0.60100007
0.037466504 0.087868139 0.60212493
0.042530768 0.087893546 0.60230005
0.04772751 0.08755219 0.60299999
0.052051961 0.08680661 0.60333335
0.055787724 0.086075723 0.60400003
0.00827487 0.0923208 0.60187501
0.012757549 0.092273273 0.6015625
0.017279826 0.092464179 0.60281253
0.022325423 0.09241689 0.60250008
0.027389197 0.092445463 0.60268754
0.032236204 0.09243542 0.60344446
0.037245117 0.091180697 0.60399997
0.042650245 0.090955481 0.60399997
0.046591491 0.090955481 0.60399997
0.0090933871 0.095910326 0.60399997
0.012809415 0.096022934 0.60400003
0.016187623 0.095459878 0.60399997
0.052646685 0.089752518 0.60500002
0.058069848 0.087623723 0.60542858
0.034825329 0.093925983 0.60500002
0.037821598 0.093521334 0.60536361
0.042417262 0.093371071 0.60561538
0.04761992 0.092909783 0.60633332
0.052510511 0.092591621 0.60733336
0.057385344 0.091950238 0.60766673
0.060034182 0.092843853 0.60900003
0.0077763633 0.098474525 0.60671425
0.012276794 0.098519653 0.60549998
0.017516043 0.097621441 0.60542858
0.022465121 0.097512856 0.60625011
0.02757897 0.097614363 0.60687506
0.032249004 0.0974489 0.60647058
0.037233867 0.09680672 0.60749996
0.042034864 0.096575908 0.60866666
0.046409495 0.095682412 0.60900003
0.052654143 0.0951147 0.60900003
0.056952409 0.095601313 0.60900003
0.007801611 0.10243976 0.60866672
0.012327483 0.10232849 0.6080001
0.017300125 0.10194854 0.60807693
0.021848328 0.10131814 0.60875005
0.027675539 0.1007918 0.60900003
0.032217104 0.10135952 0.60900003
0.0078061945 0.10533348 0.60900003
0.037647605 0.099332742 0.61011118
0.042767502 0.098991819 0.61050004
0.04810388 0.097447716 0.61033338
0.052769411 0.09759938 0.61033338
0.056767482 0.098194979 0.61050004
0.018054312 0.10436916 0.61000001
0.023102203 0.10353518 0.61066675
0.027736129 0.10328891 0.61033338
0.032296456 0.10388607 0.61050004
0.037501879 0.10297595 0.61184996
0.042688448 0.10310584 0.61262488
0.047252163 0.10195354 0.61256242
0.052441664 0.10205175 0.61314994
0.057074666 0.10242239 0.61292851
0.0078190127 0.10664374 0.61000001
0.012378173 0.1061625 0.61050004
0.017518748 0.1062713 0.61112505
0.022672681 0.10615366 0.61185712
0.02781187 0.10642287 0.61199999
0.032375805 0.10642288 0.61199999
0.037584528 0.10605992 0.61319995
0.042784028 0.1061983 0.61400002
0.047362875 0.10562592 0.61400002
0.052132517 0.10524433 0.61400002
0.056806758 0.10591211 0.61400002
-0.34397575 0.074891627 0.66100001
-0.34520808 0.076123998 0.66100001
-0.34397575 0.076123998 0.66100001
0.49170181 -0.09965688 0.93400002
0.47793171 -0.12108138 0.96600002
0.46947545 -0.13489111 0.98799998
0.47131744 -0.13489111 0.98799998
0.43931517 -0.14570561 0.99900001
0.44117764 -0.14570561 0.99900001
0.43931517 -0.14384308 0.99900001
0.44117764 -0.14384308 0.99900001
0.44728038 -0.13969724 0.99599999
0.45285106 -0.13969724 0.99599999
0.45749331 -0.13969724 0.99599999
0.37450138 -0.15032817 1.005
0.37699962 -0.15095276 1.005
0.38219675 -0.15077692 1.008
0.37450138 -0.14845446 1.005
0.37731189 -0.14845446 1.005
0.38219672 -0.14795795 1.008
0.38595527 -0.14795795 1.008
0.44327295 -0.1488976 1.008
0.44515222 -0.1488976 1.008
0.44145074 -0.15248227 1.011
0.44176492 -0.14934076 1.011
0.43904179 -0.15827695 1.02
0.41389123 -0.16107008 1.038
