# .PCD v0.7 - Point Cloud Data file format
VERSION 0.7
FIELDS x y z
SIZE 4 4 4
TYPE F F F
COUNT 1 1 1
WIDTH 1190
HEIGHT 1
VIEWPOINT 0 0 0 1 0 0 0
POINTS 1190
DATA ascii
0.043700509 0.10651642 0.61624897
0.040267408 0.089015335 0.64451039
0.03988051 0.1112925 0.60801107
0.039215364 0.11068536 0.60883123
0.041808516 0.10681242 0.61576122
0.038092367 0.088557504 0.64508057
0.034766912 0.084683456 0.65075749
0.034578241 0.084170043 0.6518544
0.034531012 0.10915925 0.61136746
0.033807818 0.10729636 0.61395597
0.033393949 0.10483064 0.61866629
0.030678175 0.091005072 0.64075041
0.029812038 0.087526232 0.64596808
0.031072047 0.086121328 0.6484074
0.033554267 0.084375776 0.65142322
0.032882765 0.10906479 0.61132336
0.032659091 0.10689019 0.61447603
0.031644512 0.10494661 0.61804277
0.028981842 0.090915941 0.64075911
0.028748024 0.088255212 0.64441222
0.028428767 0.08668673 0.64736438
0.063424185 0.10189276 0.61697781
0.063264206 0.10055707 0.61986876
0.060481004 0.087004617 0.64139211
0.060082268 0.085403308 0.64351588
0.060413331 0.10413393 0.61648214
0.060689066 0.10178299 0.62066358
0.059060156 0.099082991 0.62241429
0.057198029 0.088964194 0.63805246
0.058214579 0.088569857 0.64126265
0.057081729 0.086106844 0.64525235
0.054252651 0.1046391 0.61239457
0.055743229 0.10505028 0.61498052
0.054639809 0.10198994 0.62031013
0.055553541 0.099178195 0.6216886
0.054509621 0.088776231 0.63769573
0.052652679 0.0890477 0.64084971
0.0520669 0.085748434 0.64599234
0.049723253 0.083229095 0.64622736
0.05154904 0.10551599 0.61198527
0.050550703 0.10560523 0.61573344
0.050227776 0.10083047 0.61949956
0.048068482 0.088286363 0.63970006
0.047436118 0.087014049 0.64544511
0.046825029 0.083834983 0.64686215
0.045896251 0.10691724 0.61074209
0.045891069 0.10658269 0.61541927
0.044864964 0.10092351 0.61972135
0.042597387 0.089011192 0.63882738
0.042447634 0.087896876 0.64544517
0.041703761 0.083898291 0.64740694
0.040655937 0.10936348 0.60661012
0.040366996 0.10779981 0.60941118
0.039557058 0.1064114 0.61471409
0.040406357 0.10144952 0.61942947
0.038126267 0.089574896 0.63861769
0.036513247 0.087694295 0.64562553
0.036084414 0.083488427 0.64823836
0.035225801 0.08202678 0.65079981
0.038621463 0.10998626 0.60702139
0.036315612 0.10738984 0.60899127
0.035831418 0.10446211 0.61354631
0.034848474 0.10154857 0.61795831
0.032318506 0.088923894 0.63826257
0.032255866 0.08647389 0.64273834
0.032112677 0.083568126 0.64741939
0.033254497 0.082752831 0.65074015
0.032265943 0.10767336 0.60967302
0.032099832 0.1049578 0.61385423
0.030828036 0.10277103 0.61693704
0.028109167 0.08891321 0.6391167
0.028544571 0.08696264 0.64262635
0.027635667 0.084762618 0.64655238
0.063730463 0.099456176 0.61531848
0.063704818 0.097770728 0.61812943
0.060832854 0.084287897 0.63976365
0.060417343 0.083317302 0.64237189
0.061243698 0.10026401 0.61348999
0.062453322 0.095936432 0.61963397
0.059786744 0.09611953 0.62106138
0.057762697 0.086613879 0.63645422
0.060146067 0.084760673 0.63730198
0.05796076 0.081723861 0.64295512
0.054044228 0.10329357 0.61163282
0.056282513 0.10119228 0.61168736
0.053325906 0.096070796 0.61874259
0.055467587 0.096161075 0.62012309
0.054116912 0.086188883 0.63595408
0.051726673 0.08577688 0.63629144
0.052347932 0.081061542 0.64383513
0.049700499 0.08245571 0.64562273
0.05095451 0.10212053 0.60998869
0.051129833 0.10041057 0.6106118
0.049928166 0.09734749 0.61815131
0.047723375 0.08560323 0.63697416
0.047652803 0.080574341 0.64350772
0.04649232 0.080880791 0.64467317
0.046237402 0.10334279 0.60888886
0.045992404 0.099618755 0.61137432
0.045609608 0.098022282 0.61640972
0.043410037 0.084879883 0.63750529
0.042466059 0.081152745 0.6409868
0.042212658 0.080693461 0.64518839
0.041833282 0.104269 0.60834491
0.040864594 0.10110033 0.61147714
0.040264666 0.098796241 0.61562431
0.037787668 0.085058726 0.63769293
0.037351832 0.082475185 0.64144957
0.037624139 0.08115878 0.64564753
0.037082016 0.10394157 0.6089204
0.037804704 0.10226487 0.61064845
0.036347754 0.099557884 0.61542106
0.033608571 0.085700825 0.637797
0.033710543 0.08295384 0.64198941
0.032937367 0.081971608 0.64413297
0.063452974 0.096692793 0.61443281
0.063464247 0.095794238 0.61598331
0.060611866 0.096269622 0.61107045
0.061378848 0.092848733 0.61561191
0.058837488 0.092871428 0.61813402
0.056627087 0.083025217 0.63461596
0.058681969 0.080501981 0.63602531
0.057168193 0.077962279 0.64016342
0.055992804 0.096330024 0.61003649
0.053998798 0.092528075 0.61486328
0.056005448 0.091713317 0.61753631
0.054010104 0.082075417 0.63324231
0.051684417 0.080008835 0.63437569
0.052614298 0.077459671 0.64051497
0.051708095 0.096986517 0.61117065
0.052049328 0.094348863 0.6143198
0.049146879 0.080784544 0.63622636
0.048323445 0.079192728 0.63976014
0.059824947 0.09154442 0.60994595
0.06055101 0.089442469 0.61251825
0.057745151 0.076051801 0.63402861
0.0565321 0.075426802 0.63712978
0.056806624 0.091506511 0.60918516
0.055632822 0.089170814 0.61272663
0.056381594 0.089419805 0.61544067
0.054440223 0.079242244 0.63209397
0.053188134 0.076894224 0.63280827
0.053509317 0.074518479 0.63665873
0.053712647 0.088646725 0.60935313
0.050811775 0.074406423 0.63307816
0.050531246 0.073204599 0.63407755
0.059168361 0.087099418 0.60801154
0.059904143 0.085477397 0.60962534
0.057201266 0.071860589 0.63168085
0.056825053 0.086942635 0.60609603
0.05662765 0.084141381 0.61041927
0.054382592 0.072256684 0.62952554
0.053728566 0.069741741 0.63383567
0.052935708 0.086686604 0.60565889
0.052477591 0.085040994 0.60848892
0.04954531 0.071264155 0.62983733
0.049553834 0.06971544 0.63325053
0.059517618 0.081583261 0.60729951
0.056809563 0.068594232 0.62922072
0.057104021 0.082960747 0.60308886
0.057744823 0.080121808 0.60747719
0.055408802 0.078385778 0.60888964
0.053538263 0.068402223 0.62465155
0.055491261 0.067538574 0.62775427
0.053661495 0.065131582 0.63151997
0.051977471 0.083255395 0.60227776
0.050914727 0.08098536 0.6072523
0.052522719 0.078285247 0.60855752
0.050224945 0.068573147 0.62433147
0.048244528 0.068873703 0.62720031
0.048661724 0.065104961 0.63160098
0.049034715 0.081246585 0.60190433
0.048702665 0.079687625 0.60470146
0.04588728 0.066233397 0.62636143
0.045711756 0.064663969 0.62949085
0.057464264 0.079081774 0.6001128
0.058730692 0.076364376 0.60467982
0.056060702 0.074425876 0.60719633
0.054174609 0.065340899 0.62213504
0.056031909 0.063492782 0.62542737
0.053898267 0.060706206 0.62936121
0.052411295 0.079910323 0.598288
0.051944695 0.074329019 0.60732108
0.050162971 0.065844901 0.62124854
0.048567489 0.060050435 0.63026792
0.047639258 0.07863839 0.59910202
0.046411611 0.076586381 0.6029433
0.047345102 0.073688336 0.60555029
0.045625344 0.064857051 0.62110907
0.043609306 0.063390732 0.6245321
0.044124477 0.06063772 0.62811208
0.044422582 0.075894117 0.59933162
0.044479679 0.075264588 0.60030144
0.042459995 0.062723473 0.62034953
0.041574575 0.061132632 0.62345201
0.041480221 0.059618965 0.62579489
0.057284996 0.074682012 0.59793532
0.057896253 0.072151527 0.6019665
0.055751495 0.070519991 0.6047101
0.053977385 0.061305627 0.61982805
0.055160947 0.059313014 0.62275529
0.05367085 0.056963071 0.62648267
0.052928403 0.076024927 0.59535402
0.05197756 0.069596536 0.60483766
0.050390981 0.061471298 0.61809093
0.049145721 0.055325393 0.62779796
0.047888536 0.075652957 0.59508121
0.044683136 0.074209511 0.60161304
0.047354899 0.069780059 0.60410637
0.045640238 0.061439946 0.61774302
0.043866668 0.055985671 0.62717193
0.043148912 0.074389666 0.59628749
0.041955821 0.072048612 0.5998466
0.043437485 0.069961138 0.6023584
0.041418627 0.060420133 0.61811835
0.039301671 0.05916474 0.62058508
0.039719757 0.056477644 0.62475336
0.039333649 0.072490372 0.59570748
0.038845219 0.071433194 0.59774578
0.036134642 0.057463646 0.62058043
0.03613171 0.055682998 0.62274909
0.055976622 0.071352124 0.59671557
0.056007389 0.069348693 0.59969926
0.054876953 0.068085939 0.60233802
0.053208709 0.05623439 0.62086713
0.052795466 0.054813117 0.62389559
0.052718978 0.070817336 0.59470683
0.052863825 0.067223571 0.59820664
0.051891208 0.066838741 0.60194588
0.050319072 0.057695962 0.61709332
0.05024742 0.054245051 0.61937672
0.049400322 0.05301033 0.62380588
0.048521817 0.070834987 0.59292817
0.049523428 0.065862082 0.59730256
0.04739961 0.066213548 0.60138589
0.045742415 0.057102509 0.61575508
0.046708193 0.052885637 0.61820859
0.044805761 0.051731199 0.62363142
0.042980757 0.07122615 0.59244245
0.04113112 0.068044186 0.59959769
0.042533532 0.065879121 0.59961796
0.040297046 0.056212224 0.6155079
0.039281532 0.057513054 0.61734068
0.03945278 0.051898852 0.62350959
0.038284689 0.070108682 0.59301049
0.036884531 0.068127133 0.59678316
0.038938817 0.065596186 0.59862208
0.036900606 0.055664349 0.6151346
0.034395114 0.055523381 0.61769718
0.034995891 0.052424066 0.62151939
0.035368755 0.067141645 0.59410763
0.032387543 0.05298825 0.61805165
0.032393888 0.052320141 0.61908579
0.046949103 0.065979078 0.59206545
0.047136419 0.064235628 0.59532845
0.046213966 0.062180176 0.59789932
0.044477731 0.052262615 0.61349577
0.044477735 0.050973378 0.61672443
0.043461941 0.048954125 0.61956513
0.04308974 0.066703692 0.58998144
0.045415685 0.064693913 0.59442067
0.042498123 0.06208197 0.59784001
0.040801641 0.052848935 0.6127758
0.04263597 0.050560132 0.61698014
0.039838865 0.047800727 0.6204502
0.038454786 0.066181444 0.59067637
0.036607578 0.063677676 0.59438831
0.039008293 0.062148809 0.59703255
0.036802977 0.052582223 0.61270547
0.033989049 0.050564509 0.61474943
0.035219148 0.04851466 0.61907184
0.035414416 0.066036336 0.59349936
0.032606933 0.051814478 0.61633664
0.032567821 0.050882924 0.61867917
0.066076502 0.05721727 0.59573925
0.066571169 0.05583493 0.59862095
0.066509195 0.053125124 0.6027981
0.066049233 0.05081775 0.60698956
0.064376764 0.048250377 0.61104101
0.063737594 0.045770895 0.6126588
0.063242115 0.05779919 0.59331423
0.062999204 0.047449123 0.61201459
0.060675994 0.045407258 0.61479956
0.058339283 0.043233521 0.61669385
0.060602844 0.058575258 0.5910939
0.057579681 0.043650109 0.61574531
0.05654192 0.042643212 0.61686957
0.051763248 0.059490889 0.58977753
0.052378468 0.059213817 0.59260881
0.051583305 0.056403626 0.59627974
0.049621619 0.047868766 0.61034888
0.049786791 0.045393154 0.61420578
0.0484927 0.043428734 0.61556798
0.048463039 0.061413169 0.58932209
0.050018359 0.061074644 0.59361023
0.047668342 0.05643132 0.59743863
0.046111241 0.049404327 0.60867673
0.047323301 0.047411822 0.61515391
0.044942509 0.044210106 0.61692047
0.043537777 0.062216677 0.58768958
0.042606257 0.057118047 0.59640956
0.041406848 0.049091168 0.60866654
0.040133391 0.043503284 0.61747807
0.040229406 0.061883822 0.58887678
0.039011549 0.059667215 0.59160119
0.039484069 0.05744506 0.59437603
0.037387297 0.048115943 0.60973918
0.036200672 0.046533868 0.61290836
0.03687574 0.04466483 0.61632115
0.066836417 0.054459602 0.59268534
0.067742452 0.052731346 0.59661096
0.067833185 0.049921729 0.6009872
0.066769131 0.047669057 0.6050356
0.06589555 0.044660483 0.60927546
0.064537436 0.04254429 0.61124498
0.061719455 0.056771159 0.58940989
0.063911676 0.055707656 0.5918172
0.064163327 0.052483235 0.5949344
0.064379029 0.048792057 0.60005909
0.06382484 0.046456158 0.60405934
0.0612933 0.04456025 0.60861588
0.061400335 0.042475514 0.6132828
0.058687169 0.040184025 0.61510819
0.058945037 0.057580516 0.58872193
0.05813757 0.054929812 0.59131569
0.057037577 0.051811427 0.59448177
0.056250665 0.049189236 0.59626842
0.055733349 0.043394972 0.60779148
0.055716328 0.042420249 0.612032
0.055612922 0.040027976 0.61595953
0.053574208 0.057027966 0.58706492
0.055072118 0.056693401 0.59094882
0.053643271 0.053560525 0.59599268
0.052031077 0.05052086 0.597256
0.051317506 0.046000663 0.60460556
0.052158844 0.045977607 0.60792106
0.052293651 0.042443965 0.61339939
0.049975589 0.039808981 0.61549568
0.049590025 0.057213865 0.585724
0.046451911 0.051854592 0.59583461
0.048811629 0.051238891 0.59685349
0.047791593 0.04613379 0.6046617
0.045277797 0.045866657 0.60516018
0.045812141 0.038938493 0.61506867
0.043796353 0.057573687 0.58610731
0.042029433 0.054713964 0.58835995
0.042951196 0.052889537 0.59355885
0.041576006 0.044786636 0.60635686
0.039302662 0.04088705 0.61029285
0.04031302 0.040118575 0.61424065
0.040151224 0.055879824 0.59048831
0.040163081 0.055134963 0.59276986
0.038223989 0.044541981 0.60819143
0.037649296 0.043489296 0.61024266
0.037919857 0.042072289 0.61382133
0.067306444 0.050629865 0.59022158
0.069195822 0.048355035 0.59400451
0.069447711 0.045574527 0.5983476
0.068515196 0.043410901 0.60249531
0.067305706 0.040789686 0.60673964
0.064820059 0.038297474 0.60990423
0.063537002 0.052251555 0.58611822
0.065410823 0.051944058 0.58796525
0.062199652 0.048330203 0.59378135
0.063026518 0.045356769 0.59698701
0.062488481 0.043119013 0.60191393
0.060108814 0.040805176 0.60449481
0.062107481 0.037236515 0.61171287
0.059664357 0.035765998 0.61286616
0.059069712 0.052738443 0.58449656
0.060354147 0.051624123 0.59216315
0.059415456 0.048990555 0.59419417
0.057023149 0.046537705 0.59595048
0.056017701 0.042547181 0.60242033
0.057917513 0.041729119 0.6060372
0.056202959 0.035261869 0.61354917
0.054116786 0.053888012 0.58354568
0.053122502 0.046836209 0.59596348
0.052027948 0.042857554 0.60192543
0.050813492 0.034506112 0.61385483
0.048812028 0.054452874 0.58323163
0.047400616 0.047251064 0.59287512
0.047063217 0.045846306 0.59506959
0.046540324 0.042941391 0.59969807
0.046025492 0.041113999 0.60289657
0.045683794 0.034914806 0.61336046
0.044700578 0.053420231 0.58375007
0.043528691 0.051138923 0.58683556
0.043653913 0.049021535 0.59153086
0.043206908 0.046240099 0.595752
0.043541379 0.043465946 0.59999382
0.041765191 0.040516328 0.60431302
0.040687565 0.037721463 0.60819888
0.042098053 0.036399104 0.61198813
0.070631474 0.041083988 0.59645355
0.070303842 0.037905026 0.59878391
0.067758255 0.046170928 0.58767724
0.069737494 0.043839291 0.59140623
0.07002937 0.041725539 0.59542799
0.069344021 0.039511342 0.60011572
0.068215497 0.035408497 0.60443014
0.065575764 0.033731028 0.60786033
0.063514292 0.048320971 0.58386046
0.065566681 0.047355812 0.58515245
0.061635952 0.044622306 0.59356356
0.06147391 0.041298673 0.59486276
0.060898017 0.039056741 0.59894472
0.063006021 0.032799423 0.60959381
0.060568605 0.031382527 0.61033875
0.059733901 0.049079027 0.58271372
0.058003385 0.041608416 0.59406435
0.057758503 0.038356896 0.59895581
0.056184113 0.030868679 0.61118579
0.054393046 0.048930038 0.58140755
0.05333022 0.04167749 0.59240741
0.052687943 0.037947867 0.59923476
0.050378777 0.035770737 0.59893334
0.050680324 0.030675862 0.61135304
0.049769521 0.049320906 0.58138847
0.047304947 0.045786642 0.58319414
0.049176306 0.043529518 0.59045172
0.047936395 0.041098103 0.59367353
0.046684176 0.038799211 0.59757245
0.048018601 0.037333615 0.60049295
0.045130566 0.031282023 0.60678333
0.046370063 0.031323005 0.61011261
0.046192929 0.049412318 0.58297741
0.045761824 0.047349237 0.58517605
0.045247342 0.044397101 0.58917385
0.045040831 0.042239435 0.59269351
0.044892557 0.039550282 0.5972963
0.043304101 0.036537725 0.60154283
0.043490548 0.034133006 0.60540354
0.042947978 0.033713624 0.60887486
0.071672894 0.036897443 0.58954436
0.071166061 0.036530364 0.59316826
0.070751242 0.034559593 0.59623104
0.070218943 0.031311788 0.59904879
0.068342924 0.041532189 0.58521062
0.069902591 0.040224381 0.5886395
0.070436254 0.037128191 0.59321153
0.069808796 0.033313353 0.59811741
0.068707027 0.031925399 0.60174048
0.065858789 0.02955725 0.60524797
0.063079447 0.043888923 0.58125317
0.065378249 0.042905089 0.58256412
0.063209102 0.027973771 0.60671234
0.060510959 0.02764716 0.60769856
0.059559003 0.044145666 0.58051664
0.057627253 0.037336033 0.59289211
0.057129852 0.03560121 0.59575504
0.05631952 0.026997879 0.60793185
0.054915424 0.044004843 0.57994282
0.052334491 0.04217593 0.57990748
0.053228199 0.037777405 0.5914225
0.052934632 0.034968466 0.59594285
0.051265832 0.026802074 0.60720009
0.050772846 0.045035578 0.58051181
0.049059097 0.042504292 0.58186251
0.047050606 0.039943378 0.58608699
0.046818621 0.036883771 0.5907312
0.045716666 0.034423959 0.59453499
0.045690082 0.030812517 0.59864354
0.046385217 0.028769463 0.60315722
0.047388479 0.02805005 0.6067571
0.045994729 0.04091401 0.58625543
0.045602702 0.038296141 0.58994752
0.045184936 0.033820391 0.59494388
0.044379432 0.032936942 0.59937102
0.04440888 0.031709064 0.6023376
0.072295301 0.036748063 0.58341247
0.072793745 0.035356283 0.58656657
0.073105723 0.032959115 0.59082538
0.072252393 0.030383147 0.59515172
0.07121253 0.027644224 0.59903616
0.070174947 0.025981179 0.60175276
0.06966421 0.038301438 0.58192915
0.071337625 0.037306339 0.58540303
0.070251435 0.031843327 0.59683406
0.069300257 0.028619375 0.60091901
0.06707447 0.025069658 0.60334384
0.064316623 0.039668493 0.57855952
0.06541118 0.039668981 0.58001924
0.062555537 0.02565559 0.60491651
0.061443303 0.023029856 0.60490364
0.05987424 0.039804734 0.57811022
0.05650783 0.023443978 0.60500455
0.056424651 0.039834619 0.57813036
0.053935971 0.038563587 0.57874221
0.050907493 0.023874417 0.60199583
0.052901264 0.023814382 0.60442984
0.050625015 0.037447218 0.58066243
0.048464127 0.035588242 0.58360863
0.046872422 0.033736575 0.58770335
0.046246752 0.030865882 0.59279406
0.046817966 0.027298845 0.5966118
0.048292793 0.025787383 0.6003024
0.045847319 0.031414405 0.58759236
0.045404237 0.029551081 0.59140706
0.045354985 0.02748578 0.59391195
0.072651833 0.031874031 0.58492857
0.072649412 0.028653111 0.58827817
0.072406344 0.02613904 0.59236479
0.071185939 0.024553835 0.59654802
0.068684943 0.034124736 0.58000976
0.070524678 0.031147107 0.58273244
0.071414366 0.028004602 0.58555126
0.07056655 0.023411784 0.59286261
0.069196537 0.02260492 0.59652203
0.066497408 0.02140842 0.59972215
0.064766459 0.02122039 0.60341758
0.064638615 0.036540978 0.57701665
0.065152265 0.033834048 0.5783053
0.062935174 0.019708566 0.5994584
0.06149466 0.020211607 0.60302997
0.059930138 0.036808874 0.57674992
0.060135901 0.033392318 0.57691598
0.057213064 0.019209033 0.59911817
0.057738125 0.020221628 0.60250205
0.057085115 0.036551662 0.5763821
0.055004966 0.033930182 0.5772869
0.052918393 0.03063751 0.58003962
0.051165152 0.021503635 0.59445345
0.052486874 0.019945886 0.59859598
0.053437762 0.021013306 0.60246181
0.051163539 0.033905633 0.57855105
0.049388357 0.031671546 0.58164901
0.048689775 0.028826408 0.58547568
0.048195776 0.026009638 0.58991975
0.047807764 0.023761239 0.59397644
0.048791349 0.021601275 0.59768528
0.046041448 0.030623633 0.58590388
0.045559153 0.027920749 0.59040207
0.045487616 0.026099874 0.5934751
-0.0024783984 0.02652264 0.57875395
-0.0028134659 0.024766045 0.58214366
-0.0059054047 0.026729167 0.57876414
-0.0060766935 0.024977785 0.58193541
-0.0088582709 0.026090164 0.57915097
-0.0091116875 0.025266297 0.58080399
0.072371274 0.02375195 0.58666956
0.072182469 0.022704117 0.58900142
0.067718588 0.030176401 0.57912529
0.069367073 0.027081717 0.58085084
0.071091816 0.025119562 0.58415508
0.070343189 0.020656737 0.59059417
0.068204783 0.019312505 0.59337962
0.065702505 0.018388186 0.59615648
0.06475199 0.029673416 0.57782567
0.065431274 0.026597714 0.57782823
0.063523911 0.016568366 0.59407145
0.062533244 0.017868042 0.59639663
0.060169712 0.030230153 0.57742673
0.059425443 0.026708055 0.57806635
0.057633873 0.017525218 0.59304941
0.058037899 0.018281456 0.59624779
0.056574855 0.030600611 0.57783937
0.054783009 0.027152367 0.57951069
0.052419402 0.022874808 0.58258396
0.051890876 0.020378862 0.58649266
0.05341566 0.019386118 0.59187829
0.053994652 0.019438324 0.59575045
0.051522531 0.027629633 0.5813722
0.050778627 0.025190488 0.58365881
0.050452679 0.022586158 0.58733249
0.050375849 0.021616803 0.59132844
0.033557765 0.029646683 0.56840914
0.033681419 0.028958604 0.56918412
0.030717313 0.013312239 0.59420991
0.03055587 0.012933008 0.59524482
0.031191237 0.029993158 0.56815892
0.030166607 0.028388143 0.57060486
0.026143327 0.015964104 0.58966672
0.027645785 0.014630087 0.59271175
0.027958468 0.013119228 0.59524786
0.027395952 0.029376242 0.56821275
0.025630042 0.028091513 0.57092339
0.024672825 0.0263731 0.57345927
0.022874948 0.016883088 0.58873773
0.023154549 0.015261354 0.59152704
0.024462439 0.013283547 0.594109
0.021381933 0.027444098 0.57114917
0.019904699 0.025725864 0.57430619
0.017891418 0.023988307 0.57614166
0.017356128 0.018582314 0.58414584
0.018379521 0.017845526 0.58707482
0.019055869 0.015729999 0.59017605
0.01570994 0.024746971 0.57523406
0.014266327 0.023830164 0.57753068
0.013577659 0.02032947 0.58294284
0.014752582 0.018375233 0.58554274
0.0095179081 0.024121443 0.57482088
0.0096698143 0.023432918 0.57789397
0.0095166415 0.020708106 0.58175695
0.0088111013 0.018580755 0.58372694
0.0071543418 0.023860805 0.57458258
0.0045214817 0.02406957 0.57718599
0.0037646517 0.021173723 0.58126682
0.0059210621 0.018745698 0.58333325
-0.00072978437 0.024231257 0.57762522
-0.0010391325 0.022114541 0.58076113
-0.0051240027 0.025652694 0.57813734
-0.0055889115 0.023941712 0.58107889
-0.0087510422 0.025451725 0.57836336
-0.0089621767 0.024435982 0.58042282
0.072363585 0.019336211 0.58383971
0.07221739 0.018273029 0.5859583
0.068620421 0.022426385 0.57876766
0.070782773 0.020674502 0.5818578
0.069925167 0.01671477 0.58776605
0.067500509 0.015612973 0.59030449
0.063690923 0.022921838 0.57398772
0.065535724 0.023188287 0.57644361
0.063772693 0.014076658 0.59163213
0.061564431 0.01200195 0.59182245
0.06024928 0.02348911 0.57348329
0.059639033 0.024204323 0.57662243
0.057915546 0.015000232 0.59128702
0.058037683 0.011954658 0.59201419
0.05744591 0.023168419 0.57379258
0.05530329 0.022377424 0.57689536
0.052905776 0.022024192 0.58012193
0.052074157 0.017850123 0.5870446
0.053778633 0.014976777 0.58881015
0.055459097 0.012281626 0.5911634
0.052077509 0.020521594 0.57641572
0.050925191 0.019956119 0.5804221
0.050521538 0.017564682 0.58467972
0.050768815 0.014132088 0.58673131
0.035362169 0.027644884 0.56590009
0.03412424 0.026635418 0.56892276
0.031431839 0.011963554 0.59232193
0.032008592 0.0096247261 0.59490448
0.031003062 0.028662082 0.56499946
0.031556807 0.025422983 0.57058263
0.029262539 0.023168862 0.57234162
0.027699042 0.013925849 0.58730751
0.029449124 0.01317703 0.59045446
0.027559221 0.0097024553 0.59541571
0.026166249 0.027231582 0.5653913
0.024053637 0.027783804 0.56801033
0.025350146 0.02281517 0.57381022
0.023932025 0.01561206 0.58526725
0.021375068 0.01259716 0.59237748
0.022922169 0.0098462934 0.5932138
0.023272429 0.025419837 0.56555319
0.020709842 0.025303852 0.56805158
0.021244504 0.023011439 0.57462007
0.019144073 0.021293502 0.57534069
0.018572841 0.016836124 0.58248997
0.020156913 0.01722605 0.58481634
0.01828146 0.012062144 0.58977032
0.020397592 0.0097085293 0.59129018
0.017838985 0.023502443 0.5693233
0.015055139 0.022882208 0.57213181
0.014612138 0.019832332 0.57710654
0.0145359 0.018292043 0.57984591
0.013373367 0.014944628 0.58497745
0.015600838 0.01291511 0.5871895
0.010032374 0.022070007 0.57261443
0.010300677 0.018551048 0.5774799
0.0098334774 0.018330602 0.5776481
0.0088373013 0.015581623 0.58320516
0.0052761286 0.021722326 0.57188934
0.0043283738 0.02014545 0.57595146
0.0038922206 0.018316843 0.57842886
0.0041717924 0.015460402 0.58222312
0.00052879006 0.021345729 0.57129419
-0.00043275952 0.020914352 0.57540649
-0.00067253411 0.018387642 0.57804406
-0.00091513246 0.015490236 0.5812847
-0.0026822463 0.020677853 0.57140756
-0.005354397 0.019870535 0.57396954
-0.0058964044 0.017828759 0.57798642
-0.0041992366 0.015431164 0.58052701
-0.01003965 0.019704985 0.57372725
-0.010459989 0.018222038 0.57728499
-0.014008045 0.019592665 0.57326692
-0.014493868 0.018135522 0.57690281
0.072843738 0.015103489 0.58112055
0.072482005 0.013740949 0.58362478
0.068798162 0.018819366 0.57218212
0.069456629 0.018017618 0.57621175
0.070899017 0.017049253 0.57912683
0.070257358 0.013059681 0.58561677
0.068014324 0.010835572 0.58776689
0.066538848 0.0080054495 0.5901069
0.065641418 0.020268135 0.57167715
0.067112081 0.020689845 0.57514203
0.065498076 0.011526924 0.5899415
0.063455351 0.0083999913 0.59085351
0.060400847 0.021167036 0.5711205
0.057964712 0.021827007 0.57348233
0.05619235 0.011287974 0.59026283
0.058161467 0.0085521117 0.59102494
0.056201436 0.019931819 0.57075483
0.054373652 0.020248968 0.57319111
0.052523315 0.010830515 0.58832717
0.054094475 0.008333914 0.58937216
0.051205017 0.018158939 0.57342899
0.049142312 0.016444206 0.57763439
0.04863368 0.013727015 0.58225548
0.049848326 0.010527183 0.58609682
0.047338247 0.014107415 0.576231
0.047018416 0.012068333 0.5802595
0.039889064 0.023503989 0.55965167
0.040233251 0.023020608 0.5623982
0.036217444 0.0050824154 0.58969361
0.036533017 0.0040993318 0.59272844
0.035874337 0.0019339304 0.5943293
0.036786318 0.024264339 0.5593304
0.037303306 0.02469286 0.56280941
0.035290226 0.021267129 0.56673336
0.033068433 0.0073769493 0.58887666
0.033588175 0.0053422702 0.59380835
0.03271316 0.0022193333 0.59483153
0.033515684 0.024865381 0.56000859
0.030832767 0.023997808 0.56236422
0.030620586 0.02066206 0.56693441
0.029100467 0.020510232 0.56998688
0.027271628 0.010730055 0.58557683
0.028262481 0.0077682873 0.58750427
0.027359236 0.0053035514 0.59261829
0.029583648 0.0031532068 0.59454781
0.026298441 0.024346322 0.56322032
0.026602622 0.020481544 0.56577921
0.025269482 0.01936868 0.57052279
0.023364998 0.011228025 0.58353943
0.02404711 0.0071797697 0.58713877
0.022998799 0.0066917343 0.59167302
0.023507614 0.02392333 0.56445277
0.021332882 0.021757856 0.56634277
0.020468917 0.018949056 0.56987828
0.018469308 0.018658943 0.57341689
0.018328693 0.013878807 0.58110672
0.019017812 0.010934918 0.58283252
0.018873543 0.008814035 0.58721334
0.020507056 0.0081648361 0.59055537
0.015652366 0.019268883 0.57099175
0.014386497 0.016947694 0.57329816
0.013852574 0.01377406 0.57868791
0.013840459 0.012448912 0.58178842
0.015768368 0.011127526 0.58559155
0.010444254 0.017817965 0.57008404
0.010836888 0.015327141 0.57486486
0.010629527 0.014643203 0.57602316
0.0091936737 0.011028852 0.58059645
0.005435966 0.017845038 0.56955433
0.0044160709 0.015153991 0.5739634
0.0044907518 0.014292948 0.57538807
0.0042731017 0.011145927 0.5801785
0.0017157905 0.017662182 0.56962395
-0.00016821176 0.016775619 0.57117051
-0.00011059642 0.01410071 0.57431346
-0.00036319345 0.011669204 0.57927549
-0.0036002696 0.015947459 0.57180315
-0.0043459386 0.013118355 0.57596684
-0.0035233721 0.010508453 0.57733548
0.073126458 0.011283044 0.57799953
0.072894529 0.0092024803 0.5813508
0.069092788 0.01574865 0.57053435
0.070751019 0.014282227 0.57292557
0.072170101 0.013315421 0.57618946
0.071379051 0.0083891721 0.58383787
0.069158949 0.0061417818 0.5859251
0.066854261 0.0049285246 0.5880422
0.066308066 0.016481098 0.56898177
0.066157073 0.0068289619 0.58849645
0.063965477 0.0042857071 0.58881885
0.061261401 0.017572835 0.56701392
0.058968168 0.0032310635 0.58957285
0.056773148 0.016661568 0.56381726
0.05552616 0.017550927 0.56682479
0.053075831 0.0037467713 0.58895469
0.053072952 0.0006778026 0.58946413
0.051557362 0.015511896 0.5672152
0.049651578 0.015843973 0.5706526
0.048185844 0.0071299737 0.58496404
0.049421817 0.0038687158 0.586285
0.045080479 0.019686654 0.55792582
0.045192804 0.01918494 0.56052196
0.048390035 0.013840145 0.56709975
0.046138465 0.013742492 0.56982213
0.044981353 0.011366082 0.57479519
0.044566669 0.0091736969 0.5786823
0.044622965 0.0058328006 0.58267254
0.043842837 0.0021652388 0.58588731
0.041519914 7.977616e-05 0.59061754
0.040721595 -0.001999544 0.59218222
0.041632965 0.021890773 0.55752212
0.042448223 0.020851422 0.56171328
0.040809505 0.016833102 0.56406236
0.043103866 0.011280123 0.57036757
0.041798063 0.0051810797 0.57989299
0.038119845 0.0028533186 0.58678514
0.039163694 0.0018095756 0.5918625
0.03732013 -0.0008708071 0.59402579
0.037669983 0.022202231 0.55731779
0.035120212 0.019215487 0.55882323
0.036250383 0.016853388 0.56557459
0.034142945 0.0043783169 0.58538616
0.031583011 -0.00049945712 0.59039712
0.033416793 -0.00048482325 0.59401929
0.034064375 0.022748478 0.55880713
0.032378845 0.019562997 0.5611167
0.032134645 0.017466344 0.56420177
0.029537 0.0036914721 0.58607376
0.028881632 0.002376576 0.58944517
0.030002687 0.001395829 0.59343964
0.0098738112 0.013844145 0.5679341
0.010929711 0.011516307 0.57049018
0.010206681 0.0091267461 0.57430702
0.0086273961 0.0076643266 0.57797575
0.0076450296 0.013222765 0.56792051
0.0046252646 0.012065975 0.56929833
0.0035972707 0.0093977889 0.57310814
0.0047551021 0.007584339 0.5769105
0.0010186471 0.014824506 0.56820142
0.00076922029 0.011496231 0.56904483
0.00043189526 0.0092762234 0.57354099
-0.00032425672 0.0084221642 0.57693857
-0.0045342371 0.011727234 0.56880474
-0.0054855421 0.0095159067 0.57324743
-0.0049242601 0.008645311 0.57616806
-0.0092625692 0.010855144 0.56813508
-0.010069191 0.0089812325 0.5723356
-0.013721444 0.01035876 0.56734151
-0.014388643 0.0082764309 0.57131332
0.0737774 0.0073708296 0.57570875
0.073530398 0.0051303683 0.57935607
0.068769038 0.012120634 0.56848609
0.070664577 0.010150271 0.57031029
0.072237931 0.0081637222 0.5735262
0.07153406 0.0035172906 0.58045459
0.069123857 0.0019976329 0.58323139
0.066701889 0.00046787597 0.58482134
0.065019369 0.013372578 0.56206638
0.066450208 0.012319859 0.56605083
0.066769592 -0.0010289261 0.58367348
0.064079478 -0.00022971444 0.5863651
0.061868049 -0.003317914 0.58872539
0.06178984 0.014451094 0.5609231
0.062454853 0.015041001 0.56458688
0.05940146 5.037291e-05 0.5887326
0.058574025 -0.0034273397 0.58964115
0.056841582 0.014859516 0.56114453
0.053755943 -0.0025029052 0.58914196
0.050278477 0.01548329 0.55530316
0.05130019 0.013369214 0.55974036
0.051004093 0.012598533 0.56366318
0.048486941 -0.00089288875 0.58519661
0.048275106 -0.0040191254 0.58766824
0.046351466 -0.0066935215 0.59083068
0.047020871 0.017368408 0.55493283
0.047637638 0.016096549 0.56001019
0.046623047 0.012083938 0.56332844
0.045725308 0.012328444 0.56675619
0.043140568 0.0069696549 0.57352865
0.043174744 0.0059936456 0.5741877
0.043827582 0.0021374696 0.58268738
0.044153675 -0.00072063738 0.58422112
0.044255339 -0.0025266809 0.58945596
0.042757452 -0.0058249189 0.5922057
0.042504143 0.017746639 0.55487561
0.041723795 0.012579832 0.56243992
0.042507626 0.0096560791 0.56701773
0.042447302 0.0069733094 0.57105041
0.041795947 0.0042250212 0.57573527
0.040886685 0.0019061379 0.58027154
0.039227165 -0.00061929971 0.58387017
0.038266525 -0.0050430782 0.59193265
0.038982168 0.016863611 0.55553913
0.037017062 0.015151799 0.55798399
0.036458924 0.013064126 0.56183255
0.034003466 -0.00082242349 0.58372551
0.033556066 -0.0030380823 0.58771116
0.035154365 -0.0046924409 0.59046626
0.03388099 0.016253363 0.56041664
0.033677116 0.014889346 0.56176758
0.028643358 0.0052395063 0.56965423
0.028279066 0.0040299986 0.57176268
0.031076334 0.00022805063 0.58494031
0.030784018 -0.00027984381 0.58697182
0.024632402 0.006949354 0.56851929
0.02412099 0.0044012964 0.57249486
0.02213148 0.0064678341 0.56872684
0.021977011 0.0043161297 0.57190686
0.0089364201 0.010765009 0.56641871
0.0092106834 0.0081106629 0.56749982
0.0085627213 0.0055249892 0.57240176
0.0077946633 0.0050249733 0.5749746
0.0078776963 0.010258257 0.56615746
0.0055509917 0.0071356725 0.56734359
0.0049964525 0.0046699187 0.57111973
0.0057168454 0.0048469966 0.57476306
0.0025894605 0.0050780475 0.56720924
0.0022407137 0.0037572272 0.57041514
-0.010126129 0.0090176631 0.566504
-0.012284085 0.0066646142 0.57109821
-0.013691336 0.0083811115 0.56606174
-0.014468387 0.0067325421 0.57027072
0.07363914 0.0037797578 0.57464415
0.073442787 0.0024323529 0.57668978
0.07000421 0.0062523428 0.56856537
0.070986316 0.0032582884 0.57191205
0.070715077 0.00019196421 0.57645261
0.068484411 -0.0012706183 0.58054012
0.064998016 0.011415986 0.56141537
0.066314399 0.0085218381 0.56305677
0.067924976 0.0056420257 0.56608003
0.066028029 -0.0034578028 0.5809322
0.063791215 -0.0045967563 0.58426255
0.062255319 -0.0044755647 0.58739799
0.061525431 0.010729881 0.55921757
0.062920071 0.0081870938 0.56030625
0.060069632 -0.0067914203 0.58467662
0.058251716 -0.0064867889 0.58714235
0.055931803 0.010469102 0.55408174
0.057900969 0.011287229 0.55644035
0.054113276 -0.0083169052 0.58822298
0.051763646 -0.010424132 0.5882656
0.051788554 0.012781415 0.55315363
0.052920438 0.012345813 0.5571695
0.049514435 0.010290135 0.5623759
0.046988375 -0.0026691952 0.58320332
0.049447332 -0.0065875561 0.58795601
0.047824413 -0.0099081462 0.58985746
0.047733363 0.014152914 0.55153382
0.046941005 0.0092880689 0.56198192
0.043075599 0.00082409289 0.57098126
0.044449769 -0.0033112331 0.58208406
0.043241762 -0.010341438 0.59125972
0.042850919 0.013686217 0.55160725
0.041397505 0.0084262909 0.56139445
0.041923821 0.0055576209 0.56423527
0.041880287 0.0029908121 0.5689314
0.041260011 0.00052109454 0.5729124
0.040152155 -0.0024872674 0.57704175
0.039413445 -0.0035260823 0.58072352
0.0381946 -0.0099641122 0.58999693
0.03936521 0.013036903 0.55293816
0.038173147 0.011179609 0.55529726
0.038353957 0.009442498 0.55891556
0.033843666 0.0012115221 0.5673759
0.033604555 -0.00032776501 0.57018971
0.035598174 -0.0049605239 0.58234328
0.034750529 -0.0074525201 0.58530885
0.035347074 -0.0088814162 0.58813894
0.029801026 0.0042338669 0.56434071
0.031474274 0.0030825208 0.56729203
0.030546252 0.00044623483 0.57167399
0.028500617 -0.0023807115 0.57285953
0.026330918 0.0051574837 0.56371194
0.025684532 0.0059080683 0.56606412
0.025195945 0.0010191975 0.5730707
0.025034938 -0.0022656296 0.57362658
0.021054119 0.0051304381 0.56162292
0.020215463 0.004083408 0.56619984
0.019802205 0.0011357702 0.57089162
0.019813105 -0.0023808607 0.57403094
0.018723439 0.0032242225 0.56198567
0.017429609 0.0018740189 0.56605273
0.01732856 -0.00039473083 0.56930172
0.017544501 -0.002316698 0.5722841
0.0048831664 0.0036293687 0.56561786
0.0045065843 0.0014672508 0.56895143
0.001136478 0.0025346992 0.56464249
0.00058055669 0.00085886475 0.56794077
-0.0020319074 0.0012597125 0.56425393
-0.0026337281 -0.00034531206 0.56717235
0.068965755 -0.00078301737 0.5707953
0.069008462 -0.0025997753 0.57333994
0.065437838 0.0041474365 0.561665
0.066201694 0.0016149096 0.56446701
0.06735725 -0.0014458059 0.56830585
0.066851676 -0.0051464657 0.57364464
0.064716309 -0.0064363955 0.57745618
0.063159272 -0.0076977275 0.58074528
0.060266241 0.0069525689 0.55780655
0.062199946 0.00426747 0.55941981
0.063720971 0.00044913031 0.56189185
0.061835881 -0.0089966264 0.5771516
0.059585601 -0.0093663242 0.58124131
0.057224397 -0.0092693092 0.58410847
0.055880059 0.009233498 0.55307716
0.057866778 0.0069723073 0.55497515
0.059601214 0.0036914796 0.55716115
0.056516558 -0.011336987 0.58172768
0.054434814 -0.011598155 0.58495188
0.051783524 -0.012329047 0.58750606
0.052797638 0.0093969423 0.55203372
0.052369609 0.0059715882 0.55300337
0.048697382 -0.013368086 0.5840348
0.048814416 -0.012714591 0.58773249
0.04771179 0.0090691205 0.55024147
0.049182355 0.005113638 0.55275422
0.045230925 0.002298946 0.55718458
0.045596503 0.00046383217 0.56244349
0.044345982 -0.00052215019 0.56408316
0.04299926 -0.005620705 0.57233757
0.043934844 -0.0068888939 0.57394373
0.042715676 -0.010839283 0.57808852
0.045422681 -0.013760527 0.58315486
0.043362699 -0.013968574 0.58721513
0.043234207 0.0089836977 0.55033332
0.041752525 0.0055726497 0.55246729
0.041953303 0.0036986778 0.55734825
0.042908844 0.0029470418 0.562626
0.041089848 -0.00022159098 0.56579173
0.040029228 -0.0036506411 0.57111645
0.041482609 -0.0052762502 0.57534486
0.039398968 -0.0095240967 0.57853383
0.038327906 -0.012861839 0.582313
0.039187975 -0.013538283 0.58643073
0.039992195 0.010302498 0.55204475
0.039552152 0.007780917 0.55375755
0.039198741 0.0063009541 0.55658233
0.034917951 -0.0009559379 0.56180739
0.03613013 -0.0010740212 0.56542444
0.035781283 -0.0037646159 0.56969786
0.033805646 -0.0065442314 0.57100046
0.036497615 -0.0084655825 0.5805946
0.036181286 -0.010572622 0.58334178
0.0314201 0.00077100517 0.56130326
0.03306178 0.00068061333 0.56420398
0.032057013 -0.0035142449 0.57089752
0.030042391 -0.0060127066 0.57193422
0.026743524 0.0020396104 0.55936974
0.025077909 -0.0062107742 0.57278287
0.022344109 0.0038922299 0.55808854
0.022120632 0.0028524897 0.55841088
0.020082425 -0.0059493994 0.57274967
0.018111773 0.00094839092 0.55989355
0.015513167 -0.0010048994 0.56305754
0.015329532 -0.0038068318 0.56735355
0.017096825 -0.0051009948 0.57059479
0.00027168542 -0.00036297273 0.56325841
-0.00035408139 -0.0018385996 0.56571639
-0.001854904 -0.00083788135 0.56264418
-0.0025396347 -0.002445484 0.56568086
0.064049259 -0.0017260339 0.56474721
0.065848157 -0.0041521224 0.56829298
0.065775752 -0.0059708524 0.57111651
0.063481122 -0.0073697851 0.57393533
0.060922556 0.0010210779 0.55894983
0.061495401 -0.0016972539 0.56195319
0.061336659 -0.0056637833 0.56601465
0.060806796 -0.0083285486 0.56982195
0.059945777 -0.0096920673 0.57501364
0.058432039 -0.011158349 0.57822669
0.056284521 0.0029238514 0.5541786
0.057219379 0.00043732673 0.55683208
0.056787804 -0.0033640976 0.56041759
0.056589123 -0.0067953318 0.56440932
0.056084469 -0.0094713075 0.56840146
0.055242747 -0.01127316 0.57339287
0.054675315 -0.012788347 0.57811928
0.053013504 -0.014095027 0.5815773
0.053285182 0.0028678211 0.55374283
0.052526522 -0.00057875644 0.55603719
0.052428149 -0.0038157252 0.55843657
0.05270081 -0.0086110495 0.56533283
0.053650428 -0.0091432501 0.56635922
0.050922919 -0.01273155 0.57272804
0.050051816 -0.013622558 0.57716364
0.049953885 -0.014240051 0.5813719
0.046056002 0.0059448844 0.55004239
0.047368001 0.0040963367 0.55271155
0.047364395 0.00076362258 0.55594361
0.046240829 -0.002876326 0.55991268
0.045300275 -0.0061937589 0.56074423
0.044203676 -0.010934813 0.56838799
0.044832893 -0.010901619 0.57237679
0.044732802 -0.012561874 0.57721919
0.044165887 -0.013744516 0.58134061
0.041967124 -0.015202959 0.58418459
0.044724971 0.0060868887 0.54995173
0.043940611 0.0046471544 0.5514679
0.04324583 -0.0036949904 0.56138963
0.041324012 -0.005039691 0.56153309
0.040713239 -0.0096841026 0.56823123
0.042099148 -0.0094376402 0.57044673
0.040456496 -0.014413 0.58248866
0.036400702 -0.0041190241 0.55998802
0.038014986 -0.0039002665 0.56135702
0.036483388 -0.00814649 0.56961572
0.035446472 -0.01012693 0.56939739
0.031199787 -0.0024033806 0.55727345
0.029657338 -0.010624485 0.57110757
0.027906802 -0.0027000385 0.55629909
0.026199441 -0.01125554 0.57073069
0.022272356 -0.0025783873 0.55656743
0.020621706 -0.010355446 0.56939608
0.017452311 -0.0030211431 0.55703551
0.01463731 -0.0048185103 0.55960083
0.014178135 -0.0084358007 0.56544578
0.016225263 -0.01011612 0.56805509
0.013904087 -0.0064037601 0.56093806
0.013652064 -0.0075137056 0.563218
0.0544504 -0.0075605907 0.56347483
0.053857785 -0.010300993 0.56794548
0.05177775 -0.0057092751 0.56002533
0.05160189 -0.0075800358 0.56278926
0.051002219 -0.010594181 0.5676592
0.050237402 -0.012256596 0.5705837
0.048796602 -0.0058262972 0.5598616
0.046629321 -0.0079517504 0.56290448
0.046274826 -0.010130685 0.56643605
0.047561646 -0.012092332 0.56997013
0.041456379 -0.008264266 0.56195462
0.040762372 -0.010594872 0.56546342
0.036211658 -0.0074506262 0.5578149
0.037967023 -0.0095847007 0.55972844
0.03751139 -0.01257707 0.56505412
0.034982417 -0.013397805 0.56741154
0.030259531 -0.0068216631 0.5522328
0.031407788 -0.0063079875 0.55480206
0.029969588 -0.014743892 0.56882417
0.028282795 -0.016363611 0.57003331
0.029725451 -0.0061706812 0.55261731
0.027916655 -0.0062155891 0.55432343
0.026173096 -0.014923589 0.56867588
0.02762571 -0.016275179 0.57010168
0.022286609 -0.0071439883 0.55460238
0.020966232 -0.014352622 0.56668663
0.017825678 -0.0073952833 0.55479312
0.01516683 -0.0094739916 0.55759478
0.01473419 -0.012364657 0.56216669
0.01675307 -0.014146101 0.56536382
0.01416944 -0.007934819 0.55954736
0.013923153 -0.0093099708 0.56157011
0.035503894 -0.013064001 0.55859268
0.035076059 -0.015125387 0.56208336
0.031553775 -0.011412232 0.55429214
0.03261622 -0.014634525 0.55637926
0.032142632 -0.017506372 0.56130737
0.030442115 -0.017765906 0.5647018
0.02758842 -0.01144665 0.5527842
0.029022098 -0.019532731 0.56137127
0.02608522 -0.018829571 0.56480879
0.022738673 -0.011648829 0.55294561
0.020637613 -0.014269551 0.55316472
0.019419208 -0.018893428 0.56086892
0.021348204 -0.018292701 0.56363809
0.018926971 -0.011040799 0.5537439
0.017510135 -0.013711951 0.55533224
0.016935196 -0.016316816 0.55955189
0.018088907 -0.016975023 0.56303287
0.030340575 -0.017199563 0.5564115
0.030429363 -0.018301178 0.55856609
0.027632914 -0.014677153 0.55271733
0.0261693 -0.018874839 0.55425501
0.02580516 -0.020832438 0.55704981
0.025635514 -0.02066437 0.56144172
0.02462713 -0.014848203 0.55225563
0.022462469 -0.019099995 0.55379605
0.02173306 -0.021035012 0.55675405
0.022856999 -0.02052396 0.56114048
0.019195892 -0.016948447 0.55522037
0.01911955 -0.018520471 0.55742806
0.041100726 -0.027462436 0.55684072
0.041205779 -0.028445842 0.55804163
0.039288938 -0.027314341 0.55622882
0.025149923 -0.022505054 0.55334055
0.025070049 -0.023382412 0.55415547
0.022872664 -0.022697756 0.55224067
0.022437867 -0.024005476 0.55446166
0.01972048 -0.02256454 0.55295253
0.019716129 -0.023083003 0.55371308
0.045592539 -0.029377719 0.55683511
0.045559157 -0.030132564 0.55782092
0.042150728 -0.029114913 0.55523986
0.042180885 -0.029999036 0.55780452
0.036954179 -0.028240809 0.55098867
0.037486456 -0.029016359 0.55430734
0.03882781 -0.030261518 0.55693513
0.033715393 -0.028889559 0.54944825
0.034095716 -0.030066775 0.55240142
0.027277917 -0.027792262 0.54902053
0.026397679 -0.028789613 0.55088854
0.023208998 -0.026975505 0.54898733
0.023039408 -0.028193628 0.55137312
0.036509987 -0.030762734 0.54918361
0.03705138 -0.032023866 0.55152684
0.033023797 -0.031113334 0.54738289
0.032948926 -0.032641344 0.55030042
0.028128609 -0.031385977 0.54642349
0.028061777 -0.031640504 0.54927129
0.024576444 -0.030628111 0.54730576
0.024774682 -0.030929759 0.54903197
