# .PCD v0.7 - Point Cloud Data file format
VERSION 0.7
FIELDS x y z
SIZE 4 4 4
TYPE F F F
COUNT 1 1 1
WIDTH 837
HEIGHT 1
VIEWPOINT 0 0 0 1 0 0 0
POINTS 837
DATA ascii
0.081155673 0.025904009 0.6133278
0.081266895 0.024682742 0.61582917
0.080894262 0.03396713 0.60730445
0.081556082 0.031445809 0.60987282
0.082104996 0.028651975 0.61376905
0.082219377 0.026471071 0.61816442
0.081829414 0.02492401 0.62274575
0.081353098 0.024522103 0.6264919
0.081286818 0.037512153 0.60786629
0.082635701 0.035472311 0.61162847
0.083473399 0.033202045 0.61596286
0.083585531 0.031009214 0.62050444
0.082917318 0.028719323 0.62491047
0.081769213 0.027107708 0.62900299
0.080312967 0.043538745 0.60706258
0.081519112 0.042087127 0.60932857
0.083164945 0.03996896 0.61373448
0.084023833 0.037765693 0.61814642
0.084135868 0.035542477 0.62274593
0.083490431 0.033310197 0.62720901
0.082010761 0.030966625 0.63171786
0.080946937 0.030812971 0.63465196
0.080248378 0.046630688 0.60866868
0.08129856 0.046627685 0.61157882
0.082960591 0.044389896 0.61594456
0.083820574 0.042260528 0.62052244
0.083925724 0.040007815 0.62499666
0.083287366 0.037689447 0.62939769
0.081826374 0.035407584 0.63388008
0.080855019 0.03308966 0.63575375
0.080718309 0.050386295 0.61434162
0.081962109 0.048956133 0.61838442
0.082870707 0.04663568 0.62267679
0.082994357 0.044332854 0.62714839
0.082286134 0.04209736 0.6317414
0.081199117 0.039885081 0.63530689
0.080066875 0.052923523 0.61690676
0.080571443 0.052520391 0.62056333
0.081125513 0.050956942 0.62501925
0.081231937 0.048783887 0.62932897
0.080866009 0.046086971 0.63333333
0.080429703 0.043529253 0.63593525
0.07991644 0.052939609 0.62706727
0.079967752 0.051716141 0.62958449
0.076259427 0.02497487 0.60361081
0.076886758 0.02299295 0.60623538
0.077334747 0.02059361 0.60990775
0.077433124 0.018410863 0.61424601
0.077150688 0.016887726 0.61843216
0.076238036 0.031642795 0.60052007
0.077273399 0.028743517 0.60302764
0.078807183 0.026323326 0.60702962
0.079705626 0.023957321 0.61142772
0.079795845 0.021648431 0.61599076
0.079108439 0.019571379 0.62050289
0.077856898 0.01790477 0.62478441
0.076848805 0.01744174 0.62867749
0.077069834 0.03524629 0.60098022
0.079210207 0.032899082 0.60453546
0.080431387 0.029993957 0.60789275
0.080946818 0.027752697 0.61058521
0.081115976 0.023255145 0.61940533
0.080773085 0.022483852 0.62292695
0.079740219 0.021578308 0.62730038
0.077749535 0.020033004 0.63132125
0.076380327 0.020478386 0.635261
0.07593894 0.041386016 0.5998373
0.078151442 0.039663769 0.60250986
0.080074966 0.037656158 0.60539752
0.080670573 0.02509493 0.630431
0.078886949 0.024090424 0.63401508
0.076792091 0.022880848 0.63704032
0.076128468 0.04594877 0.60146505
0.078776702 0.044189274 0.60462445
0.080956906 0.028061811 0.63285804
0.07950601 0.028528092 0.63632405
0.077068605 0.026768489 0.63948786
0.076061368 0.050161112 0.60375392
0.078582585 0.048783761 0.60693932
0.079946078 0.049271151 0.61020315
0.080597073 0.035722271 0.63682634
0.079301849 0.033068456 0.63856387
0.076924495 0.031221066 0.64164478
0.075478956 0.053997949 0.60625315
0.077562653 0.053136081 0.60927546
0.079426512 0.052204534 0.61270523
0.079992026 0.039814267 0.63778001
0.078262113 0.037531897 0.64068371
0.076257341 0.035480756 0.64331138
0.075974479 0.05702427 0.61168838
0.078222446 0.055601776 0.61590409
0.079264812 0.054897044 0.62043595
0.079699948 0.054086786 0.62410587
0.079909474 0.049902845 0.6324091
0.079617642 0.047496311 0.63525295
0.07874959 0.044326376 0.63859069
0.076775506 0.041843712 0.64222264
0.075509183 0.038906686 0.64423186
0.074910715 0.059564706 0.61463505
0.075959802 0.05915869 0.61834735
0.077318519 0.057675533 0.62275034
0.07827659 0.055552535 0.62720233
0.078420632 0.053225741 0.63174403
0.077636555 0.050919905 0.63621545
0.07644324 0.048308384 0.64009857
0.075590461 0.045403864 0.64269036
0.075131491 0.060161963 0.62464231
0.075621009 0.058566477 0.62898302
0.075756185 0.056400757 0.63323402
0.07543759 0.054013938 0.63700193
0.072159044 0.0185089 0.6038698
0.072818428 0.01612979 0.6078313
0.072901122 0.014010226 0.61202979
0.072478473 0.012291672 0.61632562
0.072029859 0.026826151 0.5978471
0.073241077 0.023948954 0.60066807
0.074446216 0.021137727 0.60429287
0.075155966 0.018296706 0.60869282
0.07532689 0.016064806 0.61332905
0.074834377 0.014282571 0.61808389
0.073860079 0.013077853 0.62266672
0.072627112 0.012362406 0.62669694
0.071700945 0.033033751 0.59571463
0.073510885 0.03036359 0.59801304
0.075283781 0.02751974 0.60092622
0.07570155 0.015223593 0.62543923
0.074244045 0.014771074 0.62950099
0.07255698 0.014530707 0.63310397
0.070454411 0.039961915 0.59450561
0.072751805 0.037208125 0.59632093
0.074889995 0.034715224 0.59845012
0.075720295 0.017834783 0.63266057
0.073618226 0.017404201 0.63587958
0.071542256 0.017806659 0.63938802
0.071036883 0.043411788 0.59555662
0.073444985 0.041923072 0.59736508
0.07454671 0.021114336 0.63877308
0.072128654 0.020527789 0.64129621
0.071317315 0.047939669 0.59730387
0.073776841 0.046694819 0.59909183
0.074823514 0.025433943 0.64169812
0.072414897 0.024467288 0.64377373
0.07106638 0.052126352 0.59936172
0.073672444 0.051293988 0.60149884
0.074617758 0.030024059 0.64400464
0.072165377 0.028840914 0.64600748
0.070486665 0.055844009 0.60173208
0.072931372 0.055646949 0.60439742
0.073894165 0.03495333 0.64574176
0.071527109 0.033049379 0.64762998
0.071676455 0.059238382 0.60727179
0.073733717 0.059214592 0.61070371
0.074616812 0.042015877 0.64472198
0.07262136 0.039351251 0.646927
0.070660397 0.036254186 0.64866501
0.070251122 0.062133811 0.6101023
0.07209862 0.061970033 0.61383235
0.073704779 0.061532103 0.61792833
0.074376851 0.04938275 0.64216161
0.072796598 0.046344951 0.64518219
0.071191624 0.043271422 0.64758223
0.070135728 0.064267531 0.61645252
0.071554437 0.063586265 0.62045801
0.072590381 0.062521383 0.62509602
0.073234752 0.060816418 0.6298396
0.073361337 0.058456481 0.63453931
0.072977975 0.055612944 0.6387893
0.071978144 0.052631032 0.64255923
0.070932806 0.049721181 0.64542019
0.069468617 0.065166272 0.62370861
0.070023835 0.06433177 0.62677979
0.070707738 0.062593743 0.63107294
0.070765972 0.060501572 0.63534188
0.070270509 0.058098555 0.63936275
0.069874167 0.056176536 0.64182472
0.066973776 0.011668967 0.60713553
0.066891521 0.010252673 0.60990375
0.06677638 0.022327896 0.59612429
0.068339705 0.019959724 0.59889984
0.069055624 0.016662514 0.60254502
0.069295347 0.013772437 0.60653841
0.069445267 0.011516744 0.61111844
0.069276527 0.0099408589 0.61592382
0.068895444 0.0091038905 0.62060958
0.067532748 0.0083121676 0.62432057
0.067158721 0.028735874 0.59355491
0.068670578 0.02577588 0.59570551
0.070236139 0.022557475 0.59857398
0.070788287 0.01040527 0.62291497
0.069453359 0.010050584 0.62721401
0.067992799 0.010051036 0.63101375
0.066496283 0.035541423 0.59194165
0.068375446 0.032548573 0.59346396
0.070268199 0.029485848 0.59539551
0.07108108 0.012012178 0.6302762
0.069219269 0.012287274 0.63414913
0.067183957 0.012602016 0.63740915
0.067538403 0.039111018 0.59259635
0.069684193 0.036719233 0.59386516
0.070657246 0.0150933 0.63702607
0.068602785 0.015420131 0.63971663
0.067739189 0.043813229 0.5934096
0.068909928 0.019031005 0.64307362
0.06510368 0.050203152 0.59404695
0.06764172 0.048617594 0.59489775
0.068891793 0.023203298 0.64604819
0.066400856 0.023169402 0.64779818
0.065052412 0.052733541 0.59535062
0.067430437 0.05320143 0.59719026
0.068610013 0.027688107 0.64833504
0.066271789 0.025711978 0.64909524
0.067128956 0.057246849 0.60013795
0.068300173 0.032390244 0.64977229
0.06649407 0.06070549 0.60337156
0.06845703 0.061252058 0.60603195
0.069515452 0.039568689 0.64938039
0.067545183 0.037155256 0.65067202
0.064972214 0.063382111 0.60578519
0.06689395 0.06397564 0.60915184
0.068727955 0.064341716 0.61284161
0.069599867 0.046999622 0.64770186
0.067897715 0.043754403 0.64972025
0.066037804 0.040745344 0.65137064
0.065385379 0.06607385 0.61214012
0.066825867 0.066241533 0.61600518
0.068311825 0.065933533 0.62024271
0.068937987 0.053814579 0.64453834
0.067503758 0.050511952 0.64751768
0.066274777 0.047414165 0.64966977
0.064749464 0.067790665 0.61886311
0.066160642 0.067136459 0.6225279
0.066680536 0.066309318 0.62726921
0.066863038 0.064823784 0.6321187
0.067081049 0.062487938 0.63666546
0.067095138 0.059575431 0.64067727
0.066664115 0.056240596 0.64432299
0.06532909 0.053874228 0.64700514
0.064470731 0.065394521 0.63408589
0.064470112 0.064475179 0.63596332
0.062189296 0.015563386 0.59860533
0.063426681 0.01359937 0.60145032
0.06426584 0.011141019 0.60547709
0.064272597 0.008890288 0.60989481
0.0637476 0.0071838927 0.61437023
0.06262695 0.0060795136 0.61761451
0.063362673 0.021908132 0.5945493
0.064063489 0.018084122 0.59750694
0.065510556 0.015322402 0.60091603
0.066476904 0.013329282 0.6040383
0.065879419 0.0079122763 0.61562765
0.064619072 0.0067678634 0.62015808
0.064104825 0.0066858511 0.62500548
0.060904518 0.0310161 0.59012246
0.063177906 0.028001945 0.59183192
0.064677879 0.024776071 0.59368873
0.065627471 0.0077935569 0.62770188
0.064182468 0.0081864335 0.63151681
0.062833555 0.034372475 0.59039319
0.064449057 0.031727985 0.59140897
0.065509476 0.010139741 0.63478631
0.063859589 0.010837449 0.63757962
0.060936779 0.041794315 0.58982587
0.063058227 0.039356533 0.59041327
0.06423413 0.01384748 0.64148766
0.062175907 0.014797727 0.64386833
0.061991986 0.04510504 0.59089601
0.064221293 0.043686885 0.59146166
0.065621726 0.017703356 0.6444937
0.063202351 0.017629011 0.64583403
0.062387999 0.049637865 0.59259707
0.064873867 0.047009841 0.59264249
0.06376598 0.021702768 0.64834911
0.062186036 0.054101974 0.59483337
0.064558141 0.055429555 0.5968315
0.063634664 0.026270919 0.65059793
0.061436653 0.057915695 0.59727335
0.063549533 0.058532253 0.59887403
0.064793341 0.032253325 0.65173268
0.062742949 0.030492349 0.65225714
0.060057186 0.060822666 0.59935212
0.062130488 0.061976474 0.60181779
0.063272759 0.036433123 0.65276521
0.061304316 0.033836283 0.6533888
0.061415464 0.064930387 0.60568053
0.062883012 0.065768801 0.60838181
0.063904099 0.044180803 0.65179205
0.062427327 0.041363619 0.65285885
0.061405413 0.067606986 0.61171502
0.062808499 0.06810867 0.61541635
0.063491203 0.051056646 0.6495409
0.062316377 0.04777712 0.65135682
0.06118048 0.069086969 0.61816192
0.061683476 0.069068059 0.62300134
0.063164786 0.068004295 0.62752354
0.063964367 0.066846557 0.63090098
0.064296208 0.062560216 0.63927305
0.06341181 0.060600422 0.6423099
0.062275134 0.057710826 0.6457004
0.061910141 0.053819798 0.64867884
0.059737489 0.069534272 0.62557614
0.060847703 0.068572663 0.62882048
0.061800033 0.066810079 0.63333702
0.061814833 0.0646061 0.63780379
0.061151344 0.062155135 0.64175004
0.060092043 0.060108542 0.64457798
0.058654085 0.015499573 0.59725231
0.059210867 0.012484515 0.60057735
0.059335072 0.0095057487 0.60477298
0.0594505 0.0072892141 0.60923678
0.059489142 0.0057270303 0.61411804
0.059286233 0.0049367435 0.61846662
0.058057424 0.023923278 0.5916006
0.058752339 0.020627061 0.59354687
0.059729557 0.017584033 0.59586704
0.060369305 0.0050829612 0.62094456
0.059495337 0.0050361119 0.62488109
0.058724161 0.0054218657 0.62883115
0.057702772 0.030555138 0.5893656
0.05866576 0.027288638 0.59050512
0.059700973 0.0066098981 0.63195318
0.059051372 0.0076780654 0.63521814
0.058234446 0.034370922 0.58896041
0.059291463 0.0095284265 0.63847172
0.057482794 0.040760528 0.58881783
0.058744792 0.038443841 0.58892959
0.059861064 0.01194004 0.64174324
0.058749691 0.01336514 0.64383692
0.057689946 0.045271348 0.58967274
0.058956023 0.016662866 0.64683682
0.057414163 0.050047815 0.59118676
0.058801226 0.020762078 0.64974862
0.057197344 0.054474667 0.59339947
0.058641292 0.025257204 0.65199059
0.057048112 0.058697306 0.59641069
0.058390912 0.030079814 0.65354669
0.056596145 0.061900005 0.59936965
0.057589836 0.063404679 0.60145009
0.058921132 0.036898047 0.65425903
0.057857484 0.034404553 0.65436381
0.056733608 0.065722868 0.60462266
0.0578399 0.040891223 0.65427858
0.056241181 0.067607902 0.6079517
0.056840807 0.06873402 0.61124361
0.057728384 0.048032917 0.65271556
0.057068493 0.044675209 0.65385413
0.056030776 0.069824457 0.61453146
0.056532066 0.07029397 0.6183849
0.057179339 0.07036785 0.62226242
0.057742171 0.057800144 0.64739227
0.057357799 0.05460475 0.64968526
0.056831025 0.051254302 0.6516552
0.056135595 0.070401013 0.62471467
0.056568194 0.069579825 0.62918305
0.056605145 0.068000779 0.63411123
0.056777969 0.065802574 0.6384722
0.056842759 0.062855065 0.642645
0.05664717 0.059923798 0.64584178
0.052540235 0.017262595 0.59455812
0.053998888 0.015202355 0.59644026
0.054217931 0.011519736 0.60026753
0.054327089 0.0086118095 0.60440034
0.054422848 0.0063941665 0.60883963
0.054542039 0.0048266463 0.61369246
0.054640926 0.0039972141 0.61893058
0.053380899 0.0037039928 0.62174928
0.053703547 0.023662794 0.59095883
0.053841125 0.019779416 0.5930481
0.055882096 0.017437983 0.59487236
0.056989815 0.0041984059 0.62157142
0.054526456 0.0040190928 0.62464678
0.054395236 0.0046619289 0.62899166
0.053145885 0.030018998 0.58880663
0.053685457 0.026811633 0.58974391
0.054580458 0.0056364015 0.63235265
0.054344047 0.0068104696 0.63541377
0.051674444 0.037162494 0.58788717
0.05319041 0.034400702 0.58816242
0.054369062 0.008886775 0.63924581
0.05303891 0.010373753 0.64175409
0.052917272 0.040196523 0.58812976
0.054845627 0.037592269 0.58814126
0.056412011 0.010882692 0.64173961
0.054266345 0.012345085 0.64389366
0.052672397 0.045287646 0.58894879
0.054025665 0.01609792 0.64753199
0.052456867 0.050206788 0.59054339
0.053805362 0.020158764 0.65040916
0.052164488 0.054652244 0.59276581
0.053527962 0.024704764 0.65270013
0.05202847 0.058729865 0.59564555
0.053312194 0.029523164 0.65425938
0.051864836 0.062495507 0.59926838
0.053702913 0.064205311 0.60146075
0.054877196 0.037496053 0.65507048
0.053170465 0.034774363 0.65508741
0.050871525 0.06438335 0.60146856
0.051778696 0.065973252 0.60395402
0.052906767 0.040511735 0.65505105
0.051854335 0.037512708 0.65532261
0.051439401 0.068078846 0.60785663
0.051653821 0.069283605 0.61098057
0.052658122 0.048092779 0.65347004
0.052521151 0.044745982 0.65442348
0.051414188 0.070186123 0.61418086
0.051578086 0.070840947 0.61852783
0.054151885 0.057686292 0.64827305
0.052348841 0.05504553 0.65018529
0.052245047 0.051236141 0.65225649
0.050225608 0.071058907 0.62146419
0.051561125 0.070868894 0.62442225
0.05158915 0.070053905 0.62949431
0.051501814 0.068489976 0.63434768
0.051714655 0.066266686 0.63879138
0.051763717 0.063373864 0.64292455
0.051843546 0.059738502 0.64670527
0.050961722 0.057521831 0.64863223
0.049421053 0.01707733 0.59464222
0.049056761 0.014892356 0.59651756
0.049180049 0.011336649 0.60021579
0.049326118 0.0083780605 0.60440862
0.049336191 0.0061916467 0.60879022
0.049574967 0.004609853 0.61361951
0.049613182 0.0037639961 0.61884922
0.050615106 0.0035858639 0.62177867
0.048643988 0.023411324 0.59096342
0.048823901 0.019490952 0.59308457
0.046476673 0.016903708 0.59503984
0.047273241 0.0037289821 0.62141889
0.049487952 0.0037904717 0.62460363
0.049605802 0.0044544339 0.62903464
0.048287503 0.02984686 0.58881587
0.048607875 0.02659185 0.58971524
0.049396072 0.0053467229 0.63220197
0.049511213 0.0065773241 0.63539284
0.048831567 0.037098907 0.58791155
0.048154496 0.034109998 0.58816385
0.049297199 0.0086801387 0.63928342
0.050767396 0.010244317 0.64174122
0.048004571 0.040030785 0.58812839
0.045804139 0.0371393 0.58819109
0.046825659 0.010586292 0.64187199
0.049225733 0.012109084 0.64390737
0.047640696 0.045150969 0.58897257
0.04903445 0.015873833 0.64753824
0.047434352 0.049937274 0.59052563
0.048764635 0.020081747 0.65050012
0.047288716 0.054507621 0.59281528
0.048573922 0.024481967 0.65269142
0.047023229 0.058496624 0.59564495
0.048484065 0.029265221 0.65425521
0.046865605 0.062222887 0.59922034
0.044614829 0.063762024 0.60148466
0.04562797 0.037116326 0.65499973
0.048190966 0.034463067 0.65508682
0.047567289 0.064217255 0.60146093
0.046603024 0.065715253 0.60391802
0.047809392 0.040225185 0.65505296
0.049499035 0.037442043 0.65533143
0.046727292 0.067819439 0.60777199
0.046493161 0.069063902 0.6110189
0.047387011 0.047785267 0.65348679
0.047817074 0.044664908 0.65439206
0.046593968 0.069972053 0.61421579
0.046504207 0.070630684 0.61865562
0.044861548 0.057178833 0.64830327
0.047134947 0.054828934 0.65018004
0.047482882 0.050992154 0.65226722
0.047668315 0.070939966 0.62151593
0.046549223 0.07066159 0.62429887
0.046488777 0.069834135 0.62943876
0.046504956 0.068244748 0.63435322
0.046676725 0.065949105 0.63894254
0.046778135 0.063098028 0.64296675
0.046927862 0.059486747 0.64671385
0.048160918 0.057298012 0.64868337
0.044386085 0.014777061 0.59731913
0.044154778 0.011769965 0.60060358
0.044327088 0.008842228 0.60470945
0.044387303 0.0065874252 0.60925251
0.044486713 0.005051095 0.61406398
0.044862729 0.004255861 0.61836356
0.044203322 0.023316659 0.59159195
0.043692403 0.01997643 0.59356588
0.043120638 0.016763644 0.59592378
0.043719832 0.0043024421 0.6209203
0.044544179 0.0043467879 0.62488723
0.045109496 0.0048266388 0.62882668
0.043974943 0.029905017 0.58937693
0.043357983 0.026540171 0.59051305
0.044263296 0.0058788508 0.63194132
0.045144495 0.006905647 0.63513875
0.0431007 0.033621188 0.58897018
0.044285666 0.0089075696 0.63856512
0.043193884 0.040142838 0.58883834
0.042129062 0.037607308 0.58895195
0.04341267 0.011267763 0.64179885
0.044459011 0.012671676 0.64377505
0.042672545 0.044583932 0.58966345
0.043929633 0.016019603 0.64685321
0.042418763 0.049391173 0.59122056
0.043773349 0.02009193 0.64975792
0.042255316 0.053857259 0.59344691
0.043507718 0.024568561 0.65198666
0.042053033 0.058004655 0.59640396
0.043433871 0.029479375 0.65359265
0.042238601 0.06133882 0.59947073
0.041087065 0.062671028 0.60146815
0.042329028 0.036315557 0.65430236
0.043466128 0.03381227 0.65437484
0.041699395 0.065005474 0.60459274
0.042841516 0.040328689 0.65425414
0.042001612 0.066947117 0.6079548
0.041331418 0.068000816 0.61118108
0.042300232 0.047371425 0.65268779
0.043236766 0.044195708 0.65380502
0.041987658 0.069161281 0.61453098
0.041558795 0.069623344 0.61840755
0.040829018 0.069608361 0.62229484
0.041444238 0.057031829 0.64740801
0.042179339 0.053851008 0.64973438
0.042960148 0.050582495 0.6516704
0.041833453 0.06972307 0.62481362
0.041446954 0.068874061 0.62914622
0.04159303 0.067311257 0.6340788
0.041725714 0.065121338 0.63847619
0.04183317 0.0622131 0.64257538
0.042319465 0.059152476 0.64593381
0.04096714 0.014545728 0.5986129
0.03978328 0.0125238 0.60147113
0.03925734 0.010004215 0.60542738
0.039365575 0.0078048054 0.60981852
0.040051557 0.0061413832 0.6142543
0.041376546 0.0050910339 0.61759114
0.039039053 0.0208317 0.59456676
0.038800426 0.017007943 0.59742939
0.037645459 0.014061237 0.60086197
0.036996953 0.0077049173 0.61271268
0.037902109 0.006598061 0.61577296
0.0392919 0.0055934377 0.62016457
0.039769027 0.0055839121 0.62506276
0.041864194 0.0054051019 0.62835485
0.038720585 0.026905764 0.59184051
0.037396912 0.023456033 0.59380561
0.038325399 0.0064962264 0.62781626
0.039494265 0.0070983302 0.63154018
0.038537271 0.033301376 0.59038413
0.036975108 0.030476727 0.59148544
0.038244471 0.0088364277 0.63485169
0.039646652 0.0097202007 0.63757002
0.039542627 0.04095671 0.58990651
0.037820447 0.038138028 0.59042102
0.039060917 0.012641765 0.64145994
0.040849749 0.013969446 0.64396524
0.038352944 0.044160422 0.59093636
0.036243785 0.042400762 0.59148461
0.037452519 0.01613884 0.64435726
0.039584946 0.016690744 0.64591324
0.037498135 0.048412234 0.5925917
0.035207383 0.045562301 0.59268224
0.038777124 0.02055914 0.64836329
0.037280142 0.052957013 0.5948723
0.034799121 0.054269794 0.59701741
0.036165528 0.027463723 0.65051991
0.038548097 0.024990659 0.65057832
0.037869133 0.057031393 0.59737599
0.035623088 0.057251506 0.59885174
0.036865257 0.030895447 0.65175885
0.038935728 0.029496524 0.65227252
0.038908742 0.059893496 0.59937453
0.036720559 0.060774021 0.60175586
0.037932556 0.035230972 0.65277988
0.03999811 0.032787159 0.65334928
0.037141234 0.063782737 0.60561639
0.035604093 0.064585671 0.60851628
0.03663867 0.042850573 0.65184003
0.038283281 0.040148787 0.6528672
0.038830034 0.066002041 0.60819948
0.036846463 0.066443682 0.61165214
0.035515614 0.066861629 0.61532891
0.036212809 0.049755365 0.64950448
0.03780045 0.046743818 0.65132785
0.038836423 0.068227902 0.61472684
0.036939785 0.067931212 0.61795557
0.036445428 0.06788858 0.62298644
0.035217904 0.066826344 0.62730807
0.034544915 0.061166376 0.63936341
0.035533801 0.059367225 0.64225751
0.036955591 0.056512684 0.6457386
0.03762747 0.052709568 0.6486609
0.038385943 0.068546623 0.62566596
0.037350677 0.067475893 0.62887633
0.036663093 0.065704219 0.63331854
0.036846522 0.063489974 0.63781905
0.037659228 0.060982727 0.64185929
0.038802095 0.058989763 0.6446712
0.036608305 0.010239033 0.60708314
0.036612228 0.0088223964 0.61006254
0.035523679 0.020926617 0.59620941
0.034328386 0.018387394 0.59893113
0.033978313 0.015046697 0.60252744
0.033990983 0.012156125 0.60650879
0.034094401 0.0098640267 0.61108154
0.034295969 0.0083616003 0.61594367
0.034882404 0.0074992087 0.62053734
0.03627158 0.0068539307 0.6243099
0.034904946 0.027237365 0.59346271
0.033471815 0.02414836 0.59572953
0.032110758 0.020846322 0.59865189
0.032782279 0.0086683556 0.62290132
0.03426978 0.008377308 0.62725282
0.035587013 0.0085804462 0.63102978
0.034940001 0.033958193 0.59186459
0.033136345 0.03095438 0.59348166
0.031333104 0.027786911 0.59553564
0.032264151 0.010315543 0.63033938
0.034143887 0.010649649 0.63403308
0.035997357 0.011300657 0.63744056
0.033448581 0.037451584 0.59256321
0.031514339 0.03522782 0.5938257
0.032499969 0.013521772 0.63729519
0.034500249 0.013898633 0.63976014
0.032725908 0.042198502 0.59343767
0.033890329 0.017387765 0.64305854
0.034823291 0.04867433 0.59398484
0.03244821 0.047015756 0.59489089
0.033637531 0.021414343 0.64602774
0.036106139 0.021645516 0.64778388
0.034713317 0.051196538 0.59522414
0.032169968 0.051463932 0.59716123
0.033253144 0.026012313 0.64822322
0.035900716 0.024185922 0.64903551
0.032167699 0.055598579 0.60009378
0.033257827 0.030831736 0.6497857
0.032458954 0.059161149 0.60339242
0.03041866 0.059506699 0.60607243
0.031416625 0.037662353 0.64939594
0.033563472 0.035662834 0.65066725
0.033636361 0.061856251 0.6057477
0.031761255 0.062339392 0.60911578
0.029927488 0.062613308 0.61295462
0.030525727 0.044974677 0.64769191
0.032675624 0.042066142 0.64976531
0.034699015 0.03916578 0.65135503
0.033027634 0.064578131 0.61218643
0.031592093 0.064613715 0.61604804
0.030230084 0.064221263 0.62023282
0.030818349 0.052062184 0.64466792
0.032299727 0.048846807 0.64747816
0.033896476 0.046034068 0.6496352
0.033477854 0.066310272 0.61882341
0.032227762 0.065593936 0.62246531
0.031743027 0.064688288 0.62730432
0.031735752 0.063225597 0.63212526
0.031781152 0.060885273 0.63670522
0.031964742 0.057937682 0.64070272
0.032688625 0.054740682 0.6442669
0.034086153 0.052270703 0.64700347
0.034078993 0.064382762 0.63323861
0.034199126 0.063128173 0.63597113
0.031260595 0.018514825 0.60124707
0.030659515 0.016449878 0.60409069
0.030316329 0.014112379 0.6078375
0.030392401 0.011994865 0.61213481
0.030896377 0.01040992 0.61634511
0.031771682 0.0093457773 0.619349
0.030119006 0.024982944 0.59775066
0.02905862 0.02198251 0.60067296
0.028243486 0.018958353 0.60425568
0.027735183 0.016167071 0.60859513
0.027789323 0.013872433 0.61326402
0.028489698 0.012078827 0.6181317
0.029518196 0.011014398 0.62262589
0.030832034 0.010413585 0.62670583
0.02981252 0.031195352 0.5956943
0.028298683 0.028428093 0.59791732
0.026779559 0.025196848 0.60095656
0.027307617 0.013131842 0.62527674
0.028984016 0.012697879 0.62960362
0.030765019 0.012498539 0.63306099
0.03013193 0.038582571 0.59473962
0.028337952 0.035236061 0.59635842
0.02644657 0.032416582 0.59850687
0.027241658 0.015512114 0.63256717
0.029336357 0.015421148 0.63594222
0.029461652 0.041668497 0.5956316
0.027186045 0.039791517 0.59743887
0.028125001 0.019056732 0.63891172
0.030585332 0.01879067 0.6415149
0.028872374 0.045861565 0.59721905
0.026390785 0.044605933 0.59923309
0.027367409 0.02333317 0.64171422
0.029939376 0.022566911 0.64385533
0.028639959 0.050148126 0.59940529
0.026199535 0.049185537 0.6015116
0.027194507 0.02792675 0.64405328
0.029643558 0.026888032 0.64592594
0.028953301 0.054125562 0.6018737
0.026585184 0.05351074 0.60429823
0.027506545 0.032710291 0.64577037
0.030001421 0.031109121 0.64763612
0.029427025 0.056740381 0.60380054
0.027300324 0.057082146 0.60731232
0.025326267 0.056960359 0.61079746
0.026161827 0.03985304 0.64479363
0.028277241 0.037377208 0.64689159
0.030540317 0.034555607 0.64866906
0.02860238 0.060241774 0.6101293
0.02683812 0.059954654 0.61379713
0.025208393 0.059303023 0.61794066
0.02577485 0.047199331 0.64228272
0.027462732 0.044078827 0.6452015
0.029416494 0.04159553 0.64756978
0.028494796 0.062349156 0.61649817
0.027207719 0.061593972 0.62050867
0.026284557 0.060440145 0.6251595
0.025765928 0.058608197 0.62997717
0.025915414 0.056341112 0.63460314
0.026543491 0.053454764 0.63891441
0.027729804 0.050648876 0.64250833
0.029113397 0.04789158 0.64543593
0.02928739 0.063499585 0.6233418
0.028513813 0.062305599 0.62696153
0.028199332 0.060667485 0.63125837
0.028204326 0.058507908 0.6353755
0.028773468 0.056246188 0.63910556
0.029631091 0.054355524 0.6419208
0.026086936 0.02261938 0.60355031
0.02569194 0.020582404 0.60609967
0.025350459 0.018151261 0.60997254
0.025442081 0.016035441 0.61423767
0.025928482 0.01444458 0.61855894
0.026564218 0.013546737 0.62183315
0.025503455 0.029117316 0.60050035
0.024630232 0.026366582 0.60304439
0.023387162 0.023657916 0.60706985
0.022663025 0.021401398 0.61135942
0.022760974 0.019070124 0.61605042
0.023739019 0.016937669 0.62047893
0.02509211 0.015462648 0.62486959
0.026119428 0.015100019 0.62864083
0.024306705 0.032807369 0.60093296
0.02226281 0.030363947 0.60464406
0.021353366 0.027240383 0.60802114
0.021193171 0.024647029 0.61072022
0.021332791 0.020582639 0.61892867
0.021723134 0.019816678 0.62276608
0.022843216 0.018984705 0.62729156
0.025009418 0.017596461 0.63135892
0.026237985 0.018016052 0.6349079
0.024744321 0.03915149 0.59993929
0.022799538 0.037113272 0.60248834
0.021086436 0.034913152 0.60532981
0.021596087 0.022460531 0.63054281
0.023475546 0.021502253 0.63395131
0.025594145 0.02067201 0.63704413
0.024104206 0.043412872 0.6015743
0.021696201 0.041540921 0.60469586
0.021173025 0.024895702 0.63272488
0.022435114 0.025814503 0.63620842
0.025021134 0.024563324 0.63959146
0.02400725 0.04766928 0.60354286
0.02148772 0.046102457 0.60696381
0.020124756 0.046818268 0.61042309
0.022133572 0.030394198 0.63836449
0.024821464 0.02874634 0.64166605
0.024205599 0.051609252 0.60610235
0.022154076 0.050593778 0.6092236
0.020398566 0.04962869 0.61276233
0.020954618 0.037189245 0.63781619
0.02283095 0.034859151 0.64061236
0.025038639 0.033176556 0.64329857
0.024618022 0.0542349 0.60811067
0.023324113 0.054618161 0.61179399
0.021209601 0.052902222 0.61587852
0.020277236 0.052191097 0.62057257
0.019878412 0.05126607 0.6240322
0.020064583 0.047454514 0.6320492
0.02059277 0.044786192 0.63523459
0.021701897 0.041733298 0.63848162
0.024029087 0.039342426 0.64231914
0.024182115 0.057202462 0.61455715
0.023196956 0.056762941 0.61838305
0.021981755 0.055167545 0.62272513
0.021202866 0.052950505 0.62715358
0.021306003 0.05069568 0.63170904
0.022264557 0.048370894 0.63622385
0.023714187 0.045838624 0.64015245
0.024876624 0.043114651 0.64276487
0.023943176 0.057853773 0.62462419
0.023552073 0.056184582 0.62889403
0.023715118 0.054124761 0.63324493
0.024191098 0.051564384 0.63712817
0.024758471 0.049562775 0.63965392
0.021028675 0.022828789 0.61393058
0.021132566 0.021752499 0.61588097
0.020542186 0.031340417 0.6073069
0.020150321 0.028556097 0.60991693
0.019842697 0.02584745 0.61372322
0.019926291 0.023653336 0.61813939
0.020438466 0.022164673 0.62275034
0.021003401 0.021606252 0.6261636
0.019868048 0.034781564 0.6078369
0.01872503 0.032481287 0.61156869
0.018070031 0.030237326 0.6159851
0.018162776 0.028012354 0.62048411
0.019019119 0.025852062 0.6249755
0.020350091 0.024223229 0.62895948
0.020218043 0.04139363 0.60732394
0.019253876 0.039288253 0.60922742
0.017770372 0.036960233 0.61372149
0.017105028 0.034732848 0.61817056
0.017212208 0.032393254 0.62270707
0.018061079 0.030239828 0.62719202
0.019727184 0.028028777 0.63161784
0.020849096 0.027630847 0.63441241
0.020074569 0.043468677 0.60840869
0.019031331 0.043736793 0.61149842
0.017553844 0.041380771 0.61596781
0.016898174 0.039116908 0.62049907
0.017005917 0.036922634 0.62503928
0.017879169 0.034698129 0.62953216
0.019547073 0.032547504 0.63396293
0.020683005 0.030475486 0.63579947
0.019260097 0.04755453 0.61426806
0.018129408 0.045928568 0.61817658
0.017463282 0.043705299 0.62283051
0.017553832 0.041350678 0.62724912
0.018461872 0.039201554 0.63178396
0.019758217 0.037004814 0.63537365
0.019698584 0.05021321 0.61684328
0.019190922 0.0496784 0.62042701
0.018808875 0.048163686 0.62504047
0.01889788 0.04591706 0.62940985
0.019490635 0.043287147 0.63332677
0.02011868 0.040550545 0.63590056
0.019798299 0.050155163 0.62704563
0.019855965 0.048852887 0.62967366
