# .PCD v0.7 - Point Cloud Data file format
VERSION 0.7
FIELDS x y z
SIZE 4 4 4
TYPE F F F
COUNT 1 1 1
WIDTH 837
HEIGHT 1
VIEWPOINT 0 0 0 1 0 0 0
POINTS 837
DATA ascii
-0.23354387 0.14074822 0.45471737
-0.2307587 0.14070451 0.45467713
-0.24253879 0.14218959 0.4504306
-0.23910157 0.14129081 0.45130765
-0.23435727 0.14063114 0.45189393
-0.22944926 0.14062242 0.45187756
-0.22466853 0.14128879 0.45139354
-0.22114809 0.14220989 0.45030701
-0.24361192 0.14283034 0.44704315
-0.23930782 0.14158547 0.44679862
-0.23439954 0.14085479 0.44666547
-0.2293555 0.14086744 0.44659856
-0.22440542 0.14157751 0.44690785
-0.22004867 0.14287467 0.4469139
-0.24704316 0.14521466 0.44252035
-0.24434301 0.1440313 0.44244468
-0.23942208 0.14258133 0.44190675
-0.23447393 0.14185986 0.44167727
-0.2293645 0.14187349 0.44161204
-0.22438864 0.14258568 0.44184116
-0.21933936 0.14407061 0.44239876
-0.21666828 0.14549248 0.44161898
-0.24698919 0.14633188 0.43921989
-0.24436331 0.14577515 0.43768153
-0.23942451 0.14427228 0.43725792
-0.23436095 0.1435945 0.43689516
-0.22935054 0.14358781 0.43690991
-0.22439161 0.14426121 0.43723661
-0.21939316 0.14574046 0.43774685
-0.21670179 0.14634502 0.43923616
-0.24358328 0.14773521 0.43348077
-0.23930272 0.14679314 0.43262857
-0.23440817 0.14597531 0.43253455
-0.22937737 0.14593746 0.43258768
-0.22428516 0.14672849 0.43278393
-0.22013016 0.14772952 0.43350685
-0.24243584 0.14941284 0.4304294
-0.23897484 0.14938524 0.42908472
-0.23427945 0.14912862 0.42838168
-0.22945178 0.14911644 0.42839706
-0.22467287 0.14937043 0.42913184
-0.22121201 0.1495136 0.43035829
-0.23335828 0.15111324 0.42619079
-0.2305592 0.15112847 0.42616391
-0.24192081 0.14368522 0.46107799
-0.23867497 0.14296924 0.46148041
-0.2343092 0.14247489 0.46185386
-0.22945182 0.14247221 0.46186796
-0.225033 0.14298199 0.46149698
-0.2476645 0.14498049 0.45667949
-0.24410515 0.14361742 0.4577924
-0.23941283 0.14213336 0.45771649
-0.2344036 0.14132944 0.45762008
-0.22928894 0.14133583 0.45765007
-0.22433944 0.14213619 0.45773849
-0.21979119 0.14354639 0.45774347
-0.21612303 0.14498062 0.45680845
-0.24884564 0.14520246 0.45315182
-0.24457301 0.14309125 0.45301768
-0.2402472 0.14167945 0.45372221
-0.23682708 0.1410125 0.45435181
-0.22692545 0.14102077 0.45444101
-0.22343807 0.14168364 0.45372444
-0.21914312 0.14309894 0.45297357
-0.21489744 0.14520541 0.45320803
-0.21160081 0.14722893 0.45158562
-0.25263402 0.14771424 0.44872233
-0.24942866 0.14556314 0.44840276
-0.24590935 0.14364551 0.44832432
-0.21789484 0.14361237 0.44836801
-0.21427715 0.1455965 0.44826078
-0.21107408 0.14773804 0.44865802
-0.2532126 0.14897802 0.44407773
-0.24954614 0.14647639 0.44345352
-0.21704358 0.14448789 0.44472337
-0.21418168 0.14652233 0.44330686
-0.21061602 0.14886732 0.44422007
-0.25304854 0.15049557 0.4395327
-0.24953221 0.14821906 0.43860909
-0.24680257 0.14754635 0.43640774
-0.21692385 0.14744459 0.43661144
-0.21421088 0.14824894 0.43854332
-0.21067889 0.15050104 0.43954825
-0.25253928 0.1524379 0.43537644
-0.24940805 0.15068844 0.4342128
-0.24588579 0.1491925 0.43300408
-0.21791136 0.14923914 0.43289331
-0.21433027 0.15073325 0.43414891
-0.211105 0.15250766 0.43540588
-0.24901959 0.15358941 0.43035328
-0.24456713 0.15171891 0.42911795
-0.24017739 0.15123361 0.42750064
-0.23652399 0.15116756 0.42651963
-0.22722395 0.15114054 0.42654556
-0.22361124 0.15122265 0.42749727
-0.21922763 0.15172927 0.42906883
-0.21491069 0.15351486 0.43026358
-0.21182756 0.15425898 0.43231478
-0.24754083 0.15571909 0.42726362
-0.24401748 0.15518039 0.42573321
-0.2393887 0.15416998 0.42474017
-0.2344386 0.15338115 0.42439517
-0.22933391 0.15332831 0.42443317
-0.22432059 0.15415461 0.42476365
-0.21970537 0.15520084 0.42572677
-0.21610723 0.15564844 0.42738017
-0.23885235 0.15719464 0.42247996
-0.23424704 0.15697351 0.42187226
-0.22947453 0.1569269 0.42189732
-0.22504468 0.15718091 0.42245191
-0.23888507 0.14593764 0.46774131
-0.23426537 0.14529136 0.46791193
-0.22956152 0.14529881 0.46793544
-0.22496016 0.14590776 0.46772799
-0.24799024 0.1473197 0.46319684
-0.24415678 0.14584276 0.46410587
-0.23963395 0.14451174 0.4646225
-0.23441468 0.14376344 0.46498874
-0.2292673 0.14372429 0.46489769
-0.22422838 0.14445327 0.46457291
-0.2196113 0.14576639 0.46397224
-0.21571231 0.14736973 0.46326354
-0.25267753 0.14893384 0.45888245
-0.24939162 0.14686076 0.45965284
-0.24547899 0.14487144 0.46032459
-0.21805212 0.14499769 0.46041414
-0.21424702 0.1468887 0.45953521
-0.21095182 0.14898394 0.45873713
-0.25687969 0.15175229 0.4538413
-0.25397846 0.149119 0.45473874
-0.25091627 0.14675374 0.45532921
-0.21275929 0.14676771 0.45513973
-0.20973107 0.14914986 0.45479134
-0.20681559 0.15176967 0.45360079
-0.25746882 0.1522619 0.45027217
-0.25513658 0.14985356 0.45005676
-0.20878135 0.14967954 0.45012045
-0.20631239 0.15221557 0.45029357
-0.25792301 0.15344819 0.44557965
-0.25571704 0.15105161 0.44514871
-0.20808916 0.15099472 0.4451122
-0.20585047 0.15335377 0.44579571
-0.25795794 0.15509889 0.44120929
-0.2556209 0.15272413 0.44023439
-0.20808095 0.15274608 0.44027853
-0.20581155 0.15507898 0.44119108
-0.2575106 0.15698773 0.43720832
-0.25498822 0.15501392 0.43551677
-0.20874426 0.15499273 0.43555081
-0.20625356 0.15703791 0.43710229
-0.2540476 0.15759009 0.43161628
-0.25092497 0.15614805 0.42957163
-0.21279657 0.15599893 0.42971915
-0.2096751 0.15753911 0.43167576
-0.20677739 0.15886176 0.4341881
-0.25283882 0.16013956 0.4283812
-0.24939127 0.15890628 0.42639446
-0.245499 0.15788704 0.4245615
-0.21838267 0.15776667 0.42456603
-0.21435642 0.15893809 0.42637342
-0.21086979 0.16002885 0.42847964
-0.2481146 0.16177915 0.42392197
-0.24419837 0.16086096 0.42239189
-0.23955292 0.16030362 0.42104
-0.23453519 0.15996781 0.42030978
-0.22927479 0.15994707 0.42031503
-0.22421104 0.16021679 0.42107725
-0.2195276 0.1609643 0.42234623
-0.21569024 0.16163513 0.42394933
-0.24203978 0.16375929 0.4203054
-0.23890859 0.16348095 0.41956043
-0.23427814 0.16302997 0.41903585
-0.22952402 0.1630787 0.41901374
-0.22486432 0.16353564 0.41952938
-0.2218118 0.16378593 0.42025876
-0.23301527 0.14958535 0.47378916
-0.2299083 0.14971569 0.47386214
-0.24762988 0.15088362 0.46935883
-0.24405718 0.14919761 0.46974495
-0.23930904 0.14820853 0.47081676
-0.23444121 0.14783311 0.4715381
-0.22933397 0.14779915 0.47149742
-0.22433533 0.14828143 0.47087687
-0.21977821 0.14914136 0.46973881
-0.21613337 0.15079954 0.4692688
-0.25278279 0.15180576 0.4648414
-0.24950576 0.14991818 0.46601203
-0.24547006 0.14802144 0.46708575
-0.2182586 0.14803106 0.46708378
-0.21428245 0.14986718 0.46598434
-0.21091418 0.15183975 0.46482903
-0.25727972 0.15397373 0.45989826
-0.25454235 0.15163153 0.46124989
-0.25140747 0.14932062 0.46248519
-0.21238635 0.14929816 0.46252674
-0.20908354 0.15173623 0.46122712
-0.20635024 0.15425636 0.46020374
-0.25826734 0.15401614 0.45625415
-0.25601974 0.15153864 0.45711747
-0.20773426 0.15154099 0.45718244
-0.20551607 0.1539955 0.45639381
-0.25963643 0.15518127 0.45182917
-0.20412028 0.15516207 0.45180109
-0.26197532 0.15946439 0.4468928
-0.2604537 0.1567605 0.44712341
-0.20332406 0.15672725 0.4469873
-0.20179503 0.15935938 0.44703469
-0.26194075 0.16037555 0.44419584
-0.26045537 0.15851334 0.4423027
-0.203288 0.15852045 0.44227502
-0.20177341 0.16034685 0.44435361
-0.25963232 0.16031116 0.43769449
-0.20410946 0.16026749 0.43774235
-0.25829828 0.16231664 0.43356895
-0.25612247 0.16099599 0.43138918
-0.20764185 0.1609306 0.43139863
-0.205449 0.16237302 0.43351659
-0.25736657 0.16483703 0.43072546
-0.25458089 0.1636759 0.42822117
-0.25140646 0.16258816 0.4258022
-0.2124611 0.16254082 0.42572188
-0.20924114 0.16362086 0.42816481
-0.20645903 0.16485688 0.43060809
-0.25287652 0.16611992 0.4256269
-0.24946472 0.16538195 0.42342308
-0.24550641 0.16453293 0.42145586
-0.21834879 0.1644738 0.42142206
-0.21423815 0.16543037 0.42342913
-0.2109547 0.16611861 0.42554653
-0.2476434 0.16820322 0.42152518
-0.24404415 0.16724722 0.42011744
-0.23942316 0.16725971 0.41867492
-0.23441826 0.16743769 0.41785228
-0.22930351 0.16731276 0.4178735
-0.22441381 0.16714929 0.41867459
-0.21967205 0.16724332 0.42012548
-0.21624342 0.16830529 0.4214265
-0.23296301 0.17016748 0.4172613
-0.23087308 0.17021409 0.41725886
-0.24248332 0.15386118 0.47549093
-0.23903577 0.15260226 0.47560078
-0.2343186 0.15177388 0.47575736
-0.22936162 0.15185283 0.47582394
-0.22460718 0.15258995 0.47556156
-0.22123516 0.15386423 0.47548193
-0.24892138 0.15378578 0.47141299
-0.24455324 0.15256797 0.47322902
-0.24024048 0.15098642 0.47372073
-0.23653753 0.15002052 0.47382098
-0.22376397 0.15094163 0.47376478
-0.21922655 0.1525351 0.47322112
-0.21486489 0.15374446 0.47140962
-0.25700045 0.15783817 0.46622628
-0.25407803 0.15514334 0.46739817
-0.25094524 0.15315253 0.46892333
-0.21291663 0.15299591 0.46886796
-0.20970972 0.15505883 0.46736583
-0.25821793 0.15692091 0.46265751
-0.25609472 0.15484381 0.46400386
-0.20763068 0.15480587 0.46391916
-0.20547798 0.15698774 0.46264768
-0.26208007 0.1605864 0.45712116
-0.2604219 0.15801591 0.45831758
-0.20331946 0.15801688 0.45831692
-0.20165706 0.16059095 0.45712641
-0.26258022 0.160612 0.45351994
-0.2613948 0.15820257 0.45382065
-0.20232476 0.15816447 0.45333514
-0.20114261 0.1606552 0.45356765
-0.26307553 0.1616824 0.44880763
-0.26180971 0.15863197 0.4502843
-0.20070131 0.16157 0.44885519
-0.26307377 0.16338639 0.44411013
-0.26183081 0.16177931 0.44141677
-0.20073341 0.16323584 0.44404206
-0.26261058 0.1654727 0.44004908
-0.26141083 0.16386558 0.43820944
-0.20236711 0.16387281 0.43809688
-0.20115361 0.1654453 0.44000342
-0.26207837 0.1678666 0.43710619
-0.26034573 0.16657017 0.43445539
-0.20334223 0.16657481 0.43454763
-0.20166492 0.16786534 0.43710271
-0.25822514 0.16861591 0.43052146
-0.25615337 0.16785003 0.4282248
-0.20766079 0.16785468 0.42813796
-0.20547856 0.16868669 0.43054646
-0.2540237 0.1702491 0.42569864
-0.25090834 0.16960928 0.42328921
-0.21275455 0.16970579 0.42332727
-0.20968947 0.17024343 0.42572501
-0.24892324 0.17183654 0.42179114
-0.2445759 0.17209192 0.41962114
-0.24002537 0.17109279 0.41818216
-0.23647077 0.17054372 0.41751102
-0.22706085 0.17038384 0.41755858
-0.22348733 0.17117716 0.41822636
-0.2191873 0.17202127 0.41961724
-0.21479255 0.17180467 0.42180437
-0.24252127 0.17446189 0.4187291
-0.239167 0.17364785 0.41785213
-0.23432024 0.1729688 0.41717342
-0.22934011 0.17305985 0.41717696
-0.22472923 0.17365293 0.41781583
-0.2213074 0.17455822 0.41869861
-0.24373783 0.15700631 0.47718409
-0.23940542 0.15619387 0.47819728
-0.23431942 0.1559362 0.47894442
-0.22933426 0.15592761 0.47892949
-0.2242697 0.15622744 0.47820264
-0.22003134 0.15687831 0.47711241
-0.25256839 0.15891841 0.47253415
-0.24934067 0.15768997 0.47432548
-0.24588589 0.15631601 0.4756577
-0.21785799 0.15626329 0.47561809
-0.21433413 0.15768543 0.4742682
-0.21098933 0.15912504 0.47251144
-0.25753742 0.16065258 0.46790773
-0.2550391 0.15905318 0.4699316
-0.20870748 0.15898272 0.46988738
-0.20627779 0.1603806 0.46779799
-0.25959352 0.16108391 0.46465296
-0.20418939 0.16113394 0.46477506
-0.26259103 0.16345267 0.4594745
-0.26143008 0.16166016 0.46102735
-0.20232885 0.16172312 0.46116471
-0.20111576 0.16347553 0.45940202
-0.26383725 0.16456795 0.45519382
-0.19990155 0.16460152 0.4552578
-0.2646226 0.16631374 0.45055503
-0.19913162 0.1662682 0.45057425
-0.26462561 0.16801852 0.44590381
-0.19913778 0.16794114 0.44583511
-0.26382178 0.16972743 0.44107121
-0.19990559 0.16968125 0.4411315
-0.26261529 0.17144954 0.43722469
-0.26140624 0.17121492 0.43476245
-0.20230348 0.17107151 0.4348391
-0.20111777 0.17144766 0.43724999
-0.25962186 0.17312312 0.43170512
-0.20409217 0.17315115 0.43174222
-0.25749654 0.17459509 0.42884248
-0.25504288 0.17482191 0.42631415
-0.20868295 0.17488992 0.42632368
-0.20617817 0.17481288 0.42891717
-0.25260597 0.17638199 0.42424467
-0.24935874 0.1766163 0.42207175
-0.24591029 0.17661148 0.42018297
-0.21780737 0.1766226 0.42020166
-0.21433687 0.17650199 0.4220877
-0.21108896 0.17642707 0.42428526
-0.24375322 0.17798951 0.41943985
-0.23938084 0.17804503 0.41813338
-0.23426676 0.17834924 0.4174017
-0.22938061 0.17827503 0.41739696
-0.2243302 0.17807868 0.41814494
-0.22016548 0.17798552 0.41936809
-0.24706115 0.16288228 0.47865865
-0.24442728 0.16124016 0.47918853
-0.2393544 0.16065137 0.4806639
-0.23435658 0.16041701 0.48138145
-0.22939324 0.16042311 0.48138368
-0.22435002 0.16064046 0.48064893
-0.21929234 0.16112944 0.47912702
-0.21666616 0.16268405 0.47857451
-0.25311571 0.16290081 0.47434437
-0.24950935 0.16207141 0.47674662
-0.24678959 0.15979189 0.47736511
-0.21697177 0.15934756 0.47713411
-0.21419175 0.16211787 0.47674048
-0.21059544 0.16307539 0.47440422
-0.25789174 0.16476883 0.46998039
-0.25560945 0.16355747 0.47216687
-0.20802082 0.16366792 0.47210199
-0.20581225 0.16466866 0.46988264
-0.26193574 0.16790228 0.46470141
-0.26042455 0.1657761 0.46648946
-0.2033118 0.16577457 0.46648836
-0.20176002 0.16781503 0.46456471
-0.26304859 0.16755012 0.46162793
-0.26183513 0.16503197 0.46326724
-0.20193081 0.16473202 0.46311456
-0.2007017 0.16748899 0.46160766
-0.26459545 0.16924269 0.4570027
-0.19912899 0.16925777 0.45694107
-0.2653712 0.17098078 0.45218974
-0.19837424 0.17097151 0.45232472
-0.26537541 0.17276391 0.44754142
-0.19836174 0.17277719 0.44755703
-0.26462415 0.17440213 0.44288415
-0.1991241 0.17448372 0.4428452
-0.26306939 0.17609848 0.43818977
-0.26183444 0.17513011 0.43524945
-0.20192818 0.17520562 0.43521041
-0.20073234 0.17612132 0.43804806
-0.2619653 0.17787594 0.43595079
-0.26043385 0.17780797 0.43327156
-0.20333338 0.17787045 0.4332352
-0.20177242 0.17812893 0.43600506
-0.25789091 0.17927948 0.42993283
-0.25563052 0.1798683 0.42752439
-0.20813933 0.17985228 0.42748988
-0.20579425 0.17925151 0.42999357
-0.25317624 0.18082224 0.42547983
-0.24957736 0.181502 0.4230431
-0.21704267 0.1801485 0.42101544
-0.21418977 0.18146685 0.42301646
-0.21063754 0.18088409 0.42543602
-0.24707621 0.18329664 0.42203185
-0.24431807 0.18242635 0.42054698
-0.23941681 0.18296126 0.41910392
-0.23437896 0.18337642 0.41842839
-0.22940676 0.18327017 0.4183982
-0.22441661 0.18309706 0.41912085
-0.21940933 0.18264621 0.42061746
-0.21671371 0.18320014 0.4219707
-0.24696745 0.1658188 0.47972578
-0.2443215 0.16587999 0.48091695
-0.23942268 0.16539599 0.48236698
-0.23434778 0.16512235 0.48309144
-0.22945178 0.16520947 0.48311716
-0.22442079 0.16530553 0.48236835
-0.21936454 0.16584672 0.48088238
-0.21664414 0.16529305 0.47950029
-0.25310355 0.16765675 0.47608885
-0.24945123 0.1667822 0.47849652
-0.24659492 0.1686397 0.48059833
-0.21709871 0.16845997 0.48054048
-0.21423204 0.16685244 0.47847912
-0.210563 0.16759133 0.47601315
-0.25790671 0.16935459 0.47159415
-0.25564152 0.16833383 0.47390363
-0.20813298 0.16850907 0.47398216
-0.20582639 0.16920948 0.47155353
-0.26194412 0.17059825 0.46560597
-0.26039711 0.17049877 0.46826163
-0.20329037 0.17055903 0.46818432
-0.2017605 0.16994363 0.46536833
-0.26307702 0.17218769 0.4632571
-0.26177448 0.17353635 0.46637017
-0.20187755 0.17380922 0.46621379
-0.2006879 0.17223234 0.46332934
-0.26461682 0.17400512 0.45863247
-0.19912612 0.17395604 0.45864072
-0.26537022 0.17569329 0.45394784
-0.19836235 0.17576844 0.45387796
-0.26536703 0.17737959 0.44911999
-0.19837207 0.17743808 0.44925064
-0.26462361 0.1791103 0.44459876
-0.19911209 0.1790161 0.44452885
-0.26309359 0.18078336 0.43995619
-0.26180229 0.18367745 0.4383691
-0.2020124 0.1839087 0.43836424
-0.20069636 0.18078452 0.43982163
-0.26196605 0.18097977 0.43709609
-0.26045746 0.18266666 0.43507382
-0.2033087 0.18265283 0.43502226
-0.20178147 0.18035609 0.43677464
-0.2579478 0.18368864 0.43161646
-0.25560448 0.18473406 0.42925811
-0.2080956 0.18479697 0.4293412
-0.20588304 0.18370789 0.43149981
-0.2531487 0.18536456 0.42710713
-0.24947369 0.18630123 0.42470488
-0.21698037 0.18887271 0.42424858
-0.2142051 0.1863775 0.42478192
-0.2106171 0.18535957 0.4270815
-0.2470295 0.18571018 0.42288581
-0.24443907 0.1871289 0.42229301
-0.23947345 0.18775521 0.42085892
-0.23436742 0.18807441 0.42014813
-0.2292335 0.18801059 0.42013106
-0.22435835 0.18778189 0.42084792
-0.21939048 0.1872656 0.42231697
-0.21662571 0.18581812 0.42298833
-0.24364929 0.17042287 0.48209229
-0.23937297 0.17035727 0.48335421
-0.23438907 0.17005342 0.48408091
-0.22931711 0.17009951 0.4840821
-0.22432522 0.17033756 0.48334405
-0.22011654 0.17042799 0.48210344
-0.25259057 0.17195943 0.47724962
-0.24934335 0.17187268 0.47943199
-0.24581091 0.17193599 0.48136234
-0.21787405 0.17192 0.48133492
-0.21432874 0.17175239 0.47938025
-0.21100795 0.17194152 0.47714299
-0.25751972 0.17356491 0.47261381
-0.25501305 0.17344472 0.47520143
-0.20870961 0.17349958 0.47518992
-0.2062903 0.17341764 0.47270104
-0.25956172 0.17530957 0.46987045
-0.20413767 0.17528425 0.4698084
-0.26259118 0.17690955 0.46431881
-0.26137879 0.17727715 0.4667623
-0.20231773 0.17722878 0.46669453
-0.20115578 0.17690165 0.46434632
-0.26384795 0.17869617 0.46033078
-0.19990912 0.17875381 0.4603489
-0.26460803 0.18043564 0.45564088
-0.19913359 0.18041377 0.45569181
-0.26461524 0.18210194 0.4509342
-0.19914551 0.18218055 0.45100605
-0.26382735 0.18383339 0.44620481
-0.19990443 0.18378319 0.44615254
-0.26257002 0.18499894 0.44200757
-0.26140237 0.18675058 0.440377
-0.2023464 0.18673576 0.44034079
-0.20113982 0.18500738 0.44210756
-0.25963789 0.18725635 0.43688148
-0.20417181 0.18729165 0.436773
-0.25749195 0.18799099 0.43371606
-0.25509086 0.1893988 0.43166155
-0.20873018 0.18941352 0.43157053
-0.20629287 0.1878597 0.43353415
-0.25259951 0.18958953 0.42906234
-0.24934745 0.19071174 0.42716756
-0.24587888 0.1919973 0.42576748
-0.21778587 0.19195364 0.42578483
-0.21426898 0.19077523 0.42730558
-0.21106111 0.18947062 0.42905158
-0.24365656 0.19145522 0.42430672
-0.23941004 0.19226319 0.42332903
-0.23429704 0.19246833 0.42254859
-0.22938283 0.19244012 0.42253357
-0.22441499 0.19220215 0.42326602
-0.22003378 0.19145004 0.42432547
-0.24245919 0.17381783 0.48278114
-0.23902385 0.17485291 0.48366779
-0.2343705 0.17529848 0.48431951
-0.22945818 0.17529012 0.48432267
-0.22473343 0.17487852 0.48367369
-0.22125234 0.1738507 0.48276874
-0.24892612 0.17668384 0.47968805
-0.2446624 0.17634675 0.48182809
-0.24029957 0.17719977 0.48325562
-0.22687371 0.17796329 0.48390859
-0.22362339 0.17727844 0.48329526
-0.219218 0.17636207 0.48188829
-0.21482281 0.17665353 0.47969338
-0.21175522 0.17511338 0.47782862
-0.25408462 0.17816228 0.47573426
-0.2508131 0.17881995 0.47825998
-0.21279734 0.17868902 0.47819263
-0.20971145 0.17830214 0.47575867
-0.25824821 0.17979026 0.47093087
-0.25603348 0.18070696 0.47335708
-0.20755179 0.1804546 0.47325835
-0.20548637 0.17976552 0.47093546
-0.26207459 0.18076529 0.4642787
-0.2603907 0.18174633 0.46699488
-0.20332433 0.18168372 0.46697864
-0.2016398 0.18070997 0.46424857
-0.26260921 0.18289579 0.46146539
-0.26137617 0.18452826 0.46337858
-0.20232832 0.1845755 0.46325624
-0.20113924 0.18292597 0.46148479
-0.2630457 0.18507744 0.45739126
-0.26173875 0.1865273 0.46048442
-0.20069265 0.18508384 0.4573904
-0.26304069 0.18682462 0.45261097
-0.26175964 0.18986057 0.45133731
-0.20190205 0.18971124 0.451368
-0.20069593 0.18680184 0.4527379
-0.26260939 0.18771367 0.44789511
-0.26143402 0.1901371 0.44776633
-0.20231262 0.19013308 0.44769993
-0.20118552 0.18787211 0.44805408
-0.262079 0.18777847 0.44429216
-0.26038754 0.19045821 0.44320035
-0.2033142 0.1904082 0.44323903
-0.2016706 0.18788663 0.44446507
-0.25827003 0.19143577 0.43887675
-0.25606662 0.19355407 0.43743631
-0.20758548 0.1934941 0.4375076
-0.20542584 0.191376 0.43888932
-0.25691628 0.19080287 0.43538153
-0.25406629 0.19333638 0.43415296
-0.25099185 0.19527596 0.43265292
-0.21276785 0.19535226 0.43271151
-0.20975894 0.19332895 0.43404084
-0.25207224 0.19237764 0.43073216
-0.24909097 0.19460061 0.43020299
-0.24458233 0.19582939 0.42827463
-0.24026771 0.1973812 0.42773849
-0.2269704 0.1983818 0.42771715
-0.22355771 0.19741037 0.42774054
-0.21913962 0.19583961 0.42828906
-0.21481299 0.19464944 0.43011081
-0.24243969 0.19456226 0.42599827
-0.23911126 0.19575882 0.42587826
-0.23436068 0.19662867 0.42573485
-0.22934236 0.19656149 0.42568198
-0.22459179 0.19574757 0.4258827
-0.22116289 0.19456607 0.42605984
-0.23304904 0.17813727 0.48422447
-0.22975124 0.17821768 0.48418292
-0.24757168 0.18030949 0.47998035
-0.24402755 0.18119906 0.48137033
-0.23932573 0.18120688 0.48282254
-0.23447314 0.18104583 0.48361808
-0.22935703 0.18104553 0.48362562
-0.22433288 0.18120287 0.48280635
-0.21982682 0.18112014 0.48143592
-0.21613565 0.18020391 0.4799819
-0.25286043 0.18213294 0.47592363
-0.24948248 0.18303555 0.47804707
-0.24542154 0.18391384 0.48005542
-0.21827798 0.18378897 0.48007783
-0.2142252 0.18296035 0.47804773
-0.21091062 0.18233564 0.47588789
-0.25729159 0.1836164 0.47083551
-0.25454044 0.1847951 0.47327128
-0.25132546 0.18599728 0.47566333
-0.21237171 0.18585108 0.47569945
-0.20917848 0.18471198 0.47329232
-0.20638338 0.18363722 0.47074234
-0.25825807 0.18605971 0.46800491
-0.25617528 0.18751305 0.46996197
-0.20757775 0.18752959 0.46996194
-0.2055002 0.18609905 0.46799821
-0.25961146 0.18812586 0.46379542
-0.20412131 0.18809861 0.46381181
-0.26197183 0.18790784 0.45739105
-0.26046944 0.18987487 0.45914787
-0.20326959 0.18984841 0.45919594
-0.20175126 0.18782508 0.45751297
-0.26199242 0.18886295 0.45474592
-0.26043171 0.19165257 0.45447281
-0.20336792 0.19175506 0.4544563
-0.20177087 0.18887781 0.45487595
-0.25965586 0.19318636 0.44970405
-0.2041233 0.19325227 0.4496755
-0.25829101 0.1943465 0.445182
-0.25609037 0.19679078 0.44437751
-0.20756134 0.19673704 0.44455343
-0.20548677 0.19436169 0.44507983
-0.25736415 0.19429074 0.44153029
-0.25460613 0.19671886 0.44026893
-0.2513327 0.19912469 0.43897617
-0.21237053 0.19924162 0.43928406
-0.20917235 0.19674776 0.44025001
-0.20641308 0.19430268 0.44145054
-0.25283369 0.19656807 0.43668002
-0.24942523 0.19853547 0.43546104
-0.245535 0.20037004 0.43445015
-0.21823552 0.20035782 0.4344036
-0.21425502 0.19853318 0.43552467
-0.21103622 0.1966043 0.43654093
-0.24766192 0.19760731 0.43227258
-0.24411024 0.19916739 0.43173304
-0.23938754 0.20013151 0.4306207
-0.23442222 0.20049196 0.42984796
-0.22927937 0.20053542 0.42991129
-0.22438331 0.20019904 0.43069708
-0.21975225 0.19921625 0.43171483
-0.21617235 0.19765559 0.43225461
-0.23389511 0.19873251 0.42768097
-0.2308881 0.19870691 0.42756936
-0.24207628 0.18450963 0.48121643
-0.23862275 0.18497589 0.48196962
-0.23423435 0.18526302 0.48249832
-0.22944315 0.18529244 0.48248059
-0.22495894 0.18504035 0.48191434
-0.22177872 0.18438655 0.48129719
-0.24811664 0.18675795 0.47749841
-0.24418432 0.18742877 0.47915781
-0.2396456 0.18796061 0.48048568
-0.23452778 0.18837674 0.48120344
-0.22932559 0.18843743 0.48118767
-0.2241561 0.188044 0.48046419
-0.21963966 0.1874719 0.47917458
-0.21569496 0.18668608 0.47757617
-0.25273758 0.18836361 0.47314116
-0.24954419 0.18942073 0.47503221
-0.24541362 0.19048606 0.47697872
-0.21826017 0.1905383 0.47691819
-0.21416166 0.18948847 0.47496352
-0.21094355 0.18826754 0.47314191
-0.25688502 0.18984908 0.46712649
-0.25397906 0.19092901 0.46985176
-0.25083685 0.19232081 0.4719331
-0.21280412 0.19233908 0.47183791
-0.20970161 0.19083506 0.46986327
-0.25747961 0.19143271 0.46431464
-0.25507155 0.19338547 0.46584943
-0.20869468 0.19339584 0.46587184
-0.2061968 0.19137958 0.46426076
-0.25794512 0.19333559 0.46023893
-0.25563389 0.19567902 0.46121761
-0.20811412 0.19566664 0.46126506
-0.20580374 0.1933423 0.46024227
-0.25790948 0.19501442 0.45572358
-0.25564575 0.19740953 0.45640033
-0.2080777 0.19739257 0.45640483
-0.20588827 0.19507293 0.45576513
-0.25747204 0.19613534 0.45118886
-0.2550776 0.19860131 0.4514125
-0.20867243 0.19861113 0.45149672
-0.20623697 0.19609939 0.4513272
-0.25690702 0.1966636 0.44799888
-0.25396249 0.19931635 0.4468742
-0.25083154 0.20169812 0.44611108
-0.21276471 0.20161489 0.4462041
-0.20973863 0.19927101 0.44680005
-0.20684165 0.19664687 0.44778174
-0.25282761 0.19933411 0.44259337
-0.24945506 0.20150058 0.44183135
-0.24549147 0.20351602 0.44114056
-0.21830039 0.20352489 0.44109228
-0.21426095 0.20154493 0.44202411
-0.21099304 0.19939445 0.44256172
-0.24807477 0.20096222 0.43814644
-0.24417681 0.2026037 0.43749639
-0.23952055 0.20389181 0.43680814
-0.23440382 0.20464225 0.4365074
-0.22925031 0.20461275 0.43645725
-0.2240918 0.20391683 0.43692425
-0.21959937 0.20260043 0.43745497
-0.21572055 0.20100695 0.43816447
-0.24245127 0.20155436 0.43404615
-0.23869619 0.20253183 0.43378031
-0.2341277 0.20305893 0.43347088
-0.22948033 0.20311752 0.43358636
-0.22512193 0.2025526 0.43378112
-0.2217416 0.20167023 0.4339557
-0.24195646 0.19086707 0.47830305
-0.23877442 0.1910993 0.47909364
-0.23423134 0.19137955 0.47964892
-0.22946939 0.19138967 0.47963855
-0.22488363 0.19116974 0.47903603
-0.22154087 0.1908291 0.47823554
-0.24759935 0.19265962 0.47420299
-0.24411303 0.1931597 0.4757511
-0.23932812 0.19424964 0.47675255
-0.23449822 0.19500396 0.47709912
-0.22925897 0.19501668 0.47709215
-0.22432519 0.19420275 0.47675908
-0.21971123 0.19319795 0.47576597
-0.21615498 0.19270037 0.47418025
-0.24888554 0.19483304 0.47122678
-0.24451678 0.19670752 0.47237581
-0.24011955 0.19727175 0.47390369
-0.2365502 0.19715734 0.4750362
-0.22738972 0.19721378 0.47502086
-0.22360721 0.19722761 0.47394511
-0.21916476 0.19663393 0.4724158
-0.21486197 0.19482766 0.47123829
-0.21184981 0.19430932 0.46901596
-0.25259945 0.19592658 0.46608502
-0.24944903 0.1976352 0.4673458
-0.24596 0.19912533 0.46855208
-0.2178352 0.19923 0.46845347
-0.21431977 0.19770892 0.46727183
-0.21113886 0.19594528 0.46604097
-0.25305399 0.19790305 0.46194625
-0.24947535 0.20018414 0.46296442
-0.21698016 0.20060471 0.4655813
-0.21424881 0.20017526 0.46294925
-0.2106107 0.19790027 0.46181506
-0.25319675 0.19941163 0.45750716
-0.24948891 0.20192471 0.45817223
-0.24674274 0.20393971 0.45651853
-0.21437247 0.20199217 0.45821673
-0.21062796 0.1995037 0.45742527
-0.25266352 0.20064622 0.45300105
-0.24946043 0.20281202 0.45317879
-0.24590029 0.20477276 0.45304835
-0.21792279 0.20481233 0.45299128
-0.21434227 0.20284118 0.45324147
-0.21114248 0.20070715 0.45288369
-0.25203168 0.2012482 0.44978607
-0.2489351 0.20314449 0.44830176
-0.24455881 0.20533398 0.44869292
-0.24006183 0.20675346 0.44761056
-0.23656246 0.20741984 0.44706854
-0.22768518 0.20746893 0.44690323
-0.22363319 0.20675325 0.44768718
-0.21934228 0.20539266 0.44859836
-0.2147938 0.20313513 0.44832638
-0.24760053 0.20342641 0.44467011
-0.24400245 0.2048347 0.44373626
-0.23943113 0.20623818 0.44364387
-0.23449577 0.20707624 0.44391489
-0.22941181 0.20708333 0.4438979
-0.22431535 0.20625076 0.44369897
-0.21964033 0.20480631 0.44377527
-0.21606289 0.20338412 0.44465566
-0.23889217 0.20536332 0.43995419
-0.23433547 0.20595117 0.43970588
-0.22952037 0.20592101 0.43958995
-0.22489347 0.20539002 0.44000402
-0.22172847 0.2047109 0.440483
-0.23286988 0.19732828 0.47529212
-0.23064244 0.19724533 0.47536165
-0.24260676 0.19900991 0.47094208
-0.23903647 0.1990526 0.4723455
-0.23442835 0.19921768 0.47315595
-0.22949648 0.19923802 0.4731515
-0.22469673 0.1990646 0.472332
-0.22138268 0.19890161 0.47120416
-0.24368389 0.20063499 0.4679797
-0.23934205 0.20169172 0.46872497
-0.23440292 0.20240282 0.46898657
-0.22938293 0.20241903 0.46897089
-0.22438301 0.20172338 0.46867204
-0.22006457 0.20063718 0.46798816
-0.24708936 0.20195571 0.46243322
-0.24446614 0.20261367 0.46372601
-0.23943707 0.20410407 0.46427763
-0.23447637 0.20483436 0.46451449
-0.2293714 0.2048125 0.46457678
-0.22438042 0.20412479 0.464277
-0.21939972 0.20263423 0.46380401
-0.21669932 0.201888 0.46263036
-0.24704911 0.20280194 0.46024567
-0.24442685 0.20433849 0.45903349
-0.23940723 0.20581205 0.45961761
-0.23435648 0.20653613 0.4598482
-0.22931309 0.20655237 0.45978442
-0.2242828 0.20582402 0.45953476
-0.21932465 0.20434833 0.45900747
-0.21673292 0.20300366 0.45966426
-0.24365038 0.20554419 0.45453435
-0.23945145 0.20679288 0.45462477
-0.23430936 0.20755631 0.45477223
-0.22930346 0.20752832 0.45490196
-0.22426856 0.206793 0.45455962
-0.22004978 0.20553072 0.45453775
-0.24252573 0.20621662 0.45104501
-0.23909189 0.20710792 0.45014995
-0.23429671 0.20778014 0.44962233
-0.22938313 0.2077744 0.44968084
-0.22469263 0.20711908 0.45010489
-0.22115505 0.20619689 0.45117405
-0.23337252 0.20766562 0.44677657
-0.23043896 0.20767108 0.44676858
