# .PCD v0.7 - Point Cloud Data file format
VERSION 0.7
FIELDS x y z
SIZE 4 4 4
TYPE F F F
COUNT 1 1 1
WIDTH 1422
HEIGHT 1
VIEWPOINT 0 0 0 1 0 0 0
POINTS 1422
DATA ascii
0.36770955 -0.16265708 0.77649999
0.37113866 -0.16278963 0.77800006
0.33858871 -0.1572606 0.77719992
0.34124982 -0.15513727 0.77600002
0.36367425 -0.15513727 0.77600002
0.36808971 -0.15719999 0.77666664
0.37113866 -0.1584381 0.77800006
0.33951578 -0.15243991 0.77699995
0.34124982 -0.15224372 0.77600002
0.36191836 -0.15216003 0.77649999
0.36533681 -0.15336135 0.778
0.33934334 -0.14791748 0.77759999
0.34162024 -0.14708565 0.77654546
0.35779309 -0.14674236 0.77666664
0.36115956 -0.14912327 0.77733332
0.33922839 -0.1432078 0.778
0.342255 -0.14218387 0.77709097
0.3473261 -0.14095888 0.77600002
0.35329494 -0.14189944 0.77639997
0.35663399 -0.14284518 0.778
0.34720597 -0.13885629 0.77799994
0.35228261 -0.13958155 0.77800006
0.3771733 -0.17113496 0.78299999
0.33868611 -0.16612689 0.78233337
0.34259543 -0.16704646 0.78142864
0.34759 -0.16725448 0.78142846
0.3521221 -0.16751146 0.78122211
0.35728022 -0.16730089 0.78100008
0.36299726 -0.1680721 0.78233337
0.36723739 -0.16767824 0.78049999
0.37272501 -0.16825451 0.7816667
0.37726256 -0.16760677 0.78016657
0.382471 -0.16691199 0.78100002
0.3372885 -0.1623196 0.7814545
0.34010044 -0.16466233 0.77999997
0.3735469 -0.16248098 0.77999997
0.37724304 -0.16250667 0.78012484
0.38276222 -0.16268928 0.78100008
0.33650124 -0.15775031 0.78177768
0.37334722 -0.15667744 0.78079998
0.37742186 -0.15826441 0.78162503
0.38228258 -0.15896975 0.78299999
0.38520217 -0.15945634 0.78299999
0.3373355 -0.15236644 0.78033328
0.36482173 -0.15011999 0.77999997
0.36790717 -0.15237422 0.780375
0.37126067 -0.15348502 0.78233337
0.33701441 -0.14749867 0.78081816
0.36320281 -0.14724268 0.78016663
0.36701784 -0.14791796 0.78220004
0.33783412 -0.1425346 0.78118175
0.34010044 -0.14139459 0.77999997
0.35875648 -0.14143944 0.78025001
0.36254096 -0.14261666 0.78163642
0.36622491 -0.14485808 0.78299999
0.33936667 -0.13783512 0.78250003
0.34247327 -0.13783552 0.78043741
0.34744594 -0.13633375 0.78016663
0.35251993 -0.13714796 0.78066659
0.35707775 -0.13824846 0.78174996
0.36111566 -0.13901876 0.78299999
0.33994871 -0.13463928 0.78299999
0.34347439 -0.13291545 0.78216672
0.34752914 -0.13226816 0.78154546
0.35168943 -0.13233022 0.78277779
0.34432808 -0.12807006 0.78299999
0.34724769 -0.12807006 0.78299999
0.36635983 -0.17516607 0.78799999
0.33257031 -0.17075863 0.78799999
0.33756936 -0.17215554 0.78766668
0.34259635 -0.1715693 0.78722221
0.34727234 -0.17187166 0.7863636
0.35237452 -0.17242953 0.787
0.35753575 -0.17144336 0.78728575
0.36231542 -0.17101626 0.78628576
0.3672213 -0.17194536 0.78670007
0.37235609 -0.172461 0.78714287
0.37640417 -0.17211851 0.78750002
0.328163 -0.16782033 0.78800005
0.3325265 -0.16754392 0.78723079
0.33729488 -0.16769722 0.78588891
0.34081706 -0.16864499 0.78500003
0.32889754 -0.16414747 0.78799999
0.33272529 -0.1625872 0.787
0.33642653 -0.16425431 0.78500003
0.33361319 -0.15770225 0.787
0.33612147 -0.15567103 0.78600001
0.37801221 -0.1559379 0.78549999
0.38289219 -0.15697686 0.786125
0.38635293 -0.15769094 0.78633332
0.33382702 -0.15303169 0.78750008
0.33612147 -0.1527402 0.78600001
0.37350228 -0.15205802 0.78500003
0.37774235 -0.15306005 0.78657144
0.38198245 -0.15367725 0.78779995
0.33434916 -0.14999995 0.787
0.33657399 -0.14772741 0.78740001
0.36862391 -0.14595987 0.78500003
0.37194288 -0.1473251 0.78554541
0.37600061 -0.14831895 0.78716666
0.33797187 -0.14243266 0.78775001
0.36798051 -0.14224622 0.78585714
0.37242395 -0.143134 0.78728575
0.37590906 -0.14431395 0.78799999
0.33912966 -0.13770877 0.78720003
0.34021813 -0.13606074 0.787
0.35911101 -0.13644674 0.78500003
0.36247712 -0.13761759 0.78500003
0.36688951 -0.13737534 0.78727281
0.37052235 -0.13941678 0.78799993
0.3391813 -0.1340299 0.78799999
0.34167022 -0.13206239 0.786125
0.35398871 -0.13059253 0.78500003
0.35739917 -0.13302071 0.78514278
0.36242804 -0.13279721 0.78680003
0.36624384 -0.1332528 0.78775001
0.34318313 -0.12745216 0.78640008
0.3474029 -0.12620187 0.78500003
0.35290387 -0.12722023 0.78554553
0.35757762 -0.1275658 0.78710002
0.36220521 -0.12921405 0.78775001
0.34410426 -0.12366734 0.78750002
0.34722152 -0.12273613 0.78625
0.35239649 -0.12241387 0.78700006
0.35607606 -0.12301128 0.78799999
0.34738162 -0.11797529 0.78781819
0.35093421 -0.11860384 0.78799999
0.34250408 -0.18094085 0.79400003
0.33836412 -0.17625105 0.79066664
0.34207913 -0.17763355 0.79244447
0.34705415 -0.1765487 0.79200006
0.35360628 -0.17649984 0.79400003
0.35708064 -0.1763887 0.79350001
0.36264431 -0.17644024 0.7924
0.36758861 -0.17800005 0.79314286
0.37264815 -0.17723839 0.792
0.37731561 -0.17764626 0.79250002
0.3330462 -0.17303315 0.79000002
0.33562365 -0.17340136 0.79000002
0.34225148 -0.17413779 0.79000002
0.35771623 -0.17413779 0.79000002
0.36274722 -0.17443168 0.79133338
0.36600468 -0.17457864 0.792
0.3709718 -0.17413779 0.79000002
0.3775996 -0.17413779 0.79000002
0.32727757 -0.16579148 0.79000002
0.32789716 -0.16192317 0.79150003
0.32890439 -0.15810846 0.79333335
0.33109528 -0.15749677 0.79150003
0.38831869 -0.15623511 0.79133338
0.39160058 -0.15626858 0.79399997
0.32992157 -0.15355465 0.79400003
0.33236742 -0.15252811 0.79181808
0.37980884 -0.15057173 0.79000002
0.38265374 -0.15153173 0.79039997
0.38730717 -0.15301533 0.79285723
0.39135385 -0.15429482 0.79400003
0.3336798 -0.14760286 0.79292309
0.33625808 -0.14688952 0.79079998
0.37894368 -0.14698112 0.79049999
0.38238117 -0.14706005 0.79199988
0.38569069 -0.14689168 0.7924
0.33359343 -0.14248884 0.79345459
0.33704689 -0.14205314 0.79074997
0.37439078 -0.14117558 0.79100001
0.37741277 -0.14203225 0.79166669
0.38231748 -0.14189401 0.79215389
0.38642663 -0.14375117 0.79299998
0.33406639 -0.13771504 0.79400003
0.33716911 -0.13748921 0.79230762
0.37290829 -0.1371412 0.79142857
0.37650883 -0.13764477 0.79360008
0.38395238 -0.13949145 0.79400003
0.38617283 -0.13949145 0.79400003
0.33798364 -0.13265394 0.79261529
0.34062564 -0.13150656 0.79049999
0.36833608 -0.13177946 0.79066664
0.37247524 -0.13313946 0.79320002
0.33895913 -0.12793753 0.79350001
0.34147063 -0.12723851 0.79145449
0.36273918 -0.12672161 0.79085714
0.3674531 -0.12797958 0.79299998
0.33880332 -0.12468809 0.79400003
0.34198189 -0.12260184 0.79199994
0.35825965 -0.12188581 0.79119998
0.36229059 -0.12215219 0.79327279
0.36544868 -0.12394793 0.79400003
0.34237713 -0.11772866 0.79199988
0.34669709 -0.11557557 0.79040003
0.35306981 -0.11721892 0.79022223
0.35759717 -0.11750785 0.79299998
0.36100778 -0.11876675 0.79400003
0.34214285 -0.11272666 0.7931667
0.3474007 -0.11251315 0.79166657
0.35264236 -0.11278079 0.79224998
0.35607347 -0.1128454 0.79399997
0.3442311 -0.10939128 0.79399997
0.3476851 -0.10914456 0.79400009
0.35175595 -0.10951465 0.79400003
0.34715825 -0.18239617 0.79874998
0.35210901 -0.18133545 0.79900002
0.35795474 -0.18053411 0.79874998
0.36266065 -0.18134499 0.79857141
0.3676278 -0.18157892 0.79679996
0.37159833 -0.18227236 0.79766673
0.34633487 -0.17991255 0.796
0.3524543 -0.17833674 0.79725003
0.35761929 -0.17887679 0.79799998
0.36191711 -0.17842849 0.796
0.36711121 -0.17991255 0.796
0.37230527 -0.17991255 0.796
0.32858029 -0.15692441 0.7973333
0.32828364 -0.15227954 0.79754543
0.33075258 -0.15097329 0.796
0.38862959 -0.15023126 0.796
0.39190656 -0.151577 0.79624999
0.32771647 -0.14763191 0.79900002
0.33102834 -0.14738646 0.79666662
0.38862959 -0.14800516 0.796
0.39145526 -0.14758192 0.79657137
0.32864749 -0.14372158 0.79900002
0.33076388 -0.14220366 0.79722226
0.33248591 -0.13727465 0.79659998
0.37883502 -0.13717148 0.796
0.38239685 -0.13761669 0.79744446
0.38690007 -0.13731369 0.79855555
0.33367506 -0.13303904 0.79842854
0.33596674 -0.13219148 0.79639995
0.37351686 -0.13110292 0.79699999
0.3777723 -0.13252671 0.79775
0.38207006 -0.13339008 0.79883337
0.38637018 -0.13441123 0.79900002
0.33497837 -0.12770776 0.79900002
0.33728683 -0.12745354 0.79741651
0.36884257 -0.12549685 0.796
0.37281078 -0.12752737 0.79787493
0.37668771 -0.12845258 0.79900008
0.3382057 -0.12231495 0.79783344
0.36791396 -0.12213562 0.79666662
0.37173495 -0.1227302 0.79860002
0.33878678 -0.11754979 0.79779994
0.36289555 -0.11741149 0.79628569
0.36739165 -0.11759718 0.79862493
0.37072921 -0.11951465 0.79900002
0.33916306 -0.11321174 0.79833335
0.34114453 -0.11124794 0.7974
0.35794145 -0.11199775 0.79639995
0.3624506 -0.11305846 0.79836351
0.36626038 -0.11355601 0.79900002
0.34308416 -0.10782263 0.79822224
0.34733588 -0.10655457 0.79757136
0.35269335 -0.10719141 0.7973749
0.3568759 -0.10820615 0.79799998
0.34332028 -0.10342634 0.79900002
0.34755838 -0.10235904 0.79881245
0.35196003 -0.10342634 0.79900002
0.34615052 -0.098659433 0.79900002
0.35971043 -0.18552281 0.801
0.36269712 -0.18552281 0.80099994
0.36809394 -0.18598603 0.80299997
0.37240386 -0.18552281 0.801
0.35747039 -0.18290938 0.80100006
0.36269712 -0.18402942 0.80099994
0.36717713 -0.1836561 0.801
0.37389719 -0.18402943 0.801
0.32611009 -0.15117492 0.801
0.32611009 -0.14968152 0.801
0.32892844 -0.14192909 0.80149996
0.33100194 -0.13790639 0.80200005
0.39055008 -0.13508412 0.80299997
0.332477 -0.13202935 0.80150002
0.3831062 -0.1307653 0.80099994
0.38584399 -0.1317609 0.80100006
0.33332753 -0.12758657 0.80175006
0.3785266 -0.12698206 0.801
0.38204366 -0.12750714 0.80125004
0.38605884 -0.12909564 0.80299997
0.33399236 -0.12370151 0.80200005
0.33555341 -0.12202495 0.80180007
0.37389719 -0.12205388 0.801
0.37640056 -0.12268363 0.80219996
0.38081908 -0.12460431 0.80299997
0.33658603 -0.11802046 0.80150002
0.36867049 -0.11533365 0.801
0.37192282 -0.11733706 0.80157143
0.33824441 -0.11215965 0.80180007
0.36344379 -0.11085349 0.801
0.36784324 -0.11215965 0.80179995
0.37108809 -0.11412449 0.80299997
0.3396495 -0.10963316 0.80299997
0.34107789 -0.10720792 0.80166674
0.3584407 -0.10643879 0.80149996
0.3618632 -0.10827237 0.80180007
0.36622259 -0.10925888 0.80299997
0.38338828 -0.10767502 0.80179995
0.38509735 -0.1078667 0.80099994
0.34266981 -0.10217524 0.80175006
0.35323927 -0.10089757 0.80099994
0.35678172 -0.10274124 0.80180007
0.3440671 -0.098489672 0.80166668
0.34745994 -0.097234413 0.80128574
0.35213593 -0.09751986 0.80188894
0.35611734 -0.099153347 0.80299997
0.3478834 -0.094661996 0.80299997
0.35012904 -0.094661996 0.80299997
0.36788511 -0.18757491 0.80500001
0.37051156 -0.18795012 0.80500001
0.32739255 -0.14610589 0.80600005
0.32403928 -0.14027072 0.80699998
0.3280119 -0.14242199 0.80783337
0.32403928 -0.13726158 0.80699998
0.32870305 -0.13790047 0.80754548
0.33108047 -0.13586916 0.80766672
0.32358548 -0.13232271 0.80900002
0.32710478 -0.13232271 0.80900002
0.33104315 -0.13234894 0.80790907
0.3907724 -0.13391972 0.80500001
0.32861301 -0.12855195 0.80900002
0.33144122 -0.12708777 0.80754542
0.38699624 -0.12630227 0.80620003
0.33280042 -0.12229076 0.80666667
0.37851587 -0.12191298 0.80500001
0.38266203 -0.12240545 0.80645466
0.38758644 -0.1222491 0.80722225
0.33349815 -0.11810132 0.80744445
0.33620083 -0.1163568 0.80549997
0.3772884 -0.11740468 0.80625004
0.38280571 -0.11796102 0.80877781
0.3874352 -0.11799385 0.80900002
0.33388144 -0.1129974 0.80871433
0.33689615 -0.11245764 0.80716664
0.37283832 -0.1121689 0.80585718
0.37750825 -0.11307102 0.8085556
0.38328749 -0.11460017 0.80900002
0.38679543 -0.11328194 0.80766672
0.33834568 -0.10762808 0.80736369
0.34049547 -0.10690453 0.80500001
0.36300755 -0.1061541 0.80500001
0.36781818 -0.10691471 0.80650008
0.37161544 -0.10812376 0.80739993
0.38401878 -0.10990622 0.80500001
0.33914149 -0.10332816 0.8083334
0.34130833 -0.10206946 0.8063333
0.36219266 -0.1022592 0.80557138
0.36729923 -0.10300302 0.80825007
0.33917084 -0.099140078 0.80900002
0.34241182 -0.097373441 0.80723536
0.34649867 -0.096398614 0.80500001
0.35773245 -0.096670583 0.80588889
0.36227053 -0.098027915 0.80744445
0.36682233 -0.09939146 0.80900002
0.3432298 -0.092637829 0.80790907
0.34731904 -0.092450015 0.80627275
0.35265723 -0.092567287 0.80650014
0.35744804 -0.092070937 0.80842859
0.3602865 -0.093106866 0.80900002
0.34369564 -0.087827802 0.80900002
0.34732246 -0.087790996 0.80866671
0.35233912 -0.08796113 0.80849999
0.35651588 -0.089336112 0.80900002
0.34746629 -0.084811203 0.80900002
0.35123694 -0.084811203 0.80900002
0.32488945 -0.12886976 0.81099999
0.32802674 -0.12728557 0.81174999
0.32879636 -0.12225307 0.81225002
0.33093739 -0.12282163 0.81100005
0.32942539 -0.11979757 0.81099999
0.33183575 -0.11780263 0.81214285
0.33396137 -0.11072539 0.81099999
0.3793211 -0.11223742 0.81099999
0.3825953 -0.11202279 0.81188893
0.38536903 -0.11148141 0.81099999
0.33478495 -0.10872481 0.81300002
0.33624363 -0.1074513 0.81139994
0.37402913 -0.10694532 0.81099999
0.37699309 -0.10827854 0.8125
0.38253012 -0.10948269 0.81300002
0.3863194 -0.10872481 0.81300002
0.33770695 -0.10266118 0.81233335
0.37210539 -0.10250323 0.81174999
0.33895317 -0.097735554 0.81300002
0.34000933 -0.096361101 0.81099999
0.36420119 -0.09560509 0.81099999
0.36767796 -0.096983619 0.81199998
0.37116221 -0.098872378 0.81300002
0.3393321 -0.092809342 0.81300002
0.34078184 -0.092323534 0.81139994
0.3627584 -0.09231624 0.81200004
0.36509934 -0.093567222 0.81300002
0.34253022 -0.087474719 0.81209087
0.35361725 -0.08502087 0.81099999
0.35760638 -0.087107219 0.81166661
0.36131006 -0.088262059 0.81300002
0.34410128 -0.08314088 0.81233335
0.34740776 -0.081949912 0.81190908
0.35204485 -0.082298413 0.8118571
0.35600504 -0.083714783 0.81300002
0.34766859 -0.079167508 0.81300002
0.35145786 -0.079167508 0.81300002
0.30405551 -0.19784822 0.81800002
0.32689244 -0.1266197 0.81599998
0.32756373 -0.12318408 0.8154
0.32932273 -0.11865229 0.81699997
0.33131313 -0.11663749 0.81640005
0.33306023 -0.11245015 0.81654543
0.33380228 -0.10749562 0.816625
0.33560854 -0.10595331 0.815
0.37838507 -0.10639772 0.81549996
0.38232207 -0.10688639 0.81633329
0.38689789 -0.10633644 0.81599998
0.39081514 -0.10620654 0.815
0.33423987 -0.10278511 0.81759995
0.33620396 -0.10175099 0.81583333
0.3774026 -0.10212085 0.81624997
0.38243964 -0.10248842 0.81766665
0.3874656 -0.10260037 0.81745452
0.39126647 -0.10392848 0.81699997
0.33690244 -0.097752161 0.81630003
0.37273458 -0.097128905 0.81533337
0.37736818 -0.098025315 0.81699991
0.38157845 -0.09897209 0.81800002
0.33809295 -0.092762604 0.81659997
0.36819997 -0.092495456 0.81525004
0.37293357 -0.092731811 0.81718177
0.37684989 -0.094358169 0.81766671
0.33892369 -0.08722645 0.81749994
0.34067336 -0.08721295 0.815
0.3599197 -0.085440211 0.815
0.36336029 -0.087501138 0.81533337
0.36732686 -0.087696366 0.81672722
0.3703948 -0.086517259 0.81800002
0.33989397 -0.082704552 0.81800002
0.34232447 -0.082329795 0.81580001
0.35777998 -0.082286194 0.81575
0.36257955 -0.082660675 0.81757134
0.36613405 -0.084126659 0.81699997
0.339894 -0.079654388 0.81800002
0.34288216 -0.077747308 0.8164615
0.34776413 -0.077083021 0.815
0.35266355 -0.077435389 0.81528574
0.35771003 -0.077927604 0.81766659
0.36124456 -0.079654388 0.81800002
0.34300935 -0.072723769 0.81724995
0.34726179 -0.072656639 0.81650001
0.35208055 -0.072708778 0.81708336
0.35514441 -0.072791517 0.81800002
0.34396076 -0.068470463 0.81800002
0.34713793 -0.068597548 0.81800002
0.3513318 -0.068978824 0.81800002
0.29486194 -0.20062514 0.81999999
0.29791945 -0.20138954 0.81999999
0.30250576 -0.20138954 0.81999999
0.30593598 -0.20163608 0.82099998
0.29421678 -0.19764721 0.8203333
0.29772836 -0.19775862 0.82000005
0.30183268 -0.19724509 0.82025009
0.28868487 -0.19038671 0.82200003
0.29298869 -0.19197761 0.82225001
0.29711363 -0.19268553 0.82200003
0.30135816 -0.19312851 0.82342857
0.288652 -0.18793172 0.82299995
0.29234603 -0.18742956 0.82309097
0.29759559 -0.18762423 0.82333326
0.30090895 -0.1877774 0.82400006
0.29476404 -0.18470487 0.824
0.29752928 -0.18409038 0.824
0.30090895 -0.18470487 0.824
0.32849485 -0.12112702 0.81999999
0.32756385 -0.11708137 0.82022226
0.33053324 -0.11552137 0.81999999
0.3246986 -0.11146095 0.82200003
0.32776359 -0.11222722 0.82200003
0.33105633 -0.11204455 0.82066673
0.32776359 -0.1076296 0.82200003
0.33166319 -0.10727484 0.82075006
0.32776359 -0.10303199 0.82200003
0.33186758 -0.10245056 0.82181829
0.32762831 -0.09888383 0.82320005
0.332784 -0.09781298 0.8228001
0.33578241 -0.096018612 0.82099998
0.38248691 -0.096295543 0.82057142
0.3865881 -0.09743046 0.81999999
0.33366704 -0.092453308 0.82333332
0.33645865 -0.092028432 0.82125002
0.3780902 -0.091862954 0.82080001
0.38258809 -0.092650414 0.82314289
0.38693765 -0.093552977 0.82400006
0.33470598 -0.08868812 0.824
0.33677471 -0.087658748 0.82155561
0.37366605 -0.087981164 0.82099998
0.37745395 -0.087620318 0.82299995
0.38140726 -0.088227242 0.824
0.33828452 -0.082988381 0.82218176
0.36762163 -0.081634797 0.82088894
0.37246776 -0.082825556 0.82300001
0.37772033 -0.084847458 0.82400006
0.33907914 -0.077789113 0.82249999
0.34037426 -0.076885171 0.82100004
0.35907027 -0.07526271 0.81999999
0.36266461 -0.077002592 0.82044452
0.36728886 -0.07707122 0.82299995
0.37065369 -0.077473372 0.824
0.33931461 -0.072557308 0.82400006
0.3406513 -0.072351232 0.82166666
0.35822797 -0.072035946 0.82057142
0.36281994 -0.072571844 0.82200003
0.36696672 -0.072941378 0.824
0.33931464 -0.068716645 0.824
0.3420347 -0.06762927 0.82181817
0.34811404 -0.066599458 0.81999999
0.35282159 -0.067345142 0.82040006
0.3574892 -0.067801088 0.82222223
0.36235806 -0.068716645 0.824
0.34287667 -0.063031487 0.82333332
0.34722567 -0.062381823 0.82230783
0.35233241 -0.062710159 0.82309097
0.35669243 -0.063287221 0.82333332
0.3469958 -0.058730904 0.82400006
0.30622891 -0.19023266 0.82800001
0.28847653 -0.18637335 0.82800001
0.29180473 -0.18526526 0.8265
0.30317926 -0.18746316 0.82599998
0.30650511 -0.18684386 0.82666671
0.31008813 -0.18791708 0.82800001
0.29272768 -0.18262395 0.82779998
0.29690167 -0.18169561 0.82628578
0.30188277 -0.18221888 0.82666671
0.30683553 -0.18241523 0.82755554
0.2931076 -0.17788287 0.82800001
0.29757839 -0.17778656 0.82755554
0.30236971 -0.17788285 0.82800001
0.30678025 -0.17832394 0.82800001
0.29465127 -0.17402355 0.82800001
0.29773864 -0.17402355 0.82800001
0.30198377 -0.17440948 0.82800001
0.31935024 -0.16553307 0.82800001
0.32263055 -0.16688383 0.82800001
0.31832126 -0.16231419 0.82733327
0.32174486 -0.1620964 0.8262223
0.32614243 -0.16275436 0.82799995
0.31857839 -0.15781443 0.82800001
0.32243758 -0.15781444 0.82800001
0.32552496 -0.15935814 0.82800001
0.31857839 -0.15472698 0.82800001
0.32859647 -0.096424043 0.82666665
0.33089846 -0.095833369 0.82599998
0.33179578 -0.093102239 0.82714283
0.38479692 -0.091213383 0.82599998
0.38633689 -0.091213383 0.82599998
0.3336201 -0.088100009 0.82749999
0.33551836 -0.085823387 0.82599998
0.38377026 -0.086850055 0.82600003
0.38674882 -0.087911047 0.82633334
0.33708307 -0.081866279 0.82714283
0.37401724 -0.080433406 0.82599998
0.37786078 -0.081903554 0.82725
0.38202521 -0.083279125 0.82750005
0.38572863 -0.08371561 0.82800001
0.33823633 -0.077447057 0.82699996
0.37410769 -0.077479519 0.82733339
0.37698111 -0.078569867 0.82800001
0.33882722 -0.073252365 0.82749999
0.36862737 -0.071963415 0.82599998
0.37165588 -0.072873563 0.8276
0.33859825 -0.069653422 0.82599998
0.34013823 -0.065803438 0.82599998
0.36276075 -0.066113211 0.82666665
0.3669827 -0.068622127 0.82749999
0.34116486 -0.061953444 0.82599998
0.3539978 -0.06041345 0.82599998
0.35765538 -0.060510974 0.82733327
0.36125359 -0.063081361 0.82733327
0.34341061 -0.057525955 0.82600009
0.34783801 -0.056563456 0.82600003
0.35222837 -0.057892438 0.82666665
0.35717049 -0.059016004 0.82800001
0.34404919 -0.052841101 0.82800001
0.34713653 -0.052841097 0.82800001
0.35022393 -0.053612962 0.82800001
0.34404919 -0.049753651 0.82800001
0.34636468 -0.049753651 0.82800001
0.28762591 -0.18682353 0.82999998
0.31238452 -0.1860498 0.82999998
0.28453109 -0.18140744 0.82999998
0.28797174 -0.18286508 0.83099997
0.29072073 -0.18218115 0.82999998
0.31238452 -0.18295489 0.82999998
0.31778738 -0.18152572 0.83257145
0.32089299 -0.18106897 0.83200002
0.28391212 -0.17676508 0.83000004
0.28781426 -0.17744294 0.83054543
0.29149443 -0.17676508 0.82999998
0.30805176 -0.17583661 0.83000004
0.31258634 -0.1779431 0.83090901
0.317444 -0.17739482 0.83400005
0.32197532 -0.17746148 0.83399999
0.32632896 -0.17606205 0.83399999
0.27657309 -0.17139731 0.83399993
0.2886852 -0.17264116 0.8325001
0.29265901 -0.1723519 0.83111107
0.29691041 -0.17134897 0.82999998
0.30263582 -0.17181322 0.83000004
0.30733874 -0.17232884 0.83100003
0.31156781 -0.17333104 0.83333331
0.31816754 -0.17262457 0.83366662
0.32224834 -0.17257452 0.83216661
0.3269054 -0.17225429 0.83250004
0.33177102 -0.17139731 0.83399999
0.2762621 -0.16922043 0.83399999
0.28894514 -0.16833051 0.83324999
0.29286656 -0.1681278 0.83225
0.29691774 -0.16720177 0.8318333
0.30180156 -0.16763723 0.83175004
0.30615711 -0.1694351 0.83200002
0.31722358 -0.16746053 0.83199996
0.3206374 -0.16851199 0.82999998
0.32734829 -0.16761549 0.83066672
0.33175737 -0.1674017 0.83249998
0.33701867 -0.16692694 0.83400005
0.29822153 -0.1640078 0.83280003
0.30124518 -0.16374743 0.83200002
0.313795 -0.16156863 0.83257139
0.31637976 -0.16290401 0.83033329
0.32889023 -0.16283798 0.82999998
0.33160824 -0.16253285 0.8332001
0.30318964 -0.15686564 0.83280003
0.3074905 -0.15608533 0.83171433
0.31237429 -0.15695539 0.83079994
0.31625307 -0.15742189 0.82999998
0.32321641 -0.15510072 0.82999998
0.32740349 -0.15780386 0.8312
0.30379277 -0.15297535 0.83360004
0.30776724 -0.15240198 0.83216667
0.31238449 -0.15200581 0.82999998
0.31736588 -0.15216736 0.83088887
0.32192799 -0.15290163 0.83066672
0.32671511 -0.15410827 0.833
0.30456078 -0.14885108 0.83399999
0.30758813 -0.14803375 0.83377784
0.3115699 -0.14814198 0.83314282
0.31622231 -0.14962853 0.83399999
0.32876405 -0.092633262 0.83285719
0.33057666 -0.091765523 0.83100003
0.39194044 -0.092761964 0.833
0.32943869 -0.088209525 0.83399999
0.33181936 -0.087004013 0.83140004
0.38820776 -0.085465275 0.82999998
0.33312199 -0.082523912 0.8315556
0.33559573 -0.082370371 0.82999998
0.38304973 -0.081338733 0.82999998
0.38714814 -0.081983879 0.83057147
0.33356789 -0.077977732 0.8326667
0.33636943 -0.077728003 0.82999998
0.37776273 -0.076567411 0.82999998
0.38263261 -0.077852041 0.83133328
0.38728237 -0.078785479 0.833
0.39007863 -0.07965751 0.83399999
0.3344247 -0.072918124 0.83314294
0.33700863 -0.072415344 0.83119994
0.37428105 -0.072311908 0.82999998
0.3779732 -0.072499283 0.83216649
0.38223413 -0.072571889 0.83300006
0.38619149 -0.072660409 0.83400005
0.33753273 -0.067639798 0.831846
0.34023795 -0.06689582 0.82999998
0.36840087 -0.066586338 0.83000004
0.37229913 -0.067517452 0.8313334
0.37702549 -0.06834317 0.83350003
0.38074943 -0.068773128 0.83399999
0.33874273 -0.062971152 0.8326667
0.34102091 -0.061973225 0.83039999
0.36344913 -0.061866596 0.82999998
0.3676216 -0.062208641 0.83200002
0.37217498 -0.063144699 0.83360004
0.34172857 -0.057732571 0.83174992
0.35416466 -0.056063645 0.82999998
0.35769117 -0.056905542 0.83100003
0.36208147 -0.057929724 0.83142853
0.36731315 -0.05901929 0.83350003
0.34309825 -0.05291703 0.83225006
0.35305935 -0.052747671 0.82999998
0.35757861 -0.052670352 0.83228576
0.36157268 -0.052705701 0.83400005
0.34407759 -0.047420815 0.83222222
0.34791598 -0.047121111 0.83059996
0.35209733 -0.047585346 0.83059996
0.35649344 -0.047826342 0.83285713
0.34436545 -0.042650603 0.83399999
0.34781888 -0.042304534 0.83333337
0.35211319 -0.043230467 0.8332001
0.32399434 -0.18116018 0.83600003
0.32711291 -0.18159358 0.838
0.28658795 -0.17960154 0.83600003
0.32737362 -0.17844403 0.83666664
0.33179992 -0.17534409 0.838
0.27275538 -0.17161351 0.83600003
0.28191218 -0.1702497 0.83600003
0.28606844 -0.17267424 0.83600003
0.30996692 -0.1702497 0.83600003
0.31385276 -0.17142455 0.83666664
0.31651309 -0.17274351 0.83600008
0.32867011 -0.17414629 0.83600003
0.33334592 -0.17258765 0.83600003
0.33724242 -0.1702497 0.83600003
0.27215913 -0.16736501 0.83716673
0.277459 -0.16668709 0.83600003
0.28191221 -0.16713241 0.83600003
0.28614265 -0.16713241 0.83600003
0.29282233 -0.16557378 0.83600003
0.30607045 -0.16869105 0.83600003
0.31397757 -0.16785312 0.83699995
0.31620136 -0.16869105 0.83600003
0.33490452 -0.16869105 0.83600003
0.33958033 -0.16557378 0.83600003
0.34176236 -0.16744414 0.83600008
0.27258489 -0.1629515 0.83781815
0.27745742 -0.16258481 0.83666664
0.28191218 -0.16245651 0.83600003
0.28558946 -0.16294238 0.83649999
0.3126784 -0.16265175 0.83700001
0.33465084 -0.1625848 0.83666664
0.33736897 -0.16245432 0.83714283
0.34039271 -0.16440751 0.838
0.26718646 -0.15793483 0.83799994
0.27243146 -0.15737687 0.83800006
0.27789959 -0.15737687 0.838
0.28225031 -0.15718813 0.83700007
0.28571123 -0.15972041 0.838
0.30996692 -0.15778057 0.83600003
0.31070849 -0.15972041 0.838
0.26852563 -0.15347093 0.838
0.27243146 -0.15190855 0.838
0.27789959 -0.15190856 0.83799994
0.28164917 -0.15222102 0.838
0.29354849 -0.15178709 0.83733338
0.29749814 -0.15310465 0.83600003
0.30172864 -0.15288198 0.83600003
0.32008246 -0.15034619 0.838
0.27399379 -0.14878382 0.838
0.29354849 -0.14814405 0.83733326
0.29715344 -0.14747667 0.83628589
0.30217391 -0.14764939 0.83600014
0.30716148 -0.14562318 0.83600008
0.31308413 -0.14687008 0.83600003
0.3169578 -0.14878382 0.838
0.27946192 -0.14331552 0.838
0.2818054 -0.14331552 0.838
0.29352286 -0.14409672 0.838
0.29768908 -0.14305514 0.83799994
0.30225384 -0.14223154 0.83622223
0.30704457 -0.14277865 0.83600003
0.32945642 -0.088632591 0.838
0.33101875 -0.086289033 0.838
0.33140305 -0.083065055 0.83699995
0.33225781 -0.077078953 0.83640003
0.3878969 -0.076731257 0.83600003
0.32399434 -0.071276009 0.83600003
0.32555294 -0.071276009 0.83600003
0.3329635 -0.072141528 0.83699995
0.38477969 -0.070496693 0.83600003
0.33393854 -0.067654833 0.83699995
0.33646312 -0.065820776 0.83600003
0.37802577 -0.066340327 0.83600003
0.382247 -0.067184582 0.83600003
0.38699797 -0.067493483 0.83742851
0.3341434 -0.063634679 0.838
0.33699283 -0.062423382 0.83688885
0.37386951 -0.061924167 0.83600003
0.37763339 -0.062582731 0.83699995
0.38237306 -0.062819332 0.83755547
0.38570023 -0.063634679 0.838
0.33881998 -0.058640283 0.83733326
0.34076583 -0.056535542 0.83700001
0.36746532 -0.056501769 0.83650005
0.3720611 -0.057803351 0.83777773
0.37684703 -0.059207965 0.838
0.38179439 -0.058947571 0.838
0.34162748 -0.052179076 0.83719999
0.36451793 -0.051793005 0.83600003
0.36718115 -0.052654926 0.83733326
0.34168181 -0.047192231 0.83733332
0.35932255 -0.046077985 0.83600003
0.36275768 -0.047190983 0.83733326
0.36591074 -0.048271384 0.838
0.34193918 -0.042346217 0.83719999
0.3532514 -0.040931422 0.83700001
0.35721257 -0.042498119 0.83714283
0.36122373 -0.043584272 0.838
0.34296954 -0.038575295 0.83666664
0.34737334 -0.038544558 0.83600003
0.35261187 -0.038606033 0.83733338
0.35601598 -0.039417956 0.838
0.33024269 -0.18124393 0.83999997
0.3331871 -0.17764533 0.84149998
0.31177652 -0.17010354 0.84299999
0.30826709 -0.16676022 0.84200001
0.314134 -0.16538845 0.84299999
0.31570566 -0.16696015 0.84299999
0.26446831 -0.16010159 0.83999997
0.26877499 -0.16166769 0.83999997
0.27073255 -0.16166769 0.83999997
0.28858557 -0.16198091 0.83999997
0.30941907 -0.16067338 0.84299999
0.31166771 -0.16205262 0.84200001
0.33415782 -0.16010159 0.83999997
0.33807299 -0.16010159 0.83999997
0.34257537 -0.16284227 0.84000003
0.26425928 -0.1571544 0.84100002
0.26653653 -0.15614074 0.84060001
0.28701955 -0.15728262 0.83999997
0.26384121 -0.15360078 0.84299999
0.26719689 -0.15248807 0.84119999
0.28430507 -0.15227111 0.83999997
0.28750741 -0.15219946 0.84250003
0.29143599 -0.15219043 0.84100002
0.27199847 -0.14783576 0.8415001
0.27719253 -0.14737704 0.84000003
0.28226444 -0.14743042 0.84000009
0.28786498 -0.14832437 0.84299999
0.29128331 -0.14757469 0.84112501
0.3192803 -0.1491389 0.83999997
0.32084635 -0.1491389 0.83999997
0.2734195 -0.14443459 0.84224999
0.27685118 -0.14417666 0.84074998
0.28482708 -0.14444061 0.83999997
0.28846371 -0.14443257 0.84299999
0.29213199 -0.14383808 0.84171432
0.29735553 -0.14130841 0.83999997
0.32985049 -0.085232198 0.84299999
0.33142215 -0.086018041 0.84299999
0.32898706 -0.081716046 0.84239995
0.33092907 -0.081479594 0.84074998
0.32867664 -0.077098392 0.83999997
0.33102572 -0.077098392 0.83999997
0.32867664 -0.072400093 0.83999997
0.33102572 -0.072400093 0.83999997
0.32847914 -0.068605743 0.84149998
0.33259693 -0.06838876 0.84200001
0.33406395 -0.062666833 0.84074998
0.38662073 -0.061437402 0.83999997
0.33494085 -0.059871305 0.83999997
0.33745632 -0.057133388 0.84119999
0.37357029 -0.055695042 0.83999997
0.37744811 -0.056291647 0.84000003
0.38153103 -0.056739107 0.84000003
0.3855767 -0.059349272 0.83999997
0.33847359 -0.052102771 0.84100002
0.36939409 -0.050474718 0.83999997
0.37207881 -0.052264545 0.84000003
0.37661585 -0.052171972 0.84214288
0.38014328 -0.05379837 0.84299999
0.33847359 -0.04739888 0.84100002
0.36814123 -0.047029302 0.83999997
0.37195382 -0.047860857 0.84224999
0.33887103 -0.042916138 0.84150004
0.35999778 -0.041078128 0.83999997
0.36370248 -0.042360347 0.84060001
0.36762279 -0.043079283 0.84239995
0.33963904 -0.039512027 0.83999997
0.34120509 -0.039512027 0.83999997
0.35921475 -0.039512027 0.83999997
0.36156383 -0.039512027 0.83999997
0.33536386 -0.18556012 0.84899998
0.33417884 -0.18253759 0.84600002
0.33378384 -0.17995964 0.84500003
0.31319922 -0.16760272 0.84525013
0.30857778 -0.16263001 0.84500003
0.31094086 -0.16341773 0.84500003
0.26399061 -0.1580897 0.84600008
0.28967324 -0.15632832 0.84500003
0.29262727 -0.15706833 0.84899998
0.33338857 -0.15709032 0.847
0.33718461 -0.15733217 0.8471539
0.34216389 -0.15755051 0.84820002
0.26311684 -0.15160206 0.84500015
0.2672241 -0.1504205 0.84500003
0.28967324 -0.15475291 0.84500003
0.29203629 -0.15475291 0.84500003
0.32812822 -0.1526894 0.84666663
0.33220112 -0.15219946 0.84833336
0.33727232 -0.15211007 0.8478334
0.34168842 -0.15253693 0.84800005
0.26289183 -0.1468758 0.84500015
0.26761794 -0.1468758 0.84500015
0.2707687 -0.14608809 0.84500003
0.3369467 -0.14915395 0.84899998
0.34011236 -0.14915395 0.84899998
0.2636795 -0.14372496 0.84500003
0.2683138 -0.1432974 0.84620011
0.27234408 -0.14293726 0.84500009
0.28731018 -0.14372496 0.84500003
0.32773945 -0.066055477 0.84566671
0.33289728 -0.066429459 0.84625006
0.32825637 -0.063526407 0.84700006
0.33291084 -0.062051781 0.8484
0.33535922 -0.060227688 0.84500003
0.33558628 -0.056967583 0.84671432
0.33588588 -0.052433189 0.84633338
0.37946981 -0.050775167 0.84500003
0.38296106 -0.052431326 0.84633332
0.38510525 -0.052474488 0.847
0.33605036 -0.047893099 0.84625006
0.37395597 -0.046836615 0.84500003
0.37753367 -0.047493752 0.84671432
0.380817 -0.048582979 0.84799999
0.33457384 -0.044578746 0.847
0.33694249 -0.044578746 0.847
0.37282223 -0.044526115 0.84600002
0.37563062 -0.044578746 0.847
0.29798174 -0.1665552 0.85299999
0.30036715 -0.16735037 0.85299999
0.29331666 -0.16140488 0.85100001
0.29445457 -0.15841851 0.852
0.29648978 -0.15743834 0.85100001
0.32820824 -0.15166706 0.852
0.33456731 -0.15109192 0.85100001
0.32980764 -0.14950532 0.85100001
0.33237496 -0.14738335 0.85249996
0.33674628 -0.14709903 0.85200006
0.33217299 -0.14190501 0.85300004
0.33737838 -0.14287709 0.85190904
0.34012446 -0.14190499 0.85299999
0.33249107 -0.1380882 0.85299999
0.33714396 -0.13764857 0.85249996
0.34012446 -0.13633882 0.85299999
0.33853418 -0.13395332 0.85299999
0.34012446 -0.13395332 0.85299999
0.30728188 -0.081938684 0.85233337
0.31076884 -0.081281222 0.85100001
0.30728188 -0.079289377 0.85233337
0.31076884 -0.079694614 0.85100001
0.32980764 -0.060655341 0.85100001
0.33456731 -0.060655341 0.85100001
0.32980764 -0.059068728 0.85100001
0.3330532 -0.057548922 0.85200006
0.33366725 -0.052998539 0.85225004
0.38692397 -0.051135696 0.85100001
0.33456731 -0.048755787 0.85100001
0.33615386 -0.046375878 0.85100001
0.3835226 -0.048000056 0.85166669
0.38624299 -0.049665537 0.85299999
0.29469535 -0.16853978 0.85500002
0.29628935 -0.16774274 0.85500002
0.29782507 -0.16340503 0.85614288
0.30188736 -0.16309391 0.85674995
0.29828191 -0.15937391 0.85500002
0.30107144 -0.15897539 0.85500002
0.32372168 -0.1507351 0.85800004
0.32756284 -0.15029588 0.85549998
0.32332498 -0.14728296 0.85785717
0.32756284 -0.14710586 0.85549992
0.34092197 -0.14701991 0.85500002
0.3233425 -0.14257044 0.85700005
0.32816979 -0.14223772 0.85500002
0.33613992 -0.14223771 0.85500002
0.32324463 -0.13820316 0.85744447
0.32772839 -0.13736872 0.85536367
0.33255336 -0.13625997 0.85500002
0.33613992 -0.13665849 0.85500002
0.3239108 -0.13241522 0.85850006
0.32756284 -0.13275093 0.85549992
0.33295187 -0.13267334 0.85500002
0.33739081 -0.13271712 0.8552857
0.3413198 -0.13202961 0.85600001
0.32343999 -0.1268387 0.85866672
0.32757145 -0.12805396 0.8560909
0.33258942 -0.12819029 0.85699993
0.33728656 -0.12768918 0.8575455
0.34114718 -0.12785988 0.85785711
0.32300618 -0.12223202 0.85780001
0.32746714 -0.1227375 0.85669231
0.33249062 -0.12245768 0.85754544
0.33651444 -0.12283552 0.85866672
0.32329917 -0.11727881 0.85900009
0.32756975 -0.11781266 0.85900003
0.33330846 -0.11847995 0.85900003
0.33611101 -0.11807957 0.85900003
0.3240999 -0.11407577 0.85900003
0.33332032 -0.11154442 0.85800004
0.33215484 -0.10796534 0.85500002
0.30621672 -0.083113007 0.85900003
0.30585349 -0.078475147 0.85500002
0.33093369 -0.057487953 0.85699999
0.33173561 -0.053073991 0.85666674
0.33321023 -0.049820807 0.85566664
0.31858528 -0.14549525 0.86250001
0.32185698 -0.14758073 0.86199999
0.31863609 -0.14249533 0.86299998
0.32099777 -0.14147466 0.86250001
0.32185397 -0.13713266 0.86299998
0.32239029 -0.13230574 0.86299998
0.32147768 -0.12771709 0.86324996
0.31822965 -0.12231011 0.86311108
0.32121414 -0.12250974 0.86199999
0.33889192 -0.12090263 0.86199999
0.34161657 -0.12300096 0.86320001
0.31375936 -0.11726326 0.86359996
0.31754839 -0.11788449 0.86236364
0.32121414 -0.1176884 0.86199999
0.3292495 -0.11608128 0.86199999
0.33246362 -0.11688485 0.86199999
0.3382422 -0.11715402 0.8628
0.34128901 -0.1195723 0.86400002
0.31352144 -0.11326434 0.86349994
0.31782502 -0.11275797 0.86239994
0.32262033 -0.11266616 0.86199999
0.32784331 -0.11266617 0.86199999
0.33200449 -0.11309664 0.86199999
0.33808097 -0.11320888 0.86285716
0.34128901 -0.11393435 0.86400002
0.31321505 -0.10783614 0.86399996
0.31712702 -0.10749096 0.86400002
0.32195947 -0.10749096 0.86400002
0.32645515 -0.10799007 0.86272722
0.33166009 -0.10965282 0.86199999
0.3187378 -0.10346386 0.86400002
0.321154 -0.10346386 0.86400002
0.309073 -0.086549997 0.86400002
0.31068379 -0.086549997 0.86400002
0.31700191 -0.14267303 0.86733335
0.31903541 -0.13776828 0.86700004
0.32109016 -0.13680209 0.866
0.31881529 -0.13339928 0.86750001
0.32073945 -0.13256466 0.86680001
0.31903541 -0.12806965 0.86700004
0.31418622 -0.12160392 0.86699998
0.31661078 -0.12402856 0.86699998
0.31239003 -0.11749455 0.86650002
0.31117821 -0.11143619 0.86649996
0.31183374 -0.10708068 0.86720002
0.31332627 -0.10265114 0.86685717
0.31732768 -0.10197399 0.86675006
0.3225612 -0.10172693 0.86685717
0.32589614 -0.10224471 0.86733335
0.3137404 -0.099087946 0.86799997
0.31738147 -0.098683372 0.86799997
0.32150805 -0.098440632 0.86799991
0.32506821 -0.099087946 0.86799997
0.30978847 -0.089172199 0.866
0.31140298 -0.089172199 0.866
0.31356049 -0.14506583 0.87199998
0.31518623 -0.14506583 0.87199998
0.31616166 -0.14181432 0.87199992
0.31301859 -0.1358532 0.87199998
0.31646436 -0.1370416 0.87059993
0.31274763 -0.13205975 0.87199992
0.31632626 -0.13185781 0.87066662
0.31331953 -0.12708527 0.87133324
0.31673414 -0.12721518 0.87
0.31360638 -0.12257139 0.87099999
0.31238806 -0.1172914 0.87099999
0.31157705 -0.11323446 0.87099999
0.31076419 -0.10673795 0.87099999
0.31106091 -0.10242964 0.87085712
0.32852054 -0.10147897 0.87000006
0.31224424 -0.097761601 0.87059993
0.3173829 -0.096721016 0.87
0.32297873 -0.09647771 0.87
0.32764196 -0.09749148 0.86999995
0.33147848 -0.09668649 0.87066668
0.31233636 -0.093194485 0.87040007
0.31681192 -0.093041547 0.87199986
0.32243982 -0.093023449 0.87183315
0.32802466 -0.092993289 0.87155545
0.3329846 -0.093017414 0.87177765
0.31599909 -0.088164262 0.87199992
0.32900479 -0.089790024 0.87199998
0.33353359 -0.088396512 0.87199986
0.33632052 -0.088164262 0.87199998
0.31681192 -0.084912747 0.87199998
0.33388194 -0.084912747 0.87199998
0.33632052 -0.084912747 0.87199998
0.31441027 -0.14197475 0.87549996
0.31627056 -0.1423022 0.875
0.31258371 -0.13796541 0.87725008
0.30952254 -0.13311988 0.87900001
0.31162483 -0.13296843 0.87799996
0.30952254 -0.12902284 0.87900001
0.31174344 -0.12810558 0.87833333
0.31288916 -0.12257834 0.87728578
0.31316939 -0.11760584 0.87819993
0.30974531 -0.10641246 0.875
0.30974531 -0.10396543 0.875
0.31953317 -0.090098932 0.875
0.32279581 -0.09009894 0.875
0.32687408 -0.090098932 0.875
0.31953317 -0.088467583 0.875
0.32219765 -0.086967312 0.8763333
0.32726508 -0.087010585 0.87677771
0.33153358 -0.086730622 0.87599993
0.32317892 -0.083409309 0.87900001
0.32754898 -0.083955579 0.87900001
0.33290362 -0.083860062 0.87799996
0.33661389 -0.083764546 0.87699997
0.30469084 -0.13058083 0.884
0.30755958 -0.13160887 0.8814286
0.30469084 -0.12893271 0.884
0.30793035 -0.12738191 0.88324994
0.3107743 -0.12575758 0.88099998
0.30922312 -0.1227522 0.884
0.31104803 -0.12192499 0.88099998
0.30963513 -0.11904392 0.884
0.31205964 -0.11764461 0.88339996
0.31351179 -0.1137123 0.88099998
0.32172427 -0.080861524 0.88099998
0.32775179 -0.08175163 0.88174999
0.33312017 -0.081902117 0.88160002
0.32172427 -0.079218984 0.88099998
0.32776412 -0.079488739 0.884
0.33270833 -0.079488739 0.884
0.30372837 -0.13087627 0.88599998
0.2442625 -0.1267568 0.88800001
0.24771154 -0.12661883 0.88800001
0.25332859 -0.12738751 0.88800001
0.25640318 -0.12786053 0.88800001
0.30228302 -0.12736605 0.88600004
0.30593082 -0.1264713 0.88599998
0.23984773 -0.12123816 0.88800001
0.24315879 -0.12289374 0.88800001
0.24812545 -0.12289376 0.88800001
0.25296456 -0.12283266 0.88755554
0.2576572 -0.12234218 0.88742858
0.26269421 -0.12190039 0.88800001
0.29878512 -0.12256263 0.88800001
0.30260608 -0.12283182 0.8875556
0.30682555 -0.12241047 0.88600004
0.23901998 -0.11792699 0.88800001
0.24315879 -0.11792699 0.88800001
0.24812545 -0.11792699 0.88800001
0.25283748 -0.11780935 0.88711113
0.25786626 -0.11783845 0.88733333
0.26302534 -0.11792699 0.88800001
0.26633644 -0.11792699 0.88800001
0.30441397 -0.11875478 0.88800001
0.30764765 -0.11789706 0.88777781
0.31088623 -0.11656014 0.88599998
0.23866521 -0.11272371 0.88800001
0.24315879 -0.1129602 0.88800001
0.24806292 -0.11293236 0.88777781
0.25264788 -0.11276276 0.88644445
0.25786623 -0.11287541 0.88733333
0.26302531 -0.11296022 0.88800001
0.26633644 -0.11296022 0.88800001
0.30938062 -0.1146158 0.88800001
0.31312558 -0.11346904 0.88766664
0.31529108 -0.11187986 0.88599998
0.23488107 -0.10882124 0.88800001
0.23819219 -0.10799345 0.88800001
0.24315879 -0.10799344 0.88800001
0.24800041 -0.10793898 0.88755554
0.25258493 -0.10777681 0.88622224
0.25786623 -0.10791238 0.88733333
0.26302534 -0.10799345 0.88800001
0.26633644 -0.10964904 0.88800001
0.31434727 -0.10964904 0.88800001
0.23901995 -0.10385447 0.88800001
0.24315877 -0.10385447 0.88800001
0.24812545 -0.10302668 0.88800001
0.2530283 -0.10300048 0.88777775
0.25773972 -0.10346602 0.88771433
0.26269421 -0.10402002 0.88800001
0.24895321 -0.099715494 0.88800001
0.25309205 -0.098887704 0.88800001
0.25640318 -0.098887697 0.88800001
0.27461419 -0.093920931 0.88800001
0.27709752 -0.093920931 0.88800001
0.32391536 -0.077276982 0.88699996
0.3273463 -0.077306338 0.88733333
0.33193347 -0.077219523 0.88633341
0.3351129 -0.078016721 0.88599998
0.32428053 -0.071570478 0.88800001
0.32779858 -0.073019117 0.88800001
0.33208528 -0.073462568 0.88800001
0.32345277 -0.069914885 0.88800001
0.32759163 -0.069914885 0.88800001
0.33173048 -0.069914885 0.88800001
0.2428631 -0.13080035 0.89299995
0.24785769 -0.13191028 0.89299995
0.253126 -0.13225263 0.89249998
0.25765499 -0.13208929 0.89233333
0.26200905 -0.13107783 0.89300001
0.27449554 -0.13274273 0.89300001
0.27616042 -0.13274273 0.89300001
0.2385668 -0.12767693 0.89250004
0.24231915 -0.12801559 0.89099997
0.24771786 -0.12953836 0.89099997
0.25187069 -0.12953836 0.89099997
0.25893053 -0.12746188 0.89099997
0.26235154 -0.12750988 0.89133334
0.26763675 -0.12765324 0.89233333
0.27262259 -0.12670743 0.89300007
0.23453873 -0.1219208 0.89299995
0.23751205 -0.12284622 0.89166665
0.24065802 -0.12413952 0.89099997
0.25893053 -0.12497012 0.89099997
0.26225281 -0.12497012 0.89099997
0.26744387 -0.12351658 0.89099991
0.27242395 -0.12257061 0.89166665
0.27616042 -0.12025589 0.89300001
0.23453873 -0.11859099 0.89300001
0.23685052 -0.11725105 0.89185709
0.26889738 -0.11749479 0.89099997
0.27221966 -0.11749477 0.89099985
0.27746254 -0.11665295 0.89250004
0.29902142 -0.11841267 0.89166665
0.30212012 -0.11749477 0.89099985
0.30668825 -0.11541831 0.89099997
0.23453873 -0.11193133 0.89299995
0.23640464 -0.11287291 0.89166665
0.26889738 -0.11168065 0.89099997
0.27228796 -0.11170808 0.89122212
0.27768785 -0.11187521 0.89255553
0.28248689 -0.11093239 0.89300001
0.30242193 -0.11179081 0.89188886
0.30717975 -0.11170808 0.89122212
0.31187928 -0.11147299 0.89099991
0.23453873 -0.1069366 0.89299995
0.23640464 -0.10566824 0.89166665
0.26806682 -0.1066971 0.89099997
0.27224207 -0.10699455 0.89174998
0.27782527 -0.10776905 0.89300007
0.28281987 -0.1069366 0.89300007
0.28614965 -0.1069366 0.89300001
0.30446318 -0.10860151 0.89300001
0.3077929 -0.1069366 0.89300007
0.31216437 -0.10672329 0.89122212
0.23763964 -0.10184348 0.89214283
0.24240917 -0.10092038 0.89133328
0.24619515 -0.10060608 0.89099997
0.25893053 -0.10088295 0.89099997
0.26225284 -0.10088295 0.89099997
0.2672362 -0.10171354 0.89099991
0.27199826 -0.10360678 0.89300001
0.28198743 -0.10360678 0.89300001
0.3138974 -0.10305181 0.89299995
0.31540924 -0.10254414 0.89099997
0.24411175 -0.09736336 0.89300001
0.24760972 -0.096850224 0.89211112
0.25204867 -0.096255377 0.89099991
0.2575067 -0.096255377 0.89099991
0.26244986 -0.096801549 0.89166665
0.26690429 -0.096910328 0.89266676
0.27449554 -0.095282227 0.89300001
0.24819067 -0.09295135 0.89300001
0.25291833 -0.092108101 0.89250004
0.25720671 -0.092130341 0.89242858
0.26284149 -0.093617313 0.89299995
0.26617122 -0.093617313 0.89300001
0.27345821 -0.09188313 0.89233333
0.27637249 -0.091746457 0.89099997
0.32620662 -0.075134628 0.89099997
0.33700404 -0.075965218 0.89099997
0.32371494 -0.072642855 0.89099997
0.32537606 -0.073473446 0.89099997
0.33614877 -0.072974689 0.89166665
0.25426802 -0.14102003 0.898
0.2569941 -0.1417408 0.89499998
0.26191157 -0.1423181 0.89714283
0.24422288 -0.13599733 0.898
0.24790612 -0.13666701 0.89799994
0.25227433 -0.13717622 0.8961249
0.25675574 -0.13721162 0.89500004
0.26263902 -0.13767156 0.89799988
0.2673398 -0.13740548 0.89762497
0.27177313 -0.13554299 0.89499998
0.23417777 -0.13097464 0.898
0.2372607 -0.13166589 0.89700001
0.24184729 -0.1328748 0.89628565
0.2467442 -0.13387434 0.89499998
0.25174999 -0.13387434 0.89499998
0.26234835 -0.1341735 0.89700001
0.26696545 -0.13230544 0.89566654
0.27177313 -0.13220569 0.89500004
0.27709001 -0.13068293 0.89599997
0.23251726 -0.12731098 0.89724994
0.23589832 -0.12719978 0.89499998
0.27725565 -0.12743817 0.89499998
0.28105503 -0.12678903 0.898
0.2283181 -0.12260345 0.89799994
0.23198387 -0.1223304 0.89600003
0.27778009 -0.1225276 0.89499998
0.28105503 -0.12260345 0.898
0.22859712 -0.11869691 0.898
0.23207018 -0.11736192 0.89633328
0.23506401 -0.11635363 0.89499998
0.28122851 -0.11718795 0.89499998
0.30013925 -0.11551931 0.89499998
0.23241946 -0.11262632 0.89687502
0.282619 -0.11385066 0.89499998
0.30013925 -0.11385066 0.89499998
0.2329495 -0.10735574 0.89650005
0.27677891 -0.10550746 0.89499998
0.28011611 -0.10550746 0.89499998
0.30347645 -0.10884474 0.89499998
0.30514503 -0.1071761 0.89499998
0.23241946 -0.10217495 0.89687496
0.23548117 -0.10175301 0.89499998
0.27283657 -0.10142007 0.89574999
0.27677891 -0.10217017 0.89500004
0.28011611 -0.10217017 0.89499998
0.30917159 -0.10239663 0.89700001
0.3122634 -0.10217354 0.89687502
0.31599092 -0.10050154 0.89499998
0.23350807 -0.097824797 0.89799994
0.23708344 -0.09730839 0.89633328
0.24152982 -0.096955679 0.89499998
0.27227986 -0.097344585 0.89666665
0.27677891 -0.097998582 0.89499998
0.23789032 -0.0926615 0.89757144
0.24209791 -0.092293762 0.8963334
0.246188 -0.091602117 0.89499998
0.25091568 -0.0904897 0.89499998
0.26176155 -0.091324009 0.89499998
0.26726201 -0.091768242 0.89585716
0.27184701 -0.092467248 0.89799994
0.23920032 -0.089118779 0.898
0.2425487 -0.089118779 0.898
0.24798982 -0.08870022 0.898
0.25248668 -0.087542184 0.89687502
0.25713766 -0.087280393 0.89633328
0.26263902 -0.088281661 0.89799994
0.26726288 -0.087315954 0.89666665
0.27156797 -0.0885607 0.898
0.25426802 -0.084096082 0.898
0.2576164 -0.084096082 0.898
0.24783322 -0.14501156 0.90200001
0.24783322 -0.14332987 0.90200001
0.23845097 -0.13694781 0.90149999
0.24226791 -0.13833621 0.90111107
0.24685548 -0.13946941 0.90149999
0.25091708 -0.13981131 0.90100002
0.22832322 -0.13193752 0.89999998
0.23237522 -0.13326621 0.90074998
0.23734659 -0.13469703 0.90049994
0.22746825 -0.1278092 0.90036356
0.23134346 -0.12958837 0.89999998
0.22392233 -0.12270476 0.9012
0.22601503 -0.12336521 0.90049994
0.2833589 -0.12287652 0.89999992
0.28524795 -0.12296877 0.90066671
0.22344933 -0.1197862 0.90200001
0.22677429 -0.11761483 0.90111107
0.22851999 -0.11349341 0.90100002
0.2307597 -0.11125425 0.90100002
0.22849429 -0.10969604 0.90200001
0.2307597 -0.1078946 0.90100002
0.22966555 -0.10190198 0.89999998
0.2307597 -0.10453495 0.90100002
0.22966555 -0.098546058 0.89999998
0.23144555 -0.097078562 0.90040004
0.31762156 -0.098765053 0.90200001
0.32098484 -0.098765045 0.90200001
0.23355936 -0.093335479 0.90099996
0.23599178 -0.091621958 0.90066671
0.23851053 -0.087704219 0.90066665
0.24308889 -0.086800314 0.90000004
0.24778707 -0.086632527 0.89999998
0.25147849 -0.085961334 0.89999998
0.26322392 -0.085961334 0.89999992
0.24326771 -0.08434581 0.90066665
0.24755752 -0.083536178 0.90100002
0.2525031 -0.083225928 0.90066671
0.25819016 -0.082605414 0.89999992
0.26238495 -0.084283374 0.89999998
0.26633132 -0.084470674 0.90200001
0.35125446 -0.079425596 0.90200001
0.24371137 -0.14623815 0.90700001
0.2463986 -0.14650014 0.90600002
0.25118834 -0.14549387 0.90499997
0.22976089 -0.14074236 0.90700001
0.23279883 -0.14053546 0.90566665
0.23823872 -0.14123257 0.90579998
0.24242122 -0.14317426 0.9055714
0.24739207 -0.14254111 0.90499997
0.25287557 -0.14296293 0.90499991
0.22925423 -0.13705744 0.90499997
0.2326287 -0.13790107 0.90499991
0.23656559 -0.13818228 0.90499997
0.22419252 -0.12693372 0.90499997
0.22250527 -0.12018459 0.90499997
0.22271618 -0.11659911 0.90499985
0.22587974 -0.11512274 0.90499997
0.22283226 -0.11191115 0.90633321
0.22680657 -0.1117887 0.90533334
0.22329128 -0.10773996 0.90819997
0.22701621 -0.10705634 0.90655559
0.22740592 -0.10259492 0.90681815
0.22825536 -0.097555637 0.90639991
0.31355602 -0.097997047 0.90580004
0.31691867 -0.096667916 0.90600002
0.322142 -0.095676042 0.90620005
0.22916685 -0.093496948 0.90799999
0.23180939 -0.092098579 0.90674996
0.3143093 -0.093393981 0.90700001
0.31702843 -0.091836534 0.90833324
0.32168001 -0.091875754 0.90871423
0.23331042 -0.087809443 0.90671432
0.23709607 -0.087942295 0.9066
0.30426928 -0.085691124 0.90899998
0.30822358 -0.085973583 0.90899998
0.31621286 -0.087063059 0.90899998
0.32008645 -0.088515691 0.90899998
0.24359575 -0.083064333 0.90499997
0.24781388 -0.081377044 0.90499997
0.2528756 -0.081377044 0.90499997
0.25709367 -0.081377044 0.90499997
0.26358026 -0.0832479 0.90700001
0.30398685 -0.083431475 0.90899998
0.30822358 -0.083431475 0.90899998
0.22082573 -0.11091219 0.912
0.22150584 -0.10717144 0.912
0.22285011 -0.10256023 0.91333336
0.22592661 -0.10411084 0.912
0.2229211 -0.097177461 0.91275001
0.22635168 -0.096884415 0.912
0.22337618 -0.093908839 0.912
0.22771071 -0.092524968 0.91233331
0.23102747 -0.090508163 0.912
0.31503102 -0.090706639 0.91399997
0.32454342 -0.090508163 0.912
0.23153411 -0.089002579 0.91399997
0.31349152 -0.086257324 0.912
