# .PCD v0.7 - Point Cloud Data file format
VERSION 0.7
FIELDS x y z
SIZE 4 4 4
TYPE F F F
COUNT 1 1 1
WIDTH 837
HEIGHT 1
VIEWPOINT 0 0 0 1 0 0 0
POINTS 837
DATA ascii
0.074717321 0.17280525 0.45711261
0.072340831 0.17135267 0.45705777
0.084756583 0.17355613 0.45700222
0.081227086 0.17275789 0.45645729
0.07675942 0.17098272 0.45603767
0.072557203 0.16844696 0.4560239
0.068808965 0.16540195 0.45648474
0.06647753 0.16244519 0.45697907
0.087427333 0.17119066 0.45644674
0.083635956 0.16914399 0.45519328
0.079363056 0.16672549 0.45446107
0.075072393 0.16407274 0.4544501
0.070803046 0.16156711 0.45522311
0.067292288 0.15895033 0.45644426
0.092975691 0.16861255 0.45714188
0.090488851 0.16750912 0.4560039
0.086274341 0.16496874 0.4544574
0.082015447 0.16244942 0.45370096
0.077668078 0.15976408 0.45369148
0.073415756 0.15717997 0.45443907
0.069077514 0.15459631 0.45602515
0.06741412 0.15217701 0.45709494
0.094721675 0.16559766 0.45706394
0.093115941 0.16317008 0.45601499
0.088821545 0.16072813 0.45445785
0.084535807 0.15802923 0.45369691
0.080231108 0.15546523 0.45369565
0.075939298 0.15297985 0.45444015
0.071666531 0.15038586 0.45600474
0.068744883 0.15002419 0.45708185
0.094822854 0.15880913 0.45642146
0.091398731 0.15619612 0.45524487
0.087103352 0.15384178 0.45444417
0.082757123 0.15130736 0.45442674
0.078434773 0.14861378 0.45523721
0.074698366 0.14676528 0.45642501
0.095609307 0.15526816 0.45695531
0.093286835 0.15241197 0.45646983
0.08955539 0.14950484 0.45598841
0.085406117 0.14703698 0.45598221
0.080997616 0.14509597 0.45647201
0.077462122 0.14426176 0.45702571
0.090173773 0.14668377 0.45710483
0.08778926 0.14521754 0.45710996
0.079341419 0.18138029 0.46204647
0.076237656 0.18024445 0.46151111
0.072226554 0.17844407 0.46117416
0.068054095 0.17595711 0.46117646
0.064533994 0.17323531 0.46152878
0.086621076 0.18041123 0.46176061
0.082791194 0.17987624 0.46085992
0.078543328 0.17783579 0.45943928
0.074153207 0.17541644 0.4586508
0.069754057 0.17280728 0.45866707
0.065607861 0.1700975 0.45944944
0.061953314 0.16734821 0.46077645
0.059512168 0.16428714 0.46180481
0.089378618 0.17811105 0.46076366
0.085408531 0.17642337 0.45873371
0.081110299 0.17517923 0.45764768
0.077755868 0.17412241 0.45723605
0.069223627 0.16909751 0.45727432
0.066696241 0.16653158 0.45765236
0.063625254 0.163302 0.45872587
0.06024161 0.16068928 0.46078563
0.058555041 0.15709274 0.46213287
0.095210515 0.17575452 0.46161047
0.092238247 0.17447819 0.45947966
0.088921219 0.17316626 0.45765066
0.064872019 0.15879785 0.45763448
0.062170587 0.15626869 0.45946249
0.059608445 0.15431328 0.46161085
0.098174602 0.17193893 0.46121091
0.094892614 0.1702826 0.45864654
0.066058278 0.15516621 0.45721173
0.064646818 0.15195608 0.45863962
0.061560057 0.15017028 0.4611555
0.10049837 0.16774711 0.46108383
0.097529441 0.16586079 0.45862874
0.096134908 0.16287954 0.45724425
0.07039775 0.14770104 0.45721823
0.067278706 0.14762636 0.45863435
0.064160123 0.14595905 0.46109429
0.10241282 0.16356653 0.46148884
0.09998285 0.16153046 0.45944706
0.097283952 0.15918258 0.4576281
0.073357843 0.14468691 0.45763409
0.069942676 0.14341846 0.45946732
0.066881254 0.14225204 0.46156448
0.10202599 0.15737022 0.46085441
0.09847644 0.15463208 0.45867437
0.095408954 0.15121245 0.45766559
0.092738897 0.1485616 0.45726824
0.08474689 0.14380558 0.45725173
0.081203297 0.14268973 0.45765412
0.076773569 0.14155239 0.45866731
0.072808094 0.1397709 0.46075368
0.069303378 0.13961957 0.46215397
0.10262632 0.15349546 0.46179998
0.10025034 0.15060727 0.46077073
0.096583687 0.14772163 0.45948178
0.092367113 0.14512797 0.45862255
0.087962225 0.14254771 0.45858586
0.083648823 0.13999258 0.45947537
0.07940957 0.13808762 0.46078774
0.075603433 0.13743766 0.46177343
0.097748443 0.14473788 0.46155193
0.094054364 0.14194356 0.46113643
0.089941658 0.13952199 0.4611012
0.085919611 0.13761532 0.46152943
0.073912472 0.1845281 0.46644041
0.069754981 0.18247817 0.46589136
0.065711394 0.18007484 0.46590641
0.061973155 0.17736182 0.46640778
0.084160425 0.18514544 0.46618623
0.080174036 0.18433851 0.46510887
0.075811923 0.18281791 0.46403456
0.071027786 0.18064703 0.46345645
0.066651084 0.17793682 0.46338853
0.062615454 0.17486897 0.46396264
0.059177652 0.17162465 0.46499142
0.056458876 0.16857767 0.46625605
0.090549633 0.18360721 0.46622878
0.086994998 0.18314493 0.46454379
0.082965367 0.18225621 0.4629038
0.059425931 0.16818036 0.46305305
0.05692054 0.16496021 0.46452984
0.054849211 0.16200772 0.46622619
0.097086012 0.18088077 0.46715477
0.093701303 0.18088296 0.46498671
0.090374127 0.18047646 0.46296564
0.057748858 0.16068806 0.46291399
0.055739477 0.15815122 0.46503368
0.054275751 0.15492408 0.46708891
0.09940654 0.1781583 0.46641397
0.097087368 0.17749053 0.464077
0.0572767 0.15374327 0.46393523
0.055521768 0.15186936 0.46637774
0.10227351 0.17426281 0.46592519
0.1001689 0.17348287 0.46352565
0.059335981 0.14896575 0.4634597
0.057500601 0.14767349 0.46591029
0.10470685 0.17027514 0.46598297
0.10275669 0.16898298 0.46341801
0.061974041 0.14455302 0.46345374
0.059996996 0.14343718 0.46595803
0.10658992 0.16626722 0.46639079
0.10489784 0.16418472 0.46395773
0.065223791 0.14042601 0.46394944
0.06269747 0.13979551 0.46640173
0.10643018 0.15980256 0.46504584
0.10448764 0.15697083 0.46299186
0.071695246 0.13751653 0.46290216
0.068343371 0.13703597 0.46501827
0.064876385 0.13718212 0.46711984
0.10740615 0.15582652 0.46633625
0.1051937 0.15281311 0.46449828
0.10256317 0.1496321 0.46291399
0.079287745 0.13571981 0.46280241
0.075167328 0.13476154 0.46452096
0.071350947 0.13434538 0.46626586
0.10579959 0.1493219 0.46635321
0.10301981 0.14634305 0.4649674
0.09959206 0.14302686 0.46398163
0.095583417 0.13995522 0.46341649
0.09106648 0.13725905 0.46339878
0.086403213 0.135189 0.46391276
0.08190506 0.13358295 0.46504891
0.077957369 0.13270395 0.4662272
0.10268731 0.1427017 0.46697819
0.10031359 0.14057194 0.46646202
0.096517377 0.13789901 0.46585894
0.092459999 0.13542093 0.46589717
0.08829537 0.13330516 0.46650282
0.0853692 0.13224909 0.46698728
0.06659627 0.18531293 0.47193533
0.063919693 0.18373504 0.47208276
0.081498601 0.18888138 0.47164139
0.077951893 0.18784851 0.47018886
0.07318826 0.18655919 0.46962562
0.068599328 0.18474601 0.46951932
0.064233609 0.18209551 0.46947348
0.060332149 0.17888233 0.46971464
0.057125933 0.17536859 0.4701339
0.054519318 0.17262866 0.4715316
0.088263586 0.18762188 0.47096422
0.084555641 0.18743238 0.46959034
0.08024241 0.18677711 0.46817473
0.05691142 0.17277254 0.4681831
0.054356325 0.16930278 0.46953294
0.052373506 0.16606073 0.47099194
0.09489096 0.18531671 0.47131237
0.091478333 0.18568394 0.46957311
0.0877866 0.18574375 0.46782348
0.054302219 0.1657076 0.46781659
0.052527137 0.16224656 0.46966374
0.051121283 0.15927705 0.47168237
0.097507291 0.18287575 0.4701069
0.09472695 0.18314108 0.46807358
0.053291507 0.15835008 0.46809798
0.052202303 0.15585403 0.47013521
0.10102572 0.17967276 0.46968967
0.053431198 0.15109293 0.46966201
0.10617121 0.17564294 0.47202796
0.10427951 0.17583826 0.46956566
0.055351213 0.14634536 0.46948791
0.054479953 0.14482553 0.47197774
0.10760581 0.17318474 0.47196257
0.10692005 0.17144062 0.46956551
0.057914063 0.14200385 0.46956274
0.055931397 0.14236444 0.47198951
0.10875855 0.1667767 0.46968028
0.061117258 0.13826181 0.46965557
0.109962 0.16217802 0.47015512
0.10891803 0.15968898 0.46816906
0.067330182 0.13477269 0.46811086
0.064679354 0.13492858 0.47019023
0.11098111 0.15866862 0.47155204
0.10959913 0.15555751 0.469605
0.10785544 0.15229368 0.46775609
0.074490577 0.13220561 0.46768415
0.070738181 0.13220114 0.46953401
0.06738849 0.13237651 0.47153059
0.10982174 0.15187381 0.4710153
0.10783199 0.14855872 0.46956861
0.10523967 0.14518566 0.46809843
0.081958137 0.13120329 0.46803132
0.077631034 0.1304255 0.4696162
0.073912695 0.13024083 0.4709866
0.10768394 0.14526546 0.47157142
0.10511018 0.14255935 0.4701919
0.1018474 0.13901573 0.46971065
0.097984791 0.13572565 0.4695968
0.093566701 0.13314784 0.46948665
0.088957742 0.13132557 0.46960676
0.084206715 0.13002764 0.470191
0.08082433 0.12900087 0.47163364
0.097502641 0.13370074 0.47196028
0.095719919 0.13260984 0.47200325
0.074644007 0.19030261 0.47653529
0.071413286 0.1889863 0.47538972
0.067146987 0.18692827 0.47466472
0.062878117 0.18440844 0.47476166
0.059057683 0.18153486 0.47536474
0.056428749 0.17936236 0.47653508
0.082123093 0.1903508 0.47507083
0.077285238 0.18992375 0.47454694
0.073071264 0.18856457 0.47322866
0.069677696 0.18702325 0.47235519
0.058913589 0.18013611 0.4732016
0.055565834 0.17689654 0.47451335
0.052914269 0.17283826 0.47503084
0.092271216 0.18914013 0.47710672
0.088724829 0.18937063 0.4749746
0.084951013 0.18957131 0.47362489
0.052340977 0.17000699 0.47345877
0.050680101 0.16654202 0.47488412
0.094879501 0.18715936 0.47502506
0.092042685 0.18776064 0.47353312
0.050519396 0.16276895 0.47346854
0.049671888 0.15999736 0.47508451
0.10151269 0.18361071 0.47657788
0.099060379 0.184475 0.47457099
0.050095923 0.15509523 0.4745717
0.049698647 0.15252621 0.47658393
0.10368732 0.18095843 0.47537124
0.1021018 0.18129693 0.47320965
0.051677715 0.15052556 0.47300789
0.050989535 0.14937481 0.47542813
0.10657875 0.1771021 0.47476679
0.10424296 0.17853475 0.47240466
0.053050548 0.14508209 0.47467741
0.10914818 0.17281629 0.47476286
0.10910208 0.17047726 0.47233209
0.055698209 0.14073169 0.47459811
0.11108144 0.16869394 0.47533572
0.11065957 0.16706513 0.47319669
0.060085695 0.13659456 0.47316501
0.058399752 0.13704583 0.47529435
0.11246893 0.16534704 0.47657979
0.11203695 0.16269933 0.47445551
0.063113078 0.13344423 0.47449139
0.060666271 0.13426214 0.4765774
0.11248039 0.15783858 0.47503367
0.11167969 0.15514629 0.47352907
0.070140459 0.13012572 0.47350374
0.067250922 0.13070008 0.47510874
0.11149677 0.15131181 0.47492039
0.10987788 0.14795479 0.47349569
0.077159844 0.12832721 0.47359937
0.073466718 0.12852496 0.47492406
0.10929162 0.14507353 0.47507688
0.10665795 0.14101326 0.47457531
0.10327601 0.13780521 0.47314459
0.10045594 0.13559644 0.47239918
0.092335902 0.13084024 0.47226521
0.089088224 0.12930734 0.47323897
0.08487688 0.12796851 0.47450757
0.080012791 0.12753345 0.47505146
0.10574414 0.13854282 0.47649774
0.10314878 0.1363489 0.47543302
0.099201493 0.13350728 0.47456291
0.094945364 0.1309212 0.47464967
0.090786934 0.12888998 0.47542539
0.087585077 0.12757558 0.47657788
0.075454049 0.19139086 0.4800697
0.071106292 0.19021642 0.4796524
0.066338517 0.1882773 0.47966561
0.062069498 0.18570296 0.4796524
0.058130842 0.18242364 0.47968578
0.055138059 0.17917372 0.47992489
0.085610732 0.19162658 0.4802776
0.081760846 0.19176951 0.47973529
0.077912673 0.19146825 0.4788993
0.05388882 0.17703153 0.47883624
0.051769894 0.17371395 0.47971144
0.050004281 0.1701555 0.48046401
0.09241353 0.18994668 0.48032629
0.089011423 0.19076097 0.47951484
0.049291387 0.16690853 0.47943351
0.048463978 0.16356507 0.48003322
0.095826194 0.18825522 0.47961935
0.048267305 0.15983376 0.47970811
0.10131692 0.18493015 0.48007581
0.099255413 0.18610951 0.47892189
0.048521172 0.1557944 0.47902799
0.048641361 0.15323627 0.48007253
0.10465142 0.18179481 0.47966105
0.049801987 0.1489419 0.47971448
0.10787477 0.17794906 0.47971645
0.0516994 0.14428306 0.47968024
0.11042605 0.17370278 0.47972909
0.054290295 0.13997689 0.47963288
0.11237388 0.16889399 0.47968358
0.057528943 0.1360715 0.47966078
0.11350198 0.16466883 0.4799875
0.11361453 0.16213128 0.47892553
0.062872052 0.13182697 0.47881699
0.06075573 0.13304955 0.47999439
0.11389821 0.15819025 0.47967404
0.066268891 0.12964214 0.47971308
0.11371872 0.15435854 0.48007908
0.11287712 0.15099217 0.47942823
0.073131159 0.12712795 0.47949541
0.069715783 0.1279518 0.48030931
0.11206241 0.1476135 0.48018715
0.11036979 0.14412306 0.47966474
0.10832517 0.14082816 0.47901478
0.084220044 0.12638111 0.47903159
0.080310971 0.1261508 0.47956279
0.076450177 0.12627266 0.48024338
0.10707712 0.13871568 0.48005587
0.10396929 0.13539702 0.47966158
0.099991262 0.13208705 0.47969741
0.095790677 0.12959105 0.47962606
0.091063805 0.12765296 0.47969714
0.086884789 0.12652321 0.48002759
0.078623958 0.19256707 0.48609582
0.075820483 0.19212019 0.48473364
0.070653632 0.19087172 0.4846845
0.065979883 0.18894726 0.48470944
0.061723851 0.18639368 0.48471597
0.057792798 0.18314315 0.48466912
0.054277726 0.17917123 0.48460856
0.052566286 0.17691927 0.48588076
0.085904978 0.19219998 0.48463884
0.081505194 0.19252345 0.48468032
0.078473158 0.19229057 0.48274943
0.052938174 0.17689347 0.4822529
0.051231727 0.17433414 0.4847219
0.049445923 0.17032053 0.48482338
0.092438906 0.19059303 0.48490304
0.089211687 0.19153579 0.48451182
0.048455559 0.16696697 0.48459345
0.047810771 0.16374892 0.48477551
0.099010043 0.18750127 0.48604378
0.09647581 0.18878774 0.48465669
0.047502302 0.15940304 0.48465484
0.047460541 0.15645652 0.48591506
0.10138847 0.18570019 0.48466247
0.099112555 0.18713486 0.48285615
0.047766101 0.15627921 0.4825221
0.047925513 0.15362456 0.4845981
0.10524888 0.18227275 0.48467252
0.049144305 0.14853643 0.48466563
0.10854684 0.17828393 0.48466116
0.051030524 0.14392577 0.48469859
0.11111153 0.17401762 0.48474839
0.053642564 0.13954808 0.48476624
0.11300725 0.16939791 0.48469639
0.056874599 0.13564311 0.48475975
0.11424214 0.16431785 0.48468634
0.11443462 0.16159673 0.48277146
0.063097581 0.13072163 0.48282906
0.0608611 0.1321248 0.48465937
0.11469053 0.16142461 0.48559162
0.1146608 0.1584975 0.48461217
0.065726116 0.12907194 0.48465845
0.063093774 0.13042523 0.48584795
0.11435331 0.1540674 0.48485407
0.11368312 0.150791 0.48458439
0.072973624 0.12633386 0.48455754
0.069646522 0.12732103 0.48484856
0.1127349 0.14760108 0.48478216
0.11094661 0.14358661 0.48458827
0.083790779 0.12561026 0.48262331
0.080608711 0.12536867 0.48454612
0.076290332 0.12566167 0.48482534
0.1096064 0.14095894 0.48592928
0.10780625 0.13859831 0.48460394
0.10439526 0.13475698 0.48461348
0.10047498 0.13149896 0.4847728
0.096207261 0.12894759 0.48466262
0.091548398 0.12701327 0.4847469
0.086451761 0.12577525 0.48483464
0.08358337 0.12531655 0.48581767
0.078543924 0.19251832 0.48922023
0.07570985 0.19209898 0.48968479
0.070722938 0.19088891 0.48972547
0.065972827 0.18894191 0.48971587
0.06177742 0.18641815 0.48980656
0.057842348 0.18319811 0.48964092
0.054320309 0.17924061 0.48964173
0.052558489 0.17688946 0.48864907
0.085887276 0.19220583 0.48970461
0.081437528 0.19252327 0.48970553
0.078298591 0.19220315 0.49216947
0.053002156 0.17703354 0.49198079
0.051258091 0.17436853 0.48976558
0.04943417 0.17027707 0.48961729
0.092477731 0.19055739 0.48976421
0.08923921 0.19155221 0.48959413
0.048493836 0.16712119 0.48978567
0.047813375 0.16377205 0.48961395
0.099053882 0.18744449 0.48888656
0.096425779 0.18881783 0.48970065
0.047505129 0.15935668 0.48973083
0.047446661 0.15648058 0.48819014
0.1014405 0.18566872 0.48957759
0.099055514 0.18711206 0.49190891
0.04781789 0.15608937 0.49211192
0.047915213 0.15361491 0.48964426
0.10531653 0.18220152 0.48970518
0.049146108 0.14852786 0.48966187
0.1085245 0.17831926 0.48969075
0.051112734 0.14376566 0.48973751
0.11115263 0.17393285 0.48962566
0.053652044 0.13955235 0.48972526
0.11300556 0.16939968 0.48970708
0.056847136 0.13566554 0.48959464
0.1142325 0.16438092 0.48969284
0.11440148 0.16158949 0.49187031
0.063175082 0.13075615 0.49208596
0.06079261 0.13216904 0.48964792
0.11468311 0.16143841 0.48890001
0.1146639 0.15853822 0.48979422
0.065681756 0.12909794 0.48976362
0.063121021 0.13039739 0.488204
0.1143633 0.15416136 0.48957315
0.11367801 0.15074886 0.48974967
0.072910376 0.12635428 0.4898372
0.069777906 0.12727463 0.48955137
0.11272311 0.1475672 0.48960713
0.11089804 0.14346606 0.48966646
0.083708018 0.1256271 0.49192718
0.080631644 0.12536025 0.48976445
0.076264068 0.12566569 0.48959368
0.10957779 0.14091581 0.48848933
0.1078926 0.13868958 0.48962006
0.10443814 0.13479556 0.48971856
0.10045957 0.1315022 0.48977563
0.096054301 0.12886578 0.48970982
0.091487065 0.12700224 0.48973989
0.086426064 0.12578143 0.4897567
0.083476163 0.12532417 0.48862582
0.075363897 0.19136903 0.49435583
0.071075268 0.19020507 0.49472544
0.066396832 0.18831551 0.49468821
0.062055178 0.18569349 0.49473196
0.058173392 0.18246064 0.49470344
0.055180229 0.17926902 0.49436447
0.085642658 0.19161646 0.49414492
0.081787743 0.19172989 0.49480921
0.077836454 0.19144954 0.4955284
0.053891242 0.17705873 0.49550399
0.051766828 0.17370857 0.4946785
0.050034281 0.17014168 0.49409166
0.092393167 0.18994617 0.49406949
0.088971429 0.190777 0.49484083
0.049281757 0.16692874 0.49488848
0.048396241 0.16370232 0.49396092
0.095777407 0.18827473 0.4947716
0.048277222 0.15971671 0.49472657
0.10134077 0.18489064 0.494378
0.099184334 0.1861283 0.49555853
0.048564143 0.15570116 0.4954899
0.048645668 0.15330689 0.49438
0.10466087 0.18179987 0.49469417
0.04983516 0.14890133 0.49475455
0.10788613 0.17790176 0.49472618
0.051713802 0.14426288 0.49472302
0.11046107 0.17362423 0.49468368
0.054300331 0.13997518 0.49478212
0.11237665 0.16890022 0.49469465
0.05757964 0.13598473 0.49462962
0.11353287 0.16452935 0.49435565
0.11362801 0.16210125 0.4954446
0.063002862 0.13169236 0.49541831
0.060810063 0.13300186 0.49439776
0.11389409 0.15822832 0.49472535
0.066390969 0.12959348 0.49472144
0.11371368 0.15435804 0.49433398
0.11289566 0.1510545 0.49495491
0.073188305 0.12712447 0.49493766
0.069875695 0.12790821 0.49414843
0.11204967 0.1476222 0.49424592
0.11037451 0.14409325 0.49465302
0.10830324 0.14080365 0.49538273
0.084197611 0.12637672 0.49534762
0.080239393 0.12613814 0.49475986
0.076415062 0.12627704 0.49413049
0.10700861 0.13864198 0.49437407
0.10398205 0.1354325 0.49479929
0.10001111 0.13211283 0.49472538
0.095799506 0.12958066 0.49469373
0.091143638 0.12768471 0.49472037
0.086742267 0.12650478 0.49437562
0.074607238 0.190317 0.49778181
0.071414739 0.18896072 0.49905756
0.067187741 0.18696123 0.49969903
0.062972471 0.18443885 0.49969226
0.059162457 0.18160561 0.49908364
0.056434289 0.17938653 0.49780846
0.082152084 0.1903117 0.4994182
0.077401951 0.18994141 0.49983275
0.073120572 0.1885972 0.5011223
0.061426539 0.1819921 0.50206298
0.058815543 0.18002626 0.5012098
0.055557124 0.17689443 0.49986774
0.052900814 0.17277889 0.49939156
0.050901234 0.17014921 0.49730685
0.088747114 0.18934628 0.49945647
0.084836237 0.18950576 0.5009377
0.052247524 0.16993091 0.50079161
0.050710227 0.16649516 0.49959624
0.094926156 0.18714046 0.49934492
0.092015088 0.18768755 0.50103557
0.050445765 0.16273832 0.50076461
0.049676672 0.16000569 0.49932322
0.10159512 0.18346265 0.4979879
0.099010371 0.18449768 0.49983811
0.050073206 0.15514255 0.49977371
0.049777567 0.15236112 0.49792561
0.10378847 0.18084623 0.49902871
0.10209312 0.18127522 0.50121671
0.051527459 0.15078291 0.50121927
0.05107433 0.14922696 0.4990637
0.10651627 0.17714828 0.49968669
0.10415487 0.17854366 0.50210631
0.053050511 0.14506532 0.49969241
0.10913052 0.17278144 0.49969506
0.10918168 0.17020628 0.50211293
0.057813119 0.13947827 0.50198311
0.055604957 0.14081429 0.49971703
0.11119721 0.16849865 0.49891895
0.11067772 0.16707999 0.50115246
0.060012929 0.13660993 0.50112599
0.058477685 0.136978 0.49912217
0.1124959 0.16530327 0.49774858
0.11204457 0.1627679 0.49989387
0.063077085 0.13344972 0.49986008
0.060631536 0.13433106 0.49790931
0.11249123 0.15790772 0.49933502
0.11167078 0.15499255 0.50083351
0.070053518 0.13012423 0.5008015
0.067161135 0.13074727 0.49928313
0.11290914 0.15458003 0.49754575
0.11150478 0.15138121 0.49950686
0.10993481 0.14802222 0.50081706
0.077143081 0.12838101 0.50090879
0.07356444 0.12849711 0.49946156
0.11128037 0.14787954 0.49743679
0.10937066 0.14526783 0.49934509
0.10665298 0.14103407 0.49984089
0.10348531 0.13792741 0.50111604
0.092269205 0.13077559 0.50204915
0.089160733 0.1293233 0.50114417
0.08483085 0.12795253 0.49985543
0.080030695 0.12754336 0.49935949
0.10569356 0.13846856 0.49787211
0.10310786 0.13630874 0.49895564
0.099256545 0.13349412 0.49972412
0.094967127 0.1308893 0.49964291
0.09065339 0.12884542 0.49894658
0.087419726 0.12757024 0.49789676
0.066599675 0.18537286 0.50233442
0.063806072 0.18361911 0.50239581
0.081486799 0.18878797 0.50292546
0.077932067 0.18782398 0.50423652
0.073199488 0.18657289 0.50474012
0.068625443 0.18476455 0.50486064
0.064234719 0.1821385 0.50486296
0.06035034 0.17884727 0.50473082
0.057134517 0.17544878 0.50418472
0.054511309 0.17264645 0.50282681
0.088303976 0.18770546 0.5032528
0.084539376 0.18741423 0.50482672
0.080240503 0.18668599 0.50633848
0.0569323 0.17277539 0.50622874
0.054292969 0.16929708 0.50475627
0.052385233 0.16603428 0.50343108
0.094824702 0.18545021 0.50290811
0.091495112 0.18565226 0.50484824
0.08779306 0.18557355 0.50679553
0.054347321 0.16560397 0.50667048
0.052572757 0.16235504 0.50477731
0.051219963 0.15917699 0.50289583
0.097451717 0.18295039 0.504237
0.09497498 0.18303004 0.5062716
0.053305857 0.15802196 0.50628716
0.052222352 0.15578976 0.50427163
0.10101087 0.17964897 0.50474018
0.053415742 0.15112069 0.50472015
0.10609317 0.17576618 0.50234663
0.10430128 0.17583255 0.50479561
0.055224933 0.14644994 0.50478715
0.054380972 0.14490545 0.50231051
0.10755774 0.17336527 0.50234026
0.10684198 0.1715247 0.50486863
0.057936192 0.14212228 0.50495929
0.055857938 0.14248195 0.50239867
0.10875218 0.1668331 0.50468034
0.061158784 0.13821951 0.50473255
0.10997231 0.16214675 0.50422525
0.10890401 0.15964994 0.50624746
0.067196213 0.13483948 0.50625706
0.064745113 0.1348924 0.50420463
0.11093341 0.15874344 0.50292492
0.10960522 0.15559642 0.50477576
0.10784636 0.15216544 0.50659496
0.074308276 0.13233343 0.50681007
0.070660323 0.1321972 0.5047965
0.067283861 0.13246156 0.50290889
0.10979418 0.15183651 0.5034076
0.10780676 0.14852402 0.50483996
0.10528225 0.14517026 0.50621861
0.081893526 0.13109083 0.50619119
0.077617392 0.13048103 0.50485957
0.074026763 0.13020918 0.50339413
0.10767321 0.14531931 0.50287807
0.10516286 0.14260003 0.50415981
0.10182053 0.1389913 0.50468576
0.097999841 0.13570827 0.50476044
0.09356688 0.13310063 0.50482291
0.088929452 0.13131343 0.50477535
0.084293455 0.13003893 0.5041995
0.08068832 0.12908942 0.50291729
0.098286256 0.13420637 0.50236636
0.095757224 0.13257685 0.50230414
0.076915354 0.1857259 0.50729513
0.073671773 0.18441941 0.50799072
0.069703594 0.18250351 0.50844127
0.065608934 0.18001553 0.50846285
0.061993226 0.17732598 0.50803244
0.059449639 0.17538403 0.5072071
0.084287964 0.18517855 0.50813752
0.080231629 0.18429606 0.50933504
0.075791173 0.18287514 0.5102886
0.071128786 0.18069851 0.51092499
0.066686243 0.17799154 0.51097667
0.062534079 0.1748641 0.51035964
0.059184216 0.17166883 0.50938129
0.056436375 0.16858144 0.50809652
0.090639509 0.18357411 0.50815743
0.087172717 0.18314528 0.50979716
0.082876906 0.18227658 0.51146358
0.059631485 0.16824213 0.51149195
0.056877587 0.16486591 0.50983733
0.054784179 0.16210002 0.50806743
0.097365335 0.18042564 0.50749797
0.093745634 0.18081027 0.50944424
0.090289563 0.18046305 0.51146352
0.057726003 0.16081329 0.5114482
0.055755951 0.15806651 0.5093599
0.09951321 0.17800151 0.50802535
0.097049549 0.17742716 0.51038504
0.057272706 0.15358147 0.51040244
0.055555269 0.15158884 0.50795698
0.10221764 0.17439891 0.50842083
0.10017461 0.17331176 0.5109576
0.059401598 0.14890489 0.51096219
0.057506334 0.1475731 0.50842828
0.1046655 0.17024982 0.50845546
0.10281829 0.16892865 0.51093769
0.062023856 0.1444637 0.51092327
0.060047887 0.14350148 0.50852466
0.10668012 0.16604193 0.50795919
0.10495235 0.16426758 0.51035315
0.065121256 0.14045732 0.51039118
0.062673204 0.13980372 0.50797272
0.10783093 0.16302571 0.50736552
0.10631622 0.15982705 0.50947422
0.10441923 0.15690325 0.51145178
0.071717575 0.13741741 0.51140535
0.068422474 0.13702759 0.50940627
0.06500227 0.13709721 0.50727558
0.10741608 0.15578817 0.50802797
0.1052735 0.15280408 0.50980353
0.10256314 0.14961752 0.51146162
0.079271875 0.13558634 0.51145339
0.075009406 0.13483919 0.50991112
0.071569137 0.13422129 0.50807387
0.10577699 0.14928213 0.50803834
0.10303743 0.14627178 0.50935882
0.099604003 0.14294404 0.51033419
0.095493793 0.13984923 0.51093668
0.091093771 0.13716601 0.5108918
0.086322218 0.13509224 0.51039737
0.081981912 0.13359435 0.5093416
0.078032628 0.13263743 0.5080865
0.10304156 0.14291106 0.50719357
0.10012201 0.1404784 0.50802135
0.096446849 0.13772412 0.50841093
0.092416242 0.13540895 0.50850546
0.088485435 0.13348909 0.50804114
0.08534728 0.13214917 0.50727153
0.079339087 0.18145345 0.51227421
0.076269075 0.18038535 0.51276261
0.072154194 0.17841332 0.51321578
0.068077654 0.17595199 0.51322174
0.06439805 0.17317155 0.51280916
0.061858814 0.17090644 0.51221544
0.086475462 0.1805273 0.51255769
0.082825355 0.17983463 0.51355672
0.078429744 0.17786044 0.51492327
0.074253187 0.17543373 0.51575059
0.069766179 0.17272881 0.51576018
0.065553449 0.17016049 0.51488143
0.061900508 0.16728078 0.51359773
0.059530288 0.16431904 0.5125882
0.089399561 0.17815369 0.51358312
0.085427381 0.17628264 0.51573741
0.081017233 0.17508623 0.51678985
0.077388816 0.174196 0.51706934
0.069551133 0.16945405 0.51711714
0.066830225 0.16663702 0.5167625
0.063655913 0.16329296 0.51568192
0.060218077 0.16065958 0.51358199
0.058618583 0.15747082 0.51233542
0.095262639 0.17560047 0.51285368
0.092251971 0.17449492 0.51489031
0.088938877 0.17323527 0.51670295
0.064888164 0.15865502 0.51676762
0.062177591 0.15633987 0.5149343
0.059735045 0.1542282 0.51285619
0.098001078 0.17191984 0.51329672
0.09484119 0.17023069 0.51578844
0.065785423 0.15549767 0.51707798
0.064640447 0.15209718 0.51577491
0.061669208 0.14997804 0.51324928
0.10053513 0.16797391 0.51319748
0.097475976 0.16586575 0.51578653
0.096275032 0.16252972 0.51711506
0.067354225 0.14781459 0.51586515
0.064088479 0.14597948 0.51325601
0.10247376 0.16370645 0.5128178
0.100022 0.16156705 0.51491392
0.097377002 0.15905567 0.51671207
0.073421054 0.14460379 0.51672977
0.069883227 0.14354087 0.51496279
0.066937223 0.14223161 0.51283497
0.10359231 0.16061413 0.51228487
0.10198812 0.15726912 0.5135597
0.098431312 0.15469113 0.51575106
0.095348112 0.15108924 0.51671517
0.09272667 0.14865676 0.51715624
0.085203022 0.14394183 0.51714587
0.081223585 0.14269859 0.51674116
0.076864354 0.14162393 0.51577389
0.072698653 0.13972612 0.51355934
0.10264928 0.15357323 0.51258355
0.1002631 0.15055677 0.51358795
0.096634664 0.14771913 0.51487535
0.092418954 0.14515272 0.51575553
0.088068932 0.14252128 0.51575643
0.083648555 0.13998285 0.51490599
0.079348907 0.13806233 0.5135746
0.075605519 0.137348 0.51253891
0.097802706 0.14472482 0.51279223
0.094118796 0.14200804 0.51325983
0.090040639 0.13944611 0.51319188
0.085779525 0.13755488 0.51283437
0.082714565 0.1365115 0.5123598
0.074139304 0.17245862 0.51731741
0.072181091 0.17139295 0.51726323
0.084887594 0.17346989 0.51741123
0.081155032 0.17275144 0.51793098
0.076840758 0.17098531 0.51836306
0.072617449 0.16843833 0.51838064
0.068867438 0.1653593 0.5179376
0.06654235 0.1627931 0.51739901
0.087529331 0.17116055 0.5179261
0.083631687 0.1692176 0.51917392
0.079394959 0.16667889 0.51993161
0.07510078 0.16407876 0.51994145
0.070835575 0.16146933 0.51918554
0.067272216 0.15901469 0.51793104
0.093363553 0.16805589 0.51727182
0.09060476 0.16755527 0.518332
0.0862877 0.16497563 0.51992118
0.082047813 0.16240023 0.52068841
0.077636376 0.15983035 0.52068919
0.073380679 0.15722245 0.51994044
0.069076382 0.15471554 0.51837796
0.067197084 0.15259905 0.51727557
0.094535545 0.16602434 0.51731956
0.093143255 0.16324806 0.51834929
0.088815615 0.1607044 0.51993376
0.084500462 0.15807945 0.52069306
0.080209479 0.1554285 0.52068657
0.075888693 0.15285267 0.51991671
0.071632609 0.15030925 0.51834965
0.068856224 0.14989914 0.51731044
0.094864838 0.15886956 0.51794487
0.091440126 0.15641618 0.5191493
0.087093748 0.15366571 0.51991713
0.082733594 0.15120295 0.51993519
0.078452431 0.1485521 0.51912713
0.074623495 0.14673382 0.51793337
0.095705874 0.15528193 0.51738435
0.093350872 0.15253276 0.51791614
0.089612342 0.14944348 0.51836759
0.085369684 0.14696428 0.51838219
0.081027351 0.14508483 0.5179112
0.077314802 0.14439657 0.51740992
0.090175711 0.14670825 0.51728743
0.087665021 0.14519091 0.51728982
