# .PCD v0.7 - Point Cloud Data file format
VERSION 0.7
FIELDS x y z
SIZE 4 4 4
TYPE F F F
COUNT 1 1 1
WIDTH 1190
HEIGHT 1
VIEWPOINT 0 0 0 1 0 0 0
POINTS 1190
DATA ascii
0.035232726 0.1746165 0.49066386
0.041892938 0.16049682 0.52021134
0.028735364 0.178128 0.48354203
0.028399821 0.17758684 0.48458046
0.033262119 0.17474011 0.49074507
0.040033735 0.15998502 0.52145511
0.038897142 0.15663932 0.52822334
0.039087646 0.1562524 0.52937067
0.0248303 0.17610787 0.4885523
0.02507541 0.17453314 0.49140781
0.026294524 0.17263615 0.49624032
0.031481318 0.16145232 0.51935416
0.032512765 0.15858643 0.52490389
0.034558423 0.15756343 0.52697277
0.037967749 0.15634418 0.52925169
0.023258038 0.17591253 0.48901862
0.024173029 0.17412648 0.49228832
0.024436181 0.17257324 0.49616736
0.02987837 0.16126586 0.51988459
0.030975707 0.15905811 0.52367949
0.03168495 0.15784279 0.52672857
0.054636076 0.17127648 0.48583817
0.055457406 0.17029373 0.48875827
0.060389925 0.15930869 0.51133412
0.060782872 0.15795584 0.51362514
0.051419616 0.17326118 0.48605987
0.053128604 0.17145421 0.49017107
0.052342728 0.16889554 0.49258846
0.056103859 0.16065396 0.50896955
0.058051616 0.16071148 0.5117439
0.058374524 0.15868786 0.5161106
0.044309922 0.17290641 0.48399988
0.046450805 0.17371425 0.48595998
0.047250908 0.17126274 0.49164662
0.04878464 0.16869694 0.49295256
0.053458743 0.16026729 0.50946355
0.052595105 0.16080973 0.51298904
0.053854641 0.15812908 0.51836514
0.0519263 0.15552406 0.5195443
0.041536815 0.17356768 0.48434421
0.041681565 0.17405172 0.48819107
0.04292208 0.16975763 0.49232727
0.047966067 0.159648 0.51336128
0.049171835 0.15904613 0.51912391
0.049300179 0.15603185 0.52096391
0.035664529 0.17447506 0.48473921
0.0370664 0.17470975 0.48920771
0.037877128 0.16956308 0.49415159
0.042437941 0.15994062 0.51411885
0.044345003 0.15962924 0.52054733
0.044582766 0.15586111 0.52302426
0.029238548 0.17609216 0.48216829
0.029931741 0.17486508 0.48506454
0.030849196 0.17408423 0.49047315
0.033501334 0.16978824 0.4951728
0.038070954 0.16021234 0.51521808
0.03877135 0.15910332 0.52253437
0.039519429 0.15522708 0.52555346
0.039590817 0.15403876 0.52838504
0.02736678 0.17664012 0.4831129
0.025991891 0.17417108 0.48593289
0.027140968 0.17179334 0.49068475
0.027772207 0.1693832 0.49545059
0.032501522 0.15918463 0.51670307
0.033984311 0.15729535 0.52120543
0.035492849 0.15497459 0.52597141
0.03763108 0.15463571 0.52885389
0.022313889 0.17429778 0.48777711
0.023636047 0.17210363 0.49205753
0.023534527 0.17023575 0.49557942
0.028749458 0.15903136 0.51878798
0.030375818 0.15754908 0.52217466
0.030868808 0.15579143 0.52638745
0.054663677 0.16867897 0.48441118
0.055621468 0.1673478 0.48724905
0.060495757 0.15643996 0.50995004
0.060957186 0.15576981 0.51264364
0.051685691 0.16911258 0.4833512
0.055042487 0.16563922 0.48923403
0.052908853 0.16583763 0.49137643
0.056387298 0.15816444 0.50751388
0.05907467 0.15657012 0.50777781
0.058938578 0.15411784 0.51409632
0.044011466 0.17146866 0.48347265
0.046350311 0.16952395 0.48305285
0.046084978 0.16513067 0.49113843
0.048520166 0.16551258 0.49179009
0.052811064 0.15746953 0.50818485
0.050674435 0.15696236 0.50926852
0.053918999 0.15323991 0.51669437
0.051798005 0.15468313 0.51905376
0.040696569 0.16992646 0.48296413
0.041204154 0.16831778 0.4836694
0.042561192 0.16612548 0.49148116
0.047082942 0.15663889 0.51114446
0.049401078 0.15244293 0.51785284
0.048611764 0.1528199 0.51927894
0.035773069 0.17072858 0.4832294
0.036614183 0.16732509 0.48602492
0.037878439 0.16633065 0.49107102
0.043202549 0.15573423 0.51302445
0.043672033 0.15240745 0.51697612
0.044709351 0.15244643 0.52108109
0.031338099 0.17132294 0.48395592
0.031629913 0.16850582 0.48752922
0.032491453 0.16668989 0.49186832
0.037892722 0.15560541 0.51488656
0.038821239 0.15347487 0.51883316
0.040436517 0.15269482 0.52285957
0.027017698 0.17079036 0.48597169
0.028367994 0.16938049 0.48755562
0.028635357 0.16719095 0.4927865
0.033888645 0.15600988 0.51618719
0.035472017 0.15380163 0.52040017
0.035457574 0.15304275 0.52276266
0.054393664 0.16581719 0.48392642
0.054943282 0.16511527 0.48548102
0.050740711 0.16482449 0.48164019
0.053121459 0.16202959 0.48604885
0.051443756 0.16220896 0.48920685
0.055096686 0.15431932 0.50646657
0.057698503 0.15210986 0.50742805
0.057709757 0.15000595 0.51205832
0.046036862 0.16448899 0.48205212
0.045910109 0.16118962 0.48760426
0.048680466 0.16082337 0.48961091
0.05229051 0.15305874 0.50604945
0.050601859 0.15101223 0.50803047
0.053527359 0.1492842 0.51381922
0.042234018 0.16502634 0.48435986
0.043728016 0.16281405 0.48750064
0.048660919 0.15185666 0.51047701
0.049063794 0.15065917 0.5142324
0.050096478 0.15995999 0.48127547
0.051737513 0.15823115 0.48370036
0.056629751 0.14740351 0.50625485
0.056445681 0.14708887 0.50962329
0.047004823 0.15965377 0.48147148
0.047145169 0.15769961 0.48541313
0.048632987 0.15831886 0.48773509
0.052622784 0.15013736 0.50510836
0.051858075 0.14782399 0.50639468
0.053515192 0.145955 0.51018071
0.044374321 0.15665939 0.48284751
0.049905971 0.14525253 0.50761366
0.050043784 0.14416626 0.50876379
0.049312152 0.15528268 0.48007599
0.050636251 0.15391389 0.48154223
0.055807665 0.1429342 0.50460458
0.046533883 0.15475827 0.47898465
0.047875948 0.15249458 0.48341757
0.052455712 0.14290081 0.50337559
0.053333163 0.14089254 0.5079062
0.042728927 0.15422419 0.47977251
0.04327726 0.15290953 0.48275548
0.048037156 0.14167221 0.50523257
0.049192026 0.14055148 0.50861764
0.049942959 0.14975083 0.47983596
0.055012114 0.13937664 0.502711
0.046281293 0.15046464 0.4764396
0.048443373 0.14822051 0.48068425
0.046796538 0.14653473 0.4829005
0.050573606 0.13844165 0.49938822
0.053423818 0.13807586 0.50182319
0.053012695 0.13603987 0.50618303
0.041138675 0.1503586 0.47719347
0.041800216 0.14864957 0.48245367
0.043962557 0.14622612 0.48346904
0.047311742 0.1383785 0.50007087
0.046244081 0.138908 0.50336057
0.048282709 0.13573094 0.50777578
0.038414385 0.14815073 0.47792703
0.039064962 0.14692532 0.4808321
0.043998014 0.13605225 0.5035376
0.044896234 0.13486587 0.50671136
0.046105713 0.14628151 0.47388935
0.048904311 0.14421605 0.47810212
0.047283225 0.14244382 0.48148602
0.050720565 0.13514054 0.49710992
0.053626191 0.1338166 0.49985015
0.053010419 0.13140707 0.5044986
0.040685676 0.14658602 0.47360754
0.043413304 0.14212227 0.48285961
0.046597078 0.13529801 0.49743432
0.048266388 0.13055536 0.50703591
0.03650267 0.14514521 0.47594833
0.036653865 0.14350532 0.48016271
0.038575772 0.14100397 0.48263583
0.042330384 0.1340369 0.49877232
0.041554615 0.13288063 0.50277144
0.043351438 0.13061637 0.50627929
0.033762947 0.14226557 0.47740862
0.034160554 0.14176257 0.47837245
0.039292246 0.1316456 0.49921948
0.039509192 0.13039324 0.5025847
0.040248085 0.12917158 0.50498271
0.045699779 0.1416475 0.47231054
0.047700278 0.13966402 0.47619531
0.04661737 0.13825421 0.47960541
0.05022588 0.13085099 0.49537802
0.052396499 0.12930024 0.49799025
0.052291952 0.12733598 0.50220531
0.040672295 0.1424108 0.47105038
0.043149818 0.13713391 0.48095918
0.046287838 0.13059501 0.49480045
0.048524998 0.12560789 0.50498247
0.035831876 0.14171445 0.47235364
0.034837145 0.14088786 0.4796578
0.038520236 0.13695687 0.48164701
0.041669004 0.130244 0.49591163
0.04325806 0.12587765 0.50592208
0.031794295 0.1403316 0.47505563
0.03192199 0.13837315 0.47902042
0.034262698 0.13669552 0.48115787
0.037857335 0.12903206 0.4976452
0.036684796 0.12796307 0.50074756
0.038556263 0.12582971 0.50483608
0.028169131 0.13815622 0.47584671
0.028401501 0.13732697 0.47803053
0.033827305 0.12609167 0.50186849
0.03462651 0.12458971 0.50409985
0.044402972 0.13812362 0.47187662
0.045494534 0.13650158 0.47489232
0.045311749 0.13550381 0.47785991
0.050267383 0.12590672 0.49709287
0.050896112 0.12484102 0.50022835
0.040762279 0.1371599 0.47101066
0.042260662 0.13403116 0.47463703
0.042470917 0.13404585 0.47851411
0.046273641 0.12672894 0.49424648
0.047195058 0.12358178 0.49677119
0.047805957 0.12284522 0.50134766
0.03624462 0.13671651 0.47059304
0.038942374 0.13237721 0.47492445
0.038090907 0.13309589 0.479404
0.041580841 0.12571117 0.49442124
0.043609757 0.12188627 0.49686828
0.043501653 0.12128791 0.5026983
0.030794509 0.13672127 0.47177139
0.031433024 0.13432673 0.47942656
0.032972492 0.13226579 0.4792335
0.036409944 0.12448062 0.49592233
0.035863273 0.12593225 0.49783975
0.038358081 0.12112626 0.50418657
0.026597183 0.13540816 0.47384083
0.026557606 0.1338197 0.47803551
0.029285941 0.13165461 0.47940519
0.033119544 0.12369388 0.49665013
0.031502951 0.12371808 0.4998517
0.033484377 0.12114502 0.50359726
0.02441928 0.13243046 0.47605434
0.029930923 0.12113152 0.50104392
0.030302726 0.12059513 0.50208789
0.034941934 0.13170828 0.47072721
0.036240634 0.13038683 0.4739348
0.036308747 0.12860751 0.4768528
0.040158823 0.12056765 0.4931365
0.041227415 0.11968119 0.49632379
0.041282766 0.11796497 0.49952224
0.030590679 0.13194819 0.46984854
0.03429443 0.13063037 0.47355008
0.032765463 0.12828574 0.47793087
0.036395941 0.12084647 0.49350911
0.039588634 0.11919498 0.49716416
0.038202748 0.11671738 0.501571
0.02643401 0.13124384 0.47196147
0.025999367 0.12910441 0.47628501
0.029201893 0.12805009 0.4782151
0.03259591 0.12033984 0.49467891
0.030706171 0.11842349 0.49766615
0.033336774 0.11698775 0.50159258
0.024385575 0.13126419 0.47557223
0.029743191 0.11977352 0.49946669
0.030480921 0.11913188 0.50179058
0.055025544 0.12458955 0.46927956
0.056471199 0.12359773 0.47199729
0.057890695 0.12141487 0.47624177
0.058898747 0.11960926 0.48058087
0.058736078 0.11745814 0.48517963
0.058832336 0.11515976 0.48714986
0.051562168 0.1247067 0.46778136
0.057785824 0.11670153 0.4865981
0.056583133 0.1148797 0.49014172
0.055117711 0.11281852 0.49285793
0.048326768 0.12505245 0.46639922
0.054077677 0.11307202 0.49214774
0.053513933 0.11214975 0.49362636
0.039446082 0.12528342 0.46773702
0.040889785 0.12538777 0.47026208
0.041472137 0.12300126 0.47425845
0.044531066 0.11613335 0.4890269
0.046050869 0.11415705 0.49287605
0.045401461 0.1122998 0.49475169
0.035995562 0.12694009 0.46811566
0.038767852 0.12721498 0.47174343
0.038086224 0.12294014 0.47653937
0.040558286 0.11724715 0.48835358
0.043800365 0.11612816 0.49432269
0.04235011 0.1130303 0.4970319
0.0307559 0.12725055 0.46798
0.03290467 0.12319997 0.47702858
0.036108844 0.11666051 0.48979852
0.038004339 0.11211622 0.4990854
0.027988574 0.12687106 0.47013947
0.027835673 0.12493338 0.47330824
0.029306179 0.12309514 0.47601369
0.032690451 0.11558902 0.49212769
0.032639671 0.11433581 0.49564642
0.034458011 0.11293659 0.49886078
0.05510398 0.12153146 0.46642458
0.057279959 0.12034738 0.47004145
0.05891249 0.11809866 0.47443825
0.059298728 0.11629459 0.47881913
0.059992112 0.11377583 0.48339802
0.059474465 0.111838 0.48588371
0.049059726 0.12312606 0.46464157
0.051951341 0.122492 0.46636453
0.05340476 0.11968917 0.46955964
0.055457547 0.11666486 0.47471455
0.056322318 0.1148023 0.47890365
0.055429187 0.11332749 0.4841755
0.057095982 0.11183324 0.48877189
0.05526302 0.10962502 0.49154827
0.046143502 0.1236825 0.46474978
0.046382532 0.12132284 0.46771294
0.046554755 0.11855195 0.47135314
0.046573289 0.11612398 0.47354218
0.050004803 0.11174783 0.48519105
0.05132591 0.1112946 0.4893119
0.052603308 0.10939373 0.49330112
0.040597644 0.12262021 0.46485862
0.043196034 0.12284671 0.46812016
0.043609161 0.12026968 0.47364146
0.042727098 0.11731638 0.47562507
0.044626772 0.11368573 0.48325184
0.046404652 0.11411367 0.48614264
0.048470024 0.11128359 0.49164188
0.047124244 0.1087909 0.49458915
0.036395885 0.12240903 0.46477506
0.036878645 0.11813958 0.47583547
0.039479904 0.11779088 0.47614756
0.04127682 0.11361827 0.48435915
0.039056703 0.11326694 0.48561877
0.043118101 0.10763313 0.4955298
0.030963995 0.12247321 0.46685675
0.030209213 0.119809 0.46980748
0.03278359 0.11868477 0.47463608
0.035986722 0.11212522 0.48797962
0.035341188 0.10860488 0.49278143
0.037534527 0.10838065 0.49629363
0.02894127 0.12111224 0.47227949
0.02969235 0.12065119 0.47451189
0.033360217 0.11190899 0.49075744
0.033513907 0.11108072 0.49297917
0.034954611 0.11012587 0.49642891
0.055179022 0.1174656 0.46432203
0.058298785 0.11578012 0.46755949
0.060072195 0.11356565 0.47187322
0.060604602 0.11186955 0.47629979
0.060944069 0.10971551 0.48094657
0.059740003 0.10748391 0.48494336
0.050236609 0.11835511 0.4614138
0.052590884 0.11838371 0.46262786
0.051579975 0.11531937 0.46946791
0.05358351 0.1128096 0.47254822
0.054727241 0.11115748 0.47760135
0.053435843 0.10903811 0.48099518
0.057789326 0.10649304 0.48758301
0.055939924 0.10503271 0.48956004
0.045464963 0.11837992 0.46118081
0.049044926 0.11827944 0.46816948
0.048992012 0.11586092 0.47063726
0.047458816 0.1135032 0.47326684
0.048773229 0.11027379 0.48009598
0.051719919 0.11001235 0.48303008
0.052894458 0.10441348 0.49130461
0.040367648 0.11911425 0.46166581
0.04372447 0.11357248 0.47443053
0.044803619 0.11028811 0.48080403
0.047927003 0.10338646 0.49329978
0.035176832 0.11932575 0.46291834
0.037334472 0.1132749 0.47319385
0.037788473 0.11212897 0.47551411
0.038920254 0.10978051 0.48034513
0.039539754 0.10832702 0.48371235
0.042864047 0.1034316 0.49434364
0.031513229 0.11812486 0.46475545
0.031516261 0.11616948 0.46825898
0.033211708 0.11464737 0.47287995
0.034284461 0.11237635 0.47728968
0.03610605 0.11016074 0.48148176
0.035958704 0.10765722 0.48640329
0.036334161 0.10529542 0.4906874
0.038912509 0.10452652 0.49398243
0.061054666 0.10895573 0.47015944
0.061721347 0.10606876 0.47277954
0.055270962 0.11276542 0.46221021
0.058465585 0.11102237 0.46537492
0.0601211 0.10943203 0.46930659
0.06105214 0.10776567 0.47417518
0.061625712 0.10415669 0.47900918
0.060278159 0.10275558 0.48322451
0.049912799 0.11418545 0.45966551
0.052334219 0.11350557 0.46036378
0.051321153 0.11158583 0.4697955
0.051855326 0.10844028 0.47140205
0.052714843 0.10667947 0.47566599
0.058429357 0.10189214 0.48573706
0.056460291 0.10043582 0.48731992
0.045909349 0.11457666 0.45964831
0.048290405 0.10844757 0.4716652
0.049795941 0.10580374 0.47669533
0.052585848 0.099772841 0.48950037
0.04045805 0.11395851 0.46004114
0.043351006 0.10804205 0.47150204
0.045092072 0.10513572 0.47853464
0.043007184 0.10280682 0.47916117
0.047417071 0.099280208 0.49134371
0.036018096 0.11407315 0.46138418
0.034530252 0.11064558 0.46418837
0.038653474 0.10939747 0.47072369
0.038645729 0.10730588 0.47439176
0.038813248 0.10542691 0.47869244
0.041076846 0.1044064 0.48120093
0.040737398 0.099002838 0.48863181
0.042892203 0.099519178 0.49140891
0.033074722 0.11414704 0.46396413
0.033501446 0.11234381 0.46638125
0.03446003 0.10987264 0.47061643
0.03549774 0.10814881 0.47422716
0.036958463 0.10603294 0.47889927
0.036974121 0.10346922 0.48370123
0.03850875 0.10156488 0.48754063
0.039052457 0.10153805 0.49103689
0.060398303 0.10403125 0.46370441
0.06101609 0.10407682 0.46732941
0.06170404 0.10247067 0.47055182
0.062325735 0.099562548 0.47370261
0.055528708 0.10790424 0.46014947
0.058141612 0.10711484 0.4630563
0.060279496 0.10463177 0.46753272
0.06147721 0.10140913 0.47274756
0.061622813 0.1004082 0.47665191
0.060163271 0.098319858 0.48107138
0.049140263 0.10945244 0.45775974
0.051803391 0.10877076 0.45840323
0.058219276 0.096773192 0.48341686
0.055972755 0.096411228 0.48520052
0.045550957 0.10941178 0.4581019
0.04798121 0.10405003 0.4710865
0.048510056 0.10264865 0.47412127
0.052113872 0.095551014 0.48675397
0.040977679 0.1089312 0.45897716
0.038680479 0.10696369 0.4599041
0.043323401 0.10405214 0.47098148
0.044632677 0.10179909 0.47563115
0.04710906 0.094972834 0.48760903
0.037109308 0.10977925 0.4606694
0.036109515 0.10733435 0.46271676
0.035677511 0.10519094 0.46758068
0.037104905 0.10270809 0.4723537
0.037402213 0.10066693 0.47653452
0.038918227 0.097584382 0.4807916
0.041095562 0.096147254 0.48506063
0.04317528 0.095929086 0.4882403
0.034633219 0.10611141 0.46796483
0.035587579 0.1039416 0.47184035
0.037072256 0.10008727 0.47714224
0.037689775 0.099700987 0.48166975
0.038703624 0.098845303 0.48459363
0.059200201 0.10317691 0.45771742
0.060730468 0.10220896 0.46069318
0.062500939 0.10036766 0.46487129
0.0631992 0.098289222 0.46948361
0.063604996 0.095984876 0.47374943
0.063570306 0.094605312 0.47680187
0.056117807 0.10438265 0.45695525
0.058823362 0.10391521 0.4598397
0.061656132 0.099822894 0.47154102
0.062249962 0.097067401 0.47601762
0.061172877 0.093713492 0.47933814
0.049913436 0.10501644 0.45524532
0.051384073 0.10525773 0.45629781
0.057282723 0.09422034 0.48213941
0.05646269 0.09155187 0.48272121
0.04554268 0.10483725 0.45615059
0.051759131 0.091685846 0.48427013
0.042264253 0.10466759 0.45721084
0.040193845 0.10333668 0.45866877
0.045506757 0.091420472 0.48307064
0.048125014 0.091772377 0.48478055
0.03771187 0.10226943 0.46160078
0.036694169 0.10065784 0.46523014
0.036555171 0.099225894 0.46977541
0.037722006 0.096961305 0.47507238
0.039717074 0.093922511 0.47886848
0.042345021 0.092958041 0.48206908
0.035761211 0.096851438 0.47020808
0.036633562 0.095441192 0.4741413
0.037513845 0.093695179 0.47673339
0.0604343 0.098551661 0.45952463
0.061714053 0.095765576 0.4630166
0.062916629 0.093755119 0.46721089
0.063132331 0.092619643 0.47170153
0.055006236 0.099954158 0.45584142
0.057831589 0.097440943 0.45815763
0.059796657 0.094720438 0.46086878
0.061564062 0.091005355 0.46850702
0.061411656 0.09056896 0.47247005
0.05989562 0.089613102 0.47643811
0.059353471 0.089773178 0.48048392
0.050053891 0.10174929 0.45399171
0.051170949 0.099253088 0.45532331
0.056585852 0.087688453 0.47743294
0.05621988 0.088535286 0.48120558
0.045471586 0.10170712 0.45513776
0.046030827 0.098353744 0.45556775
0.051088326 0.086817637 0.47889128
0.052490056 0.088261604 0.48184112
0.042680588 0.10124132 0.45567533
0.041209374 0.09863162 0.45741972
0.040337496 0.095580272 0.46098369
0.043751292 0.088172726 0.47607452
0.046370815 0.087208182 0.47975448
0.048314396 0.088789761 0.48302704
0.037929192 0.098535791 0.45978329
0.037357606 0.096593425 0.46347651
0.038080867 0.094196789 0.46759471
0.039177764 0.091915019 0.4722335
0.04020917 0.090155721 0.47641724
0.042434886 0.088522121 0.47984737
0.035521977 0.095874697 0.46862611
0.036635429 0.093713 0.47330147
0.037639141 0.092276707 0.47641498
-0.012360632 0.088107713 0.47693539
-0.011520371 0.086758062 0.48042259
-0.015636772 0.088113204 0.47796205
-0.014705442 0.086751834 0.48119208
-0.018273167 0.087354183 0.47928518
-0.017952055 0.086723208 0.48100978
0.061427616 0.090697832 0.46205616
0.062030524 0.089930929 0.46442673
0.054190371 0.09587805 0.45568243
0.056551225 0.093116894 0.45712268
0.059344772 0.091673642 0.45992553
0.060937949 0.08798752 0.46669409
0.059846967 0.086867847 0.47011387
0.058368601 0.086141944 0.4735944
0.051032241 0.095048755 0.45539755
0.051962461 0.092041031 0.45549586
0.055850308 0.083958715 0.47245547
0.055472251 0.085470289 0.4748323
0.046504486 0.095284157 0.4563517
0.046309024 0.091828018 0.45752862
0.049858332 0.084438667 0.47317553
0.051113974 0.08559905 0.47601131
0.043171987 0.095491022 0.4577947
0.042276666 0.092171758 0.46025947
0.04132627 0.088167109 0.46430779
0.04220327 0.086136371 0.46841803
0.045329638 0.085894145 0.47315961
0.047014784 0.086448744 0.47665021
0.039678663 0.092679508 0.46296433
0.039868347 0.090495996 0.46559641
0.040878884 0.088341236 0.4694331
0.042070661 0.087860204 0.47333974
0.018589422 0.092057601 0.45591462
0.018998411 0.091476873 0.45667934
0.024982084 0.07883057 0.48283568
0.025167884 0.078570694 0.48390281
0.016232625 0.092232235 0.45635974
0.016125292 0.090878144 0.45914605
0.019050047 0.080640584 0.47965303
0.021498013 0.079775371 0.48221582
0.022680718 0.0786037 0.48467362
0.012694821 0.091405511 0.45761994
0.011930697 0.09035752 0.46085021
0.011924397 0.088905901 0.46371251
0.015582897 0.081247568 0.47967145
0.016818833 0.079994775 0.48239017
0.019004785 0.078424156 0.48463601
0.0080155171 0.089494921 0.46241349
0.007697247 0.088088304 0.46602201
0.0064820163 0.086471125 0.46854177
0.0088254586 0.082052454 0.47682202
0.010728553 0.081736974 0.47936127
0.012479149 0.080055848 0.48230398
0.0040699132 0.086985409 0.46826729
0.0034566857 0.08627069 0.47097138
0.004716184 0.083417073 0.4766539
0.0067787468 0.081864208 0.47895467
-0.0018844977 0.085953437 0.46981108
-0.00077249855 0.085652277 0.47274598
0.00046920031 0.083411165 0.4767217
0.00057348981 0.081500493 0.47901139
-0.0041790605 0.085528091 0.4703261
-0.00593701 0.085896343 0.47357067
-0.0051897354 0.083476834 0.47795239
-0.0023067929 0.081447266 0.47949678
-0.010818217 0.085802682 0.47556064
-0.0099949948 0.084066942 0.47883472
-0.01497867 0.087016284 0.47723687
-0.014397986 0.085649952 0.48033395
-0.018344074 0.086632423 0.47856861
-0.017845489 0.085863009 0.48068455
0.060994461 0.085979015 0.45980853
0.061576571 0.085173555 0.4619655
0.055656847 0.088207886 0.4558301
0.058784321 0.086972654 0.4582769
0.060071334 0.083714381 0.46452585
0.058613025 0.082788274 0.46777427
0.049515564 0.087831616 0.45274201
0.051968489 0.088500984 0.45448577
0.055598825 0.081208736 0.47031182
0.053745192 0.079046816 0.47136405
0.046040889 0.088131376 0.45324984
0.046317998 0.089184627 0.45634046
0.04984035 0.081739619 0.47166696
0.050450966 0.078816943 0.47261792
0.043494575 0.087687135 0.45442301
0.042441968 0.087153852 0.4580906
0.041142985 0.087054454 0.46190983
0.042772874 0.083708182 0.46913362
0.045178398 0.081174463 0.47057325
0.047717545 0.078887105 0.47255975
0.039403092 0.085068159 0.45879415
0.039537631 0.084925711 0.4629966
0.040626451 0.083048105 0.46738961
0.041781377 0.079909652 0.46959621
0.019752163 0.089875594 0.45318601
0.019556746 0.089169033 0.4565253
0.025230579 0.077307239 0.48096168
0.026754409 0.075336196 0.48346472
0.015246723 0.090519562 0.45355189
0.017714325 0.088018529 0.45899481
0.016256884 0.085863791 0.4615778
0.020023651 0.078426063 0.47714531
0.022683274 0.078167558 0.47967243
0.022664974 0.07521496 0.48528847
0.010892477 0.088866681 0.45552754
0.0096024014 0.089607581 0.45859581
0.012999654 0.085462414 0.46418893
0.015684567 0.079629555 0.47618598
0.015621584 0.077353746 0.48399618
0.017592724 0.074819639 0.48459041
0.0083540939 0.086921796 0.45673454
0.0066619888 0.08695963 0.45989007
0.0093141347 0.085514911 0.46618012
0.0076862164 0.08377704 0.46766746
0.0096565895 0.080192715 0.47505507
0.011812005 0.080953509 0.47674289
0.011960912 0.076326907 0.48251331
0.014637873 0.074302502 0.48354438
0.0044709779 0.085160747 0.46214122
0.0027060919 0.084723547 0.46570724
0.0040290803 0.082278028 0.47085649
0.0049043074 0.081079081 0.47362757
0.0056163408 0.07831566 0.47917247
0.0085730255 0.076702766 0.48079434
-0.0018552728 0.083683476 0.46776465
0.00015543774 0.080801502 0.47264105
-0.00021923333 0.080576107 0.47296348
0.00072113052 0.078466952 0.47880277
-0.0065611824 0.082972996 0.46855089
-0.0061225146 0.081847042 0.47284335
-0.0056401752 0.080309629 0.4755033
-0.0039949007 0.07795506 0.47929576
-0.011217721 0.082250133 0.46946049
-0.010882907 0.082264543 0.47369242
-0.010102343 0.080066249 0.47651318
-0.009112902 0.077573501 0.47994289
-0.014177516 0.08141429 0.47060531
-0.01589147 0.080768362 0.47392207
-0.015037298 0.079199992 0.47809446
-0.012454525 0.077231154 0.48022437
-0.020404555 0.080301009 0.47512677
-0.019621201 0.079237878 0.47877219
-0.024304762 0.079901896 0.4759025
-0.023563072 0.078869976 0.47963932
0.061041106 0.081483476 0.45750025
0.061559193 0.08041548 0.46011737
0.054220706 0.08384636 0.4498865
0.056106426 0.083578482 0.45358601
0.058425356 0.083056353 0.45600799
0.060091674 0.079851598 0.46274602
0.058795262 0.077776968 0.46568131
0.058340706 0.075169712 0.46862373
0.050935708 0.085036211 0.45022121
0.053315252 0.085959762 0.45301959
0.056977637 0.078578293 0.46843675
0.055590689 0.07547079 0.47022614
0.045703817 0.085553072 0.45119154
0.044020385 0.086350672 0.45410335
0.048241653 0.077836275 0.4715814
0.050591055 0.075332731 0.4719761
0.041715115 0.084039226 0.45223704
0.040663872 0.084541708 0.45506889
0.04422399 0.076933973 0.47090173
0.046256002 0.07467851 0.4716616
0.037912022 0.082314193 0.4564583
0.037344899 0.0810038 0.46123761
0.038470775 0.078841276 0.46603888
0.041051053 0.076206826 0.46962661
0.035431046 0.078412764 0.46068227
0.036499735 0.076861456 0.46479809
0.022601729 0.08528021 0.446298
0.023781668 0.085154012 0.448845
0.029643625 0.070450112 0.47769594
0.0309272 0.069862008 0.48057395
0.030970987 0.067871667 0.48250327
0.019485544 0.085813299 0.44685799
0.020961381 0.086689547 0.44995776
0.020516245 0.083652511 0.45462292
0.026196325 0.072440714 0.47764969
0.028328998 0.071052253 0.48236722
0.028085224 0.068030454 0.48390818
0.016518358 0.086299777 0.44843197
0.014739014 0.085568525 0.45156232
0.016188897 0.082804233 0.45628619
0.015654799 0.082934618 0.45965505
0.019402219 0.075024687 0.47594717
0.021184629 0.072381228 0.47776484
0.022056878 0.0705055 0.48312813
0.02493865 0.068738483 0.48449489
0.010645285 0.08575242 0.4537122
0.012043394 0.082250491 0.45642489
0.012273192 0.081644334 0.46143454
0.015040603 0.075042911 0.47514924
0.017121226 0.07150729 0.47875193
0.01750287 0.071511604 0.48341572
0.0083919019 0.085319355 0.45576674
0.007078547 0.083275311 0.45842907
0.0075554736 0.080869749 0.46231771
0.0067209825 0.080893949 0.46630609
0.0092897564 0.077080451 0.4741075
0.010724168 0.074412644 0.47582361
0.012071054 0.07283321 0.48022833
0.014668006 0.072690234 0.48296595
0.0032716058 0.081039883 0.46479982
0.0029596984 0.07894513 0.46759704
0.0043296739 0.076421931 0.4731794
0.0053523593 0.075483665 0.47625241
0.008426927 0.074747674 0.47940391
-0.0018162839 0.079187654 0.46565783
0.00019313022 0.0773215 0.47031561
0.00039961562 0.076771945 0.47154349
0.00071198493 0.073660411 0.476668
-0.0067389905 0.078857459 0.46666884
-0.0061642416 0.076665275 0.47142136
-0.0055947714 0.075988986 0.47283381
-0.0041026734 0.073438063 0.47774968
-0.010240663 0.07846716 0.46787879
-0.011496268 0.077665806 0.47000211
-0.010270461 0.075399265 0.47322658
-0.0088270381 0.0735761 0.47824556
-0.014498785 0.076721117 0.47172189
-0.013722666 0.074378431 0.47617221
-0.012297146 0.072006121 0.47747663
0.060743727 0.077336244 0.45483029
0.061700635 0.075666949 0.45828158
0.054299027 0.08062119 0.44853616
0.056715038 0.079554692 0.450445
0.059114262 0.079074994 0.45320454
0.061065543 0.075073652 0.46117786
0.059774593 0.072969675 0.46404889
0.058316715 0.071889102 0.46687245
0.051125713 0.080996089 0.4478353
0.057612099 0.073786527 0.46732783
0.055856321 0.071177274 0.46854615
0.04564536 0.081544451 0.44739023
0.051421333 0.069931321 0.47087687
0.040519193 0.079991817 0.44580749
0.040135819 0.081164464 0.44894901
0.045586605 0.070022911 0.47202373
0.046016384 0.067043364 0.47280839
0.036662951 0.078959167 0.45072022
0.03583065 0.079593137 0.4545233
0.039449159 0.072606057 0.46938887
0.041313913 0.069606714 0.47058678
0.027384153 0.08159209 0.4434647
0.028300963 0.081415951 0.44594109
0.033769876 0.077103414 0.45173329
0.032437868 0.077204734 0.45500532
0.033018999 0.075384609 0.46030313
0.033969983 0.07365872 0.46432868
0.035505127 0.070834778 0.468422
0.036046539 0.067544311 0.47206539
0.035420407 0.065914907 0.47745731
0.035312787 0.063997321 0.47938612
0.023782771 0.083525687 0.44390941
0.025887055 0.0830511 0.4477379
0.025389297 0.079257995 0.45085478
0.029938301 0.074653357 0.45668229
0.032060117 0.069687128 0.46670583
0.030803025 0.068000235 0.4745813
0.03338588 0.067642003 0.47918117
0.032515384 0.065140195 0.4820528
0.019923996 0.083577827 0.44488466
0.018216357 0.080651462 0.44737634
0.021495242 0.079194672 0.45366639
0.026467795 0.06910938 0.47430927
0.025955962 0.064733177 0.48031282
0.028764693 0.06529364 0.48319027
0.016881835 0.084088668 0.44733438
0.016251225 0.081113309 0.45034635
0.017119613 0.079395108 0.45355055
0.02235171 0.068242721 0.47642258
0.022841193 0.067309804 0.47994602
0.025173133 0.066887356 0.48348978
-0.0026254542 0.074956179 0.46418178
-0.00065460429 0.073020838 0.46651363
5.364418e-07 0.071073025 0.47058523
-0.0002878271 0.069975913 0.47468472
-0.0046924576 0.074208468 0.4649044
-0.0070532672 0.073052496 0.46723804
-0.0066646412 0.070809901 0.47142258
-0.0042775534 0.069541194 0.47485468
-0.011060987 0.075442202 0.46701938
-0.010743629 0.07223174 0.46822068
-0.0095373131 0.070556775 0.47280294
-0.0091784373 0.070077792 0.47633657
-0.015880696 0.072121449 0.46957567
-0.015275009 0.070412695 0.47429219
-0.013801657 0.069936588 0.47697651
-0.020495445 0.070899673 0.4704574
-0.019854426 0.06950441 0.47486752
-0.024924904 0.070050947 0.47110334
-0.024199352 0.068429604 0.47527483
0.06104935 0.073220178 0.45284501
0.062093727 0.071427405 0.45659715
0.053722601 0.076759115 0.44704795
0.056243964 0.075138457 0.4483968
0.058869749 0.073651485 0.4511641
0.060666367 0.069845311 0.45840099
0.059330404 0.068534851 0.46191195
0.057635047 0.067069955 0.46430233
0.048151616 0.077002846 0.44197404
0.050781917 0.076525971 0.44542155
0.057499602 0.065451674 0.46334031
0.055658747 0.066412337 0.46662796
0.054533817 0.063508771 0.46983767
0.044643696 0.077744231 0.44176191
0.046299845 0.078811437 0.44497621
0.051879272 0.066703096 0.47026095
0.051679712 0.063318647 0.4717136
0.039963953 0.07788641 0.44342953
0.046864279 0.063892476 0.47260803
0.031944543 0.077413209 0.43981701
0.034416594 0.07591553 0.44392163
0.035359967 0.075609691 0.44780582
0.040542915 0.064701878 0.47030467
0.041356459 0.061891038 0.47301847
0.040703177 0.059511505 0.47686097
0.028563036 0.079045855 0.44026718
0.030760609 0.078436598 0.44501865
0.031141205 0.074803047 0.44886494
0.031273074 0.075408012 0.4523623
0.031300165 0.070767082 0.46009052
0.031616461 0.069881767 0.46080065
0.035093192 0.067128316 0.46903908
0.036117844 0.064501025 0.47067457
0.037920944 0.0633514 0.47578368
0.037608705 0.060328595 0.47916716
0.024214601 0.079149596 0.44154292
0.02617348 0.074900322 0.44945684
0.028535169 0.072603457 0.45384613
0.02991125 0.070429988 0.4579505
0.030922972 0.068236031 0.46285847
0.031606112 0.066434503 0.46766156
0.031318676 0.064270847 0.47182304
0.033184174 0.060807653 0.48019099
0.021140685 0.078149006 0.44332454
0.020148203 0.076633975 0.44640496
0.020941738 0.074998789 0.45042711
0.026325539 0.063746586 0.4732869
0.027276527 0.062007658 0.47741801
0.029759889 0.060795505 0.4797084
0.017779067 0.077836797 0.44955242
0.018108185 0.076636881 0.45102859
0.016528517 0.067735642 0.46097493
0.016913645 0.066771202 0.46320263
0.023801591 0.064763494 0.47522154
0.024167942 0.064489186 0.47728577
0.012221534 0.069057941 0.46094537
0.013139281 0.066984661 0.46511889
0.0099478215 0.06845969 0.46194631
0.010934576 0.066703677 0.46521875
-0.0036794133 0.071666658 0.46333072
-0.0028559975 0.069183417 0.46453279
-0.0017921515 0.067177095 0.46962962
-0.001719851 0.066948332 0.47235021
-0.00471678 0.071070954 0.46345311
-0.0062936172 0.067984365 0.46558797
-0.0054831505 0.065965965 0.46957743
-0.0037423074 0.066624857 0.47279605
-0.0089609362 0.065755986 0.46655869
-0.0082279146 0.064815082 0.46983299
-0.021627568 0.068830833 0.46935257
-0.022112139 0.066929445 0.47459188
-0.025090635 0.067938015 0.47007477
-0.02443976 0.066768795 0.47446185
0.060935359 0.069524705 0.45222956
0.061474469 0.068425834 0.4543604
0.055461407 0.071025982 0.44732448
0.057655986 0.068521917 0.45049345
0.059016161 0.066017568 0.45518076
0.058231361 0.064932935 0.45987445
0.04811997 0.074983925 0.44155508
0.050121676 0.072391868 0.44299644
0.052808475 0.069998592 0.44565743
0.056211393 0.062669478 0.46120402
0.055168163 0.061813451 0.46514997
0.054618336 0.062223509 0.46857551
0.044233128 0.073834792 0.44058982
0.046114318 0.071528524 0.44144905
0.05195177 0.059471264 0.46688408
0.050919741 0.059965484 0.46974209
0.037425004 0.072627217 0.43743941
0.039916817 0.073838748 0.4389993
0.04746931 0.058040887 0.47219855
0.045440719 0.055820573 0.47315666
0.032997549 0.074563831 0.43758699
0.035295859 0.074684791 0.44109428
0.033776753 0.073079243 0.44726259
0.038694516 0.062612653 0.46904266
0.042792793 0.059449345 0.47318819
0.042114131 0.056294337 0.47580758
0.028537005 0.075489536 0.43714431
0.03130503 0.071888074 0.44776618
0.031054933 0.064365014 0.45829755
0.036009397 0.061692428 0.46881285
0.038207106 0.055766858 0.4785665
0.023956923 0.074750468 0.43873742
0.025938055 0.070638813 0.4489716
0.027538674 0.068171076 0.45178667
0.029115235 0.066193864 0.4565036
0.029923789 0.064192504 0.46070755
0.030361798 0.061646864 0.46525258
0.030837879 0.061020236 0.46906844
0.032999501 0.055692669 0.47885999
0.021092322 0.074064434 0.44111788
0.020823393 0.072440051 0.44389725
0.022219867 0.071167558 0.4474431
0.021176254 0.06377238 0.45763576
0.021918371 0.062573925 0.46052667
0.027817054 0.059571922 0.47189945
0.028112642 0.057412203 0.47521174
0.02964432 0.056373961 0.47785425
0.016159229 0.066163242 0.4556857
0.018725272 0.065477669 0.45809004
0.019374384 0.063341834 0.4627836
0.018037502 0.060564548 0.46480381
0.012588073 0.066799387 0.45604935
0.012596026 0.067790255 0.45840138
0.014642783 0.063765906 0.465671
0.014955673 0.060568839 0.46656871
0.0069561824 0.066210993 0.45566869
0.0076012872 0.065678805 0.46036425
0.008859925 0.063302077 0.46522626
0.010117736 0.060198285 0.46854389
0.0050212741 0.064229742 0.45690486
0.0051113181 0.063308775 0.46128458
0.0061799586 0.061448257 0.46461767
0.0074397922 0.059917621 0.46756816
-0.0071136877 0.064261839 0.46449775
-0.0062921047 0.062501118 0.46798396
-0.010864038 0.062839888 0.46481436
-0.010268211 0.061546274 0.46827379
-0.013875023 0.061344143 0.46552992
-0.013441116 0.060072005 0.46863621
0.055777498 0.064263918 0.45044246
0.056734059 0.062774383 0.45302004
0.049281251 0.06783738 0.44237113
0.051065475 0.065711923 0.44504458
0.053575993 0.063211568 0.44863421
0.055006497 0.06016162 0.45421132
0.054215252 0.059220213 0.4585976
0.05381785 0.058277685 0.46231073
0.042968031 0.069847256 0.44000348
0.045529466 0.067495041 0.44121084
0.048055343 0.064099766 0.44346836
0.051621292 0.056477919 0.45943162
0.050717812 0.056475352 0.46402615
0.049306165 0.056780696 0.46744952
0.037194051 0.07127814 0.43662387
0.039850637 0.069383562 0.43804353
0.042445868 0.066498742 0.43991259
0.048122838 0.054402053 0.4656094
0.047115065 0.054412052 0.46932176
0.045411628 0.053842138 0.47261733
0.033939712 0.071133465 0.43655154
0.03413327 0.067831658 0.43793616
0.04155026 0.05221162 0.47036237
0.042689234 0.0533139 0.47376844
0.028604485 0.070294142 0.43642393
0.031106958 0.066764951 0.43874875
0.028910577 0.064281389 0.44442078
0.030974496 0.063121304 0.44947568
0.030358067 0.062269762 0.4515053
0.031974882 0.05813859 0.46023819
0.033454224 0.057131182 0.46160206
0.033877619 0.053647425 0.46628767
0.038212307 0.051524673 0.47055778
0.037466325 0.051689856 0.47505102
0.024379853 0.069958791 0.43787464
0.02391229 0.066750571 0.44068056
0.02571182 0.065496564 0.44543082
0.028242724 0.065446898 0.4502188
0.027735468 0.062584132 0.45408118
0.028608814 0.059769176 0.45978639
0.031385094 0.058755483 0.46351451
0.030732322 0.054810654 0.46758485
0.031132635 0.05189836 0.47181901
0.033224516 0.05177711 0.47552878
0.021677775 0.071283326 0.44034916
0.02199528 0.068966381 0.44235328
0.022626424 0.067821354 0.44528335
0.020759631 0.061012961 0.45224395
0.022987757 0.06140494 0.45531771
0.024160903 0.059236005 0.4597384
0.022920692 0.056523897 0.46184373
0.028481051 0.055939503 0.47031295
0.029182371 0.054165855 0.47321963
0.017124765 0.062458605 0.4526554
0.019548191 0.062816381 0.4549174
0.020947887 0.05941163 0.46197844
0.019566478 0.056943636 0.46381596
0.011990294 0.063208029 0.45211351
0.015111685 0.056559861 0.46614257
0.0072575919 0.064631373 0.45204887
0.0072355866 0.063627049 0.45252401
0.010325652 0.056522727 0.46759745
0.0040335208 0.061685421 0.45532969
0.0026721843 0.059981156 0.45930725
0.0040194057 0.057714298 0.46371028
0.0067733638 0.05692783 0.46637505
-0.011827033 0.05975033 0.46404797
-0.011563301 0.058549237 0.46671227
-0.013987012 0.059080988 0.46415591
-0.013596974 0.05781576 0.4673996
0.049407996 0.06230941 0.44628918
0.052385855 0.060440034 0.44934401
0.053315137 0.058975592 0.45222104
0.052090377 0.057796616 0.45572504
0.044475012 0.064146526 0.44147012
0.046153873 0.061850164 0.44441047
0.047563024 0.058402333 0.44869775
0.048424475 0.056191958 0.45272884
0.049258325 0.055419318 0.45804504
0.0488986 0.054267015 0.46169302
0.038483955 0.065182887 0.43816411
0.040382922 0.063095018 0.44064048
0.041377299 0.059737191 0.44454294
0.042678647 0.056809016 0.44872373
0.043619487 0.054611389 0.45292351
0.04445314 0.053381264 0.45808694
0.04544336 0.052419145 0.46288803
0.045000155 0.051446013 0.46679747
0.035507649 0.064899199 0.43866432
0.035778347 0.061717473 0.44140691
0.036688775 0.058794793 0.44402871
0.039418623 0.054894283 0.45095417
0.040672954 0.054546766 0.45169193
0.040282413 0.051602993 0.4589071
0.040840711 0.051206399 0.46346322
0.042042471 0.051098514 0.46754301
0.027258513 0.067077361 0.43704262
0.029462105 0.065645628 0.43935716
0.03071647 0.062734462 0.44274908
0.031150512 0.059542634 0.44720873
0.03080594 0.056301069 0.44860697
0.03244812 0.052464806 0.45665017
0.034217123 0.053017639 0.46023807
0.035699405 0.051953141 0.46502185
0.036481515 0.051247299 0.46921664
0.035360835 0.050018009 0.47272134
0.025952552 0.067129254 0.43734559
0.025785046 0.065840386 0.43916154
0.02881128 0.058735166 0.44959569
0.027149115 0.057307687 0.45044523
0.028966371 0.053481065 0.45743543
0.030913871 0.054074679 0.45909217
0.033352084 0.050507035 0.47149327
0.021926234 0.057744946 0.45038033
0.023844508 0.058221933 0.45116818
0.025208225 0.054925062 0.45987758
0.024339965 0.052875534 0.46017852
0.016022008 0.058812078 0.44921285
0.019381715 0.052251119 0.46360084
0.012630071 0.058207542 0.44931492
0.016039472 0.051377948 0.46435204
0.0073377714 0.058031112 0.4512628
0.010257863 0.051782049 0.46468678
0.0029309504 0.057367217 0.45320883
0.0011732876 0.055732299 0.45666909
0.0027891397 0.052828982 0.46270385
0.0056589805 0.051599693 0.46472269
0.001015164 0.054280542 0.45831412
0.0015483759 0.053442102 0.4606607
0.040439643 0.055812456 0.44856015
0.041443512 0.053603806 0.4532465
0.036711834 0.057072848 0.44591737
0.037529971 0.055543583 0.44877431
0.038669795 0.05311162 0.45386815
0.0389557 0.051773816 0.45703512
0.033838481 0.056762733 0.44667593
0.032867692 0.054898426 0.450425
0.033770107 0.053146321 0.45409399
0.036214624 0.051705804 0.45724723
0.027696025 0.054171208 0.45112085
0.028282726 0.052246194 0.45488584
0.021413919 0.054169349 0.44870394
0.023843288 0.052389085 0.45019594
0.025252217 0.050042331 0.45567611
0.023615543 0.049366713 0.45875698
0.014051527 0.053768415 0.44515178
0.015852425 0.054655772 0.44718966
0.019386392 0.047910828 0.46174538
0.018286653 0.046353649 0.46356103
0.013596632 0.054428827 0.44561416
0.012381993 0.054485209 0.44778353
0.015747715 0.047492798 0.46277148
0.017673522 0.046411131 0.46381602
0.0071937144 0.053269815 0.44984305
0.010156628 0.047513157 0.46240562
0.003029298 0.052783053 0.45139873
0.0015156008 0.050907098 0.45506331
0.0027152821 0.048571169 0.45981196
0.0057404898 0.047311217 0.46240658
0.00099947304 0.052610468 0.45706546
0.0014869012 0.051478408 0.45919243
0.021486428 0.048659801 0.45020574
0.022296216 0.047014933 0.45384663
0.016311377 0.049544681 0.44716239
0.018232856 0.046666589 0.4491353
0.019496635 0.044390056 0.45423219
0.018901456 0.044444587 0.45799038
0.012098689 0.049096052 0.44693637
0.016733509 0.042207375 0.45543593
0.014886189 0.043148775 0.45951483
0.0075512379 0.048631664 0.44857711
0.0058583282 0.045938436 0.44967768
0.0073916279 0.042218491 0.45780358
0.0099860281 0.043261971 0.45978612
0.0041040294 0.049107976 0.45042804
0.0034694709 0.046570625 0.4526245
0.0044038296 0.044466913 0.45705426
0.0065860488 0.044303775 0.46006966
0.016313761 0.043995697 0.45010608
0.017133545 0.043170251 0.45222983
0.01241887 0.045889407 0.44717619
0.011865508 0.041830525 0.44948843
0.012521595 0.040207934 0.45244008
0.013636801 0.04089652 0.45663866
0.0094393864 0.045488216 0.44766498
0.0082249157 0.041335061 0.45019734
0.0085794739 0.039733261 0.45341212
0.010892056 0.040836692 0.45718032
0.0053382888 0.04344856 0.45232543
0.0060599335 0.042153761 0.45459563
0.027621349 0.034507275 0.44826218
0.028165147 0.033684403 0.44946527
0.025704134 0.034473956 0.4482159
0.010961093 0.03806293 0.44928586
0.01120564 0.037287571 0.45016858
0.0084889047 0.037605587 0.44895127
0.0088491105 0.036553338 0.45131662
0.0056873858 0.037639488 0.45056716
0.0059547499 0.037217602 0.45134032
0.032069139 0.032871373 0.44708502
0.032396927 0.032240845 0.44810373
0.028301442 0.032737307 0.44658867
0.029166058 0.032173619 0.4490976
0.022026813 0.032784682 0.44404557
0.023580916 0.032449268 0.44710669
0.025744699 0.03161215 0.44931403
0.018552318 0.031765848 0.44362906
0.019891333 0.03097927 0.44642904
0.012201469 0.032424934 0.44506446
0.012005497 0.031611431 0.44719958
0.0082457252 0.032992318 0.44618449
0.0088984706 0.032064326 0.44861707
0.021305474 0.030041059 0.44271594
0.022626016 0.029106868 0.44489717
0.017491594 0.029271673 0.44209832
0.018419422 0.028106555 0.44503671
0.012577675 0.028599057 0.44269714
0.013375338 0.028687868 0.44544214
0.009388268 0.029249188 0.44453445
0.010112464 0.029170955 0.44614053
