# .PCD v0.7 - Point Cloud Data file format
VERSION 0.7
FIELDS x y z
SIZE 4 4 4
TYPE F F F
COUNT 1 1 1
WIDTH 1294
HEIGHT 1
VIEWPOINT 0 0 0 1 0 0 0
POINTS 1294
DATA ascii
0.057943258 -0.0020597037 0.52735102
0.056839917 -0.001102377 0.52514637
0.055640142 0.0013628718 0.52096248
0.054415319 0.003846054 0.51681477
0.053223446 0.0064819539 0.51272041
0.052006412 0.009009894 0.50858796
0.050828341 0.011532817 0.50449723
0.049585614 0.014023343 0.5000934
0.048380002 0.016711298 0.49604452
0.047220055 0.019082483 0.49187312
0.046052858 0.021475744 0.48788607
0.045437433 0.023220552 0.4851889
0.057678618 0.0023513758 0.53006339
0.056677401 0.0036218576 0.527987
0.055491619 0.006018728 0.52379775
0.054320827 0.0083990777 0.51967078
0.053113732 0.011008708 0.51552117
0.051904097 0.013470633 0.51125902
0.050728053 0.015740776 0.50703174
0.049514763 0.018452613 0.50292087
0.048311163 0.021072665 0.49879542
0.047134794 0.023360787 0.49457869
0.045951813 0.025893159 0.49049491
0.045497634 0.027323287 0.48763043
0.057730947 0.0063445447 0.53243512
0.056622885 0.0077463449 0.53051221
0.055455666 0.010283817 0.52650917
0.054258086 0.01270286 0.52227712
0.053033177 0.015172407 0.51794529
0.051857054 0.017647078 0.51385605
0.050696652 0.020072268 0.50981039
0.049464844 0.02267286 0.50553346
0.048275575 0.025089817 0.50134075
0.04709623 0.027632037 0.49728146
0.045872841 0.030027298 0.49290681
0.045359883 0.031862259 0.4903799
0.057557497 0.010650801 0.53505868
0.056584101 0.011849202 0.53309989
0.055400193 0.014579644 0.52914566
0.054226946 0.016970389 0.52501374
0.052969292 0.01930421 0.52042949
0.051776692 0.022082122 0.51646483
0.05062237 0.024384471 0.51236582
0.049392086 0.026919456 0.50805199
0.048214588 0.029345607 0.50392312
0.047049258 0.031970948 0.49998885
0.045805808 0.034391813 0.49553317
0.045318481 0.036081698 0.49277359
0.057579339 0.015247298 0.53779978
0.056507461 0.016187793 0.53566164
0.055271197 0.018965669 0.53148293
0.05408657 0.021394121 0.52732074
0.052934848 0.023705145 0.52324033
0.051739376 0.026295226 0.5191344
0.050574817 0.028602688 0.5149886
0.049353115 0.031074008 0.51067376
0.048200864 0.033645026 0.50676674
0.046953335 0.03618791 0.5023737
0.045698874 0.038809501 0.49799997
0.045141831 0.040493965 0.49557906
0.057473328 0.019025981 0.54008871
0.056410279 0.020612838 0.53818119
0.055237014 0.023047771 0.53407907
0.054056466 0.025623156 0.53003639
0.05283235 0.028275503 0.52583224
0.051690709 0.030558551 0.52178222
0.050495751 0.032837778 0.51746839
0.049264219 0.035601772 0.51330346
0.04806149 0.038036577 0.50905687
0.046878539 0.040368557 0.50483757
0.045756891 0.042876206 0.50103766
0.045128614 0.044856023 0.49838614
0.057361998 0.023494288 0.54279137
0.056389872 0.02470053 0.54084873
0.055214897 0.027352037 0.53688484
0.054022729 0.029790452 0.53269243
0.052795704 0.032503933 0.5285154
0.051584866 0.034724884 0.52408427
0.050416633 0.037456706 0.52020782
0.049163111 0.039971918 0.51576662
0.047972456 0.042318381 0.51151937
0.046782061 0.044845372 0.50739563
0.045629755 0.047159359 0.50331438
0.045015078 0.049160257 0.50076443
0.057424072 0.028281543 0.54563493
0.056318283 0.029028153 0.54342782
0.055077974 0.03194499 0.53932333
0.053915408 0.034285367 0.53520966
0.052720077 0.036690138 0.53097892
0.051555883 0.039050311 0.52687067
0.050323274 0.041689187 0.52261573
0.049119528 0.044186085 0.51840615
0.047940068 0.046626784 0.51427758
0.046713855 0.049053855 0.50991064
0.045516312 0.05156827 0.50574332
0.045087673 0.05319123 0.5030368
0.057362866 0.032575019 0.54821873
0.056255799 0.033469573 0.54612851
0.055053089 0.035908148 0.54188454
0.053836152 0.038341403 0.53756726
0.052646048 0.040944271 0.53349626
0.051439922 0.043424353 0.52926368
0.050266847 0.045829423 0.52514225
0.049018439 0.048486598 0.52082229
0.047857307 0.050949015 0.51679826
0.046696 0.053291298 0.51269203
0.045495514 0.055799283 0.50850594
0.044922341 0.057508823 0.50582522
0.057110902 0.036779091 0.55080372
0.05620002 0.037626691 0.54866964
0.054986015 0.040253654 0.54449785
0.053816441 0.042656504 0.5403921
0.052593842 0.0452388 0.53614795
0.051426314 0.047456488 0.53192687
0.050223183 0.049995497 0.52774882
0.049003836 0.052643068 0.52356482
0.047833089 0.055124536 0.51950651
0.046638019 0.057589352 0.5153178
0.045392491 0.060188197 0.51097244
0.044927448 0.062000122 0.5083946
0.057320062 0.040926076 0.55322248
0.056119505 0.04192882 0.55118775
0.054923195 0.044634938 0.54715627
0.053758912 0.046983093 0.54303938
0.052558661 0.049446486 0.53882426
0.05129673 0.051932655 0.53432226
0.050162181 0.054233871 0.53031939
0.048946626 0.057126738 0.52631998
0.04775757 0.059428118 0.52205008
0.046565603 0.062038057 0.51797479
0.045374911 0.064367592 0.51371586
0.044872947 0.066391751 0.51110649
0.057353776 0.045252107 0.55579853
0.056111705 0.046101354 0.55397445
0.054864146 0.048879758 0.54974073
0.053719603 0.051221102 0.54571599
0.052498203 0.053807892 0.54148078
0.051259186 0.056165785 0.53700423
0.050060436 0.058841251 0.53294003
0.048864037 0.061457612 0.52884734
0.047696605 0.063644633 0.52460599
0.046507191 0.066183344 0.520495
0.045305979 0.068632342 0.51626539
0.044836063 0.070183836 0.51339823
0.057050187 0.049664691 0.55852294
0.056021743 0.05035726 0.5564149
0.05479382 0.053038061 0.55221134
0.053576276 0.055489473 0.54790336
0.052378014 0.058108591 0.54380339
0.05118835 0.060494408 0.53958768
0.050034799 0.062800579 0.53549498
0.04882735 0.065521196 0.53141874
0.04757233 0.068233587 0.52710372
0.046429351 0.070365958 0.52294523
0.04519337 0.073071413 0.51871884
0.044707023 0.074528776 0.5161466
0.057027876 0.053655252 0.56091452
0.055868004 0.054996736 0.55880249
0.054676101 0.057407968 0.55459297
0.053555053 0.059885338 0.55077553
0.052374519 0.062284231 0.54661334
0.051154636 0.064815022 0.54234761
0.049925968 0.067398258 0.53807437
0.048729457 0.069747195 0.53380007
0.047531866 0.072432108 0.52974796
0.046335787 0.074754655 0.52545792
0.04517122 0.077398874 0.52154016
0.044660859 0.078714758 0.51863909
0.057001363 0.057958763 0.56349432
0.055921115 0.058915488 0.56171596
0.054684713 0.061555535 0.5574432
0.053486258 0.064134963 0.55331546
0.052261643 0.066696875 0.54904765
0.051120199 0.068968967 0.5449912
0.049898054 0.071518295 0.54072696
0.04870956 0.074082077 0.53663743
0.047515064 0.076435357 0.53237599
0.046325922 0.079068027 0.52832991
0.045091625 0.081640959 0.52402204
0.044571009 0.083374232 0.52138466
0.056740042 0.062384881 0.56621474
0.055751082 0.063388847 0.56391114
0.054589007 0.066017509 0.55999506
0.053373493 0.06850192 0.55571932
0.052196503 0.071145445 0.55174017
0.051048085 0.073137276 0.54745984
0.049862869 0.075554967 0.54328746
0.048664428 0.078313507 0.53928107
0.047399249 0.080960006 0.53487164
0.046257932 0.083287068 0.53085309
0.045046773 0.086060159 0.5267942
0.044445757 0.087357201 0.5238409
0.05662562 0.066497408 0.56870562
0.055677235 0.067785278 0.56652576
0.054542687 0.070022471 0.5624795
0.053339139 0.072780006 0.55844736
0.052137088 0.075179487 0.55418015
0.050886218 0.077674545 0.54973835
0.049705904 0.080157079 0.54563391
0.048516273 0.082773626 0.54157454
0.047347762 0.085176252 0.53747386
0.046080999 0.087927245 0.53312743
0.045007963 0.090089284 0.5293318
0.044439904 0.09162166 0.52638316
0.056773201 0.070382446 0.57098544
0.055618331 0.072056115 0.56912851
0.054435533 0.074547969 0.56501824
0.053200401 0.077128857 0.56071168
0.0520382 0.079690777 0.55674976
0.050862972 0.082131788 0.55264217
0.049613528 0.084589712 0.54818219
0.048468921 0.087077528 0.54425633
0.047326192 0.089412987 0.54023653
0.046127677 0.09162771 0.53586155
0.044885889 0.094445392 0.53168273
0.044393256 0.095915616 0.52899849
0.05664558 0.075257339 0.57393575
0.055585995 0.076292656 0.57183832
0.054393727 0.078892626 0.56775481
0.053209648 0.081078373 0.56343096
0.052006211 0.083815135 0.5593853
0.050798945 0.086175904 0.55506635
0.049615867 0.088789873 0.55103731
0.048440658 0.091195799 0.54690605
0.047228239 0.093645468 0.54262197
0.046015132 0.096149325 0.53837126
0.04485051 0.098615699 0.53433275
0.044320665 0.10005825 0.53128761
0.056708343 0.079406492 0.57639778
0.055537328 0.080415614 0.57439119
0.054368615 0.083000332 0.57041281
0.053176165 0.085348763 0.56615806
0.051922668 0.087982208 0.56179708
0.050776482 0.090499103 0.55788314
0.049541332 0.093222477 0.55367303
0.048333663 0.095539585 0.54932249
0.047188796 0.097856566 0.54527974
0.045962457 0.10052354 0.54107457
0.044808149 0.10296462 0.5370695
0.044242643 0.10441225 0.53411621
0.056640144 0.083722591 0.57899708
0.055462133 0.084935457 0.57708275
0.054244667 0.08733096 0.57273728
0.053024255 0.090056039 0.56860048
0.05189646 0.092109725 0.56446314
0.050617199 0.094971076 0.56013018
0.049460065 0.097472794 0.55615234
0.048258249 0.099719815 0.55178303
0.047094367 0.10228594 0.54781574
0.045879155 0.10484142 0.54358965
0.044729002 0.10725647 0.53958732
0.044263281 0.10874503 0.53662431
0.056573588 0.088018507 0.58158386
0.055360116 0.089137487 0.5794276
0.054237597 0.091587931 0.57558477
0.053002354 0.094053432 0.57119954
0.051797938 0.096543312 0.56698191
0.050596192 0.099230044 0.56291068
0.04942536 0.10156976 0.55875599
0.048242707 0.10406312 0.55464745
0.046998583 0.10669548 0.55033165
0.045841277 0.10925608 0.54639286
0.044642165 0.11151762 0.54204667
0.044102632 0.11317533 0.53930074
0.056414634 0.092576727 0.58435386
0.055332765 0.093430474 0.58220005
0.054152612 0.09593796 0.57811332
0.053000078 0.098354205 0.57410014
0.051742077 0.10097457 0.56970823
0.05056186 0.10357786 0.56568605
0.049383879 0.10592967 0.56150454
0.048176914 0.10829177 0.55718791
0.046988532 0.1109408 0.55315661
0.045777462 0.11336251 0.54886025
0.044561774 0.11575101 0.54451877
0.044036888 0.11742487 0.54192233
0.056433622 0.096195392 0.58651131
0.05526492 0.097764492 0.58480185
0.054081041 0.10009661 0.58057809
0.052905511 0.10279621 0.57664406
0.051664513 0.10511971 0.57213449
0.050460353 0.10785022 0.56808102
0.04927744 0.11012194 0.56382114
0.048115872 0.11263631 0.55983013
0.046907581 0.1151377 0.5556013
0.045734368 0.11755495 0.55148751
0.044487312 0.12012367 0.54711425
0.043931581 0.12158372 0.54428202
0.056210034 0.10143364 0.58970636
0.055144623 0.10195689 0.58705062
0.053980906 0.10442525 0.58301789
0.052830335 0.10699537 0.57911855
0.051595684 0.10943398 0.57471806
0.050411012 0.11192355 0.57059699
0.049246889 0.11445917 0.56660783
0.048046246 0.11681693 0.56231928
0.046865687 0.1194985 0.55834842
0.045609526 0.12211094 0.5539602
0.044503003 0.12434506 0.55004925
0.043967888 0.12618291 0.547216
0.05618266 0.10525738 0.59199965
0.055097282 0.10624366 0.58972085
0.053961292 0.10873242 0.5858379
0.052732784 0.11113315 0.58144182
0.051506538 0.11374222 0.57719797
0.050298091 0.11635611 0.57304454
0.049132366 0.11888235 0.56904119
0.047949135 0.12119211 0.56480551
0.04676545 0.12382486 0.56078619
0.045569543 0.1261577 0.55650395
0.044335041 0.12877983 0.55222845
0.043823492 0.13006973 0.54944104
0.055942826 0.10943761 0.59456694
0.055036858 0.11060367 0.59237659
0.053873237 0.11309704 0.58836132
0.052659102 0.11554623 0.58406854
0.051467087 0.1181604 0.57999587
0.050266653 0.12047162 0.5756768
0.04907541 0.12317189 0.57166618
0.047855455 0.12557003 0.56731027
0.046699505 0.12792423 0.56323838
0.045518603 0.13057268 0.55924338
0.044309534 0.13285419 0.5548619
0.043824617 0.13500673 0.55237442
0.056080617 0.11377402 0.59711933
0.055029944 0.1149097 0.59525806
0.053785462 0.11728776 0.59076834
0.052611612 0.11988258 0.58677161
0.051407438 0.1224496 0.58260739
0.050232269 0.12471988 0.57838452
0.049025748 0.12724653 0.57418144
0.047837913 0.12977725 0.57007277
0.046599586 0.13248715 0.56583792
0.045420703 0.13494518 0.56172389
0.044273511 0.13735226 0.55773067
0.043676432 0.13867646 0.55467051
0.055997737 0.11773202 0.59950882
0.054910537 0.1192541 0.59761411
0.053673264 0.12181229 0.59328169
0.052533384 0.1241824 0.58929932
0.051371429 0.12653911 0.58519965
0.05016192 0.12911922 0.58101821
0.048995242 0.13133693 0.5768013
0.0477736 0.13397455 0.57259929
0.046576075 0.13660458 0.56851035
0.045359489 0.13915405 0.56427342
0.044206761 0.14145094 0.56017852
0.04365775 0.14289117 0.55727673
0.055722289 0.12176923 0.60200083
0.05479477 0.12354469 0.59995157
0.05369968 0.12571293 0.59605205
0.052523561 0.12817663 0.59195542
0.051340178 0.13068861 0.58785588
0.050110571 0.13328341 0.58358586
0.048899163 0.13576809 0.57933044
0.047724612 0.13830054 0.575288
0.046547651 0.14074337 0.57117313
0.045321245 0.14332852 0.56691223
0.044095218 0.14585215 0.56261158
0.043644764 0.14780036 0.5600698
0.055885132 0.12605202 0.604514
0.054804839 0.12788543 0.60288626
0.05361896 0.12995568 0.59852886
0.052387886 0.1327765 0.5944047
0.051192876 0.13514709 0.59015244
0.04998111 0.1376467 0.58590537
0.048820172 0.14022309 0.58195943
0.047655635 0.14242908 0.57774508
0.046442088 0.14500716 0.57354248
0.045247208 0.14749014 0.56936693
0.044098265 0.15007904 0.56535387
0.043471307 0.15151477 0.56248051
0.055331443 0.12961209 0.60444492
0.054095525 0.13251683 0.59958911
0.052882694 0.13484558 0.59569049
0.051632382 0.13737997 0.59144938
0.050633855 0.13990608 0.58722854
0.049360074 0.14221492 0.58336139
0.048052303 0.14479759 0.57903868
0.047041625 0.14718178 0.57505316
0.045830935 0.1499024 0.57050377
0.04460939 0.15203309 0.56693393
0.04340747 0.15367797 0.56417143
0.060893171 -0.0015981125 0.5267815
0.060111955 -0.0025115386 0.52348495
0.059156381 -4.902482e-06 0.51929742
0.05781747 0.0024669706 0.51515794
0.056688346 0.0049856952 0.51094592
0.055157278 0.0074431398 0.50682551
0.054066561 0.0099820392 0.502581
0.05313503 0.012582095 0.49823895
0.051861297 0.014864858 0.49441519
0.050837725 0.017445436 0.49010316
0.049472854 0.019970527 0.48587459
0.048570342 0.023724604 0.48428324
0.060662631 0.0025756867 0.52934229
0.048587501 0.028311184 0.48699811
0.060623616 0.0069906712 0.53199232
0.048411306 0.032332234 0.48945203
0.060558375 0.011259428 0.53456247
0.048507903 0.036616273 0.49198496
0.060389124 0.01558305 0.53719527
0.048241694 0.040845882 0.4945893
0.060635258 0.019729186 0.53960288
0.048306514 0.045364011 0.49727121
0.060487222 0.024344226 0.54240376
0.048073344 0.049578346 0.49985701
0.060337037 0.02829089 0.54480571
0.048218049 0.053617626 0.50222981
0.060023088 0.032623213 0.54748517
0.04821622 0.058090206 0.50490367
0.060054071 0.037027746 0.55010891
0.048208643 0.06222266 0.50737584
0.060340557 0.041378953 0.5526275
0.048106086 0.066586383 0.51001346
0.060147516 0.045429137 0.55510366
0.047987219 0.071111903 0.51275247
0.060077094 0.049841199 0.55776095
0.047856309 0.075134657 0.51519442
0.060057715 0.054090858 0.56030655
0.047654901 0.079339221 0.51776522
0.059861526 0.058398165 0.56293732
0.047514334 0.083622746 0.52036577
0.059679046 0.062703244 0.56556278
0.047490299 0.087826557 0.52288532
0.059754185 0.067003362 0.56811142
0.04747656 0.092266046 0.5255428
0.059681725 0.07132443 0.57071495
0.047462679 0.09654589 0.52810484
0.059785824 0.075550117 0.57321084
0.047318153 0.10094036 0.53077286
0.059578534 0.079751283 0.57578129
0.047307651 0.10527164 0.53336471
0.059404012 0.084116556 0.57844049
0.047448698 0.1095005 0.5358519
0.05962472 0.088393696 0.58093369
0.047160931 0.11371116 0.53845114
0.05934339 0.09269464 0.58358502
0.046961896 0.11804629 0.54109931
0.059431013 0.096885726 0.58606493
0.047127664 0.12235562 0.5436275
0.059295703 0.10100102 0.58856344
0.047026325 0.12664336 0.54621935
0.059216179 0.10553445 0.5912959
0.046778511 0.13095301 0.54886627
0.058951434 0.10979135 0.59391618
0.047033962 0.13526934 0.55137295
0.058783088 0.11406897 0.59652114
0.04680448 0.13942695 0.55392373
0.058947943 0.1182299 0.59896094
0.046740547 0.14370066 0.5564965
0.058740348 0.12241653 0.6015228
0.046840645 0.14809653 0.55909526
0.05891484 0.12690786 0.60415727
0.055685565 0.13183716 0.60075837
0.054233618 0.14134827 0.58492464
0.052655615 0.14387366 0.58069009
0.04854155 0.14789599 0.57390499
0.046915591 0.14951468 0.57117528
0.048748504 0.15270588 0.5659216
0.046413653 0.15248743 0.56184208
0.058001101 0.13025606 0.60344326
0.057235956 0.13285094 0.599114
0.055864926 0.13543507 0.59478712
0.054507278 0.13781747 0.59079581
0.053534806 0.14011273 0.58695894
0.05224815 0.14261723 0.58276653
0.05129471 0.14518896 0.57847106
0.049795572 0.14773184 0.57420951
0.048891507 0.15023202 0.57003403
0.047218826 0.15282035 0.56569266
0.046715274 0.15425214 0.56330186
0.065550894 -0.00093808654 0.52584118
0.064718187 -0.0017945115 0.52241099
0.063901469 0.00067843008 0.51828301
0.062690392 0.0031729764 0.51410908
0.061327778 0.0056429729 0.5099721
0.060310695 0.0082194684 0.50566697
0.059013207 0.010781385 0.50137901
0.057847701 0.013136751 0.49743742
0.056685597 0.015718762 0.49311948
0.055805914 0.018147934 0.48906255
0.054327738 0.020632114 0.48489907
0.053385653 0.024371561 0.48330626
0.065664068 0.0033646463 0.52838051
0.053146116 0.02870583 0.48592761
0.06526611 0.0075756395 0.53101152
0.053290248 0.032969005 0.4884344
0.065551572 0.01211202 0.5336411
0.053129241 0.037322819 0.49108285
0.065408126 0.016343078 0.53621113
0.052983243 0.041624527 0.49369586
0.065547049 0.020531949 0.53867507
0.053171981 0.045723163 0.49609154
0.065357544 0.024779247 0.54126799
0.052899048 0.050046299 0.49875376
0.065257132 0.029152796 0.54391086
0.053001661 0.054362368 0.50130409
0.064980119 0.033326875 0.54648513
0.053115994 0.058599725 0.50380403
0.064940587 0.037408818 0.54893625
0.052894212 0.06291233 0.50644523
0.065272883 0.041742206 0.55143112
0.052971859 0.067126587 0.50894189
0.064986944 0.04617361 0.55416173
0.052755609 0.071511075 0.51162452
0.064916387 0.050514784 0.5567767
0.052743532 0.075896449 0.51424915
0.064770512 0.054585841 0.55925184
0.052564517 0.080024533 0.5167678
0.064764626 0.05908126 0.56194043
0.052663922 0.084385909 0.51934618
0.064627334 0.063294619 0.56449813
0.052509092 0.08870922 0.52197462
0.064428732 0.067625299 0.56714356
0.052419379 0.092981815 0.52455407
0.064474516 0.071780123 0.56961375
0.05219749 0.097199008 0.52713829
0.064662866 0.076068893 0.57212323
0.052390069 0.10161839 0.5297246
0.064417072 0.080451481 0.57481319
0.052137058 0.10585417 0.53232884
0.064245686 0.084498599 0.57728124
0.051943257 0.1102911 0.53503639
0.064442478 0.08900667 0.5799194
0.052093402 0.11445872 0.53748435
0.064153746 0.093257181 0.58254266
0.052040108 0.11872704 0.54005086
0.064322524 0.09755782 0.58506483
0.052137539 0.12297109 0.54255962
0.064152494 0.1018559 0.58768255
0.051839899 0.12736288 0.54526991
0.064107589 0.10604161 0.59019721
0.051698681 0.13163364 0.54786307
0.064066321 0.11042485 0.59282893
0.051585268 0.13576961 0.55036765
0.063852295 0.1147772 0.59549171
0.051728539 0.14018595 0.55296624
0.06376528 0.11917333 0.59814423
0.051680807 0.14440864 0.55550385
0.063913636 0.12334172 0.60059321
0.051563196 0.14884117 0.55818695
0.063594222 0.12767279 0.60327345
0.05764785 0.1426512 0.58284724
0.056008518 0.14654467 0.57633901
0.055333681 0.14837784 0.57327724
0.051673017 0.15055877 0.56956196
0.050433643 0.15301475 0.56545138
0.051405054 0.15303573 0.56073934
0.06297572 0.13114569 0.60209191
0.061839081 0.1336526 0.59789938
0.060533375 0.13602215 0.59393066
0.0596576 0.13839445 0.58996832
0.058334768 0.14094821 0.58569324
0.05687819 0.14352804 0.58137143
0.055785067 0.14582276 0.57753235
0.054497156 0.14837286 0.57326424
0.053614389 0.15092462 0.56900364
0.052674282 0.15340298 0.56486344
0.051259004 0.15480566 0.56249785
0.070615821 -0.00030201604 0.52476984
0.069776624 -0.0010418752 0.52128941
0.068756424 0.0012819499 0.5174039
0.067471027 0.0038583823 0.5130921
0.06633462 0.0063133407 0.50898582
0.065259956 0.00877201 0.504875
0.064241484 0.011314701 0.50062603
0.062971696 0.013767179 0.49652046
0.06166276 0.016274318 0.49232316
0.060369231 0.018716341 0.48823437
0.059139162 0.021289408 0.48392957
0.058153838 0.025044041 0.48233959
0.070512578 0.0039868774 0.52736294
0.05790028 0.029409643 0.48498583
0.070184171 0.0082913768 0.53002983
0.058039062 0.033803545 0.48757231
0.07042592 0.01256442 0.53251457
0.05788403 0.037950922 0.49009565
0.070369244 0.016841717 0.53508741
0.057755038 0.042185746 0.4926638
0.070327938 0.021252614 0.53773564
0.057725675 0.046484068 0.49524134
0.070128098 0.025553115 0.54036337
0.057705849 0.050864782 0.49786541
0.070293546 0.029752621 0.54282606
0.057566598 0.05508953 0.50043046
0.06998609 0.034060679 0.54548907
0.057414263 0.059378091 0.50303745
0.069889702 0.038183384 0.5479809
0.05733595 0.063589066 0.50557679
0.070077375 0.042614635 0.55057567
0.057448197 0.067817204 0.50807184
0.069789827 0.046900176 0.55321962
0.05738917 0.072242104 0.51073354
0.069758713 0.051094551 0.55573553
0.057449497 0.076449238 0.51323086
0.069733262 0.055463478 0.55835414
0.057370182 0.080827862 0.51587075
0.069573127 0.059583016 0.5608623
0.05753389 0.084998541 0.51831669
0.069383293 0.064106919 0.56362069
0.057280336 0.089227714 0.52091712
0.069573954 0.068507396 0.5661962
0.057215262 0.093587123 0.52354145
0.069541208 0.072567157 0.56863219
0.057140209 0.097974434 0.52618527
0.06932956 0.076977856 0.57132912
0.057099141 0.10219822 0.52872163
0.069155395 0.081049338 0.5738126
0.057020526 0.10653407 0.53133571
0.069364816 0.085518405 0.57642376
0.056946114 0.11066402 0.53382552
0.069101959 0.089627206 0.57895494
0.056839749 0.11497169 0.53643072
0.069140419 0.09385033 0.58146811
0.057042696 0.11933307 0.53897941
0.068981245 0.098261833 0.58415049
0.056767084 0.12369367 0.54166478
0.069024757 0.10259264 0.58672661
0.056565486 0.1277788 0.54416424
0.06891048 0.10694889 0.5893631
0.056683667 0.13216773 0.54675364
0.06884671 0.1111534 0.59189445
0.056698628 0.13643244 0.54929841
0.06860096 0.1154397 0.59452683
0.05652906 0.14075419 0.55193013
0.068622008 0.11973383 0.59708738
0.056519341 0.1450161 0.55448031
0.068710104 0.12410477 0.5996747
0.056454189 0.14934725 0.55708772
0.068736687 0.12841061 0.60224068
0.061784677 0.14269361 0.58288193
0.061660476 0.14388931 0.5808928
0.058790773 0.15200368 0.56734294
0.058213759 0.15502983 0.56230217
0.056290608 0.15354833 0.55965137
0.067866072 0.13168365 0.60132265
0.066682793 0.13398421 0.59747159
0.065462567 0.13661107 0.59307778
0.064456075 0.13909814 0.58892143
0.063381813 0.14155301 0.58481687
0.061565287 0.14410302 0.58053541
0.060701255 0.14663187 0.57631338
0.059526194 0.14906099 0.57224905
0.058398526 0.15145499 0.56824428
0.057097785 0.15397942 0.56401849
0.056351293 0.1554791 0.56150872
0.075617261 0.00052284333 0.52382952
0.074721485 -0.00049702544 0.52051008
0.073487967 0.002054587 0.51624084
0.072348565 0.0045699533 0.51203412
0.071236029 0.0070985882 0.50780612
0.070041828 0.0094850957 0.50381207
0.068940416 0.012052938 0.4995192
0.067713521 0.014507433 0.4954114
0.066504933 0.017004494 0.49123338
0.065404534 0.019537572 0.48699829
0.06397444 0.021994058 0.48288202
0.06321238 0.025345996 0.48117292
0.075346716 0.0047716042 0.52644658
0.0630119 0.029989943 0.48386779
0.075142741 0.0088455845 0.52894008
0.06308046 0.034365304 0.48646331
0.075198166 0.013231241 0.53154552
0.062768139 0.038620573 0.48909622
0.075177416 0.017493598 0.5340991
0.062799193 0.04297905 0.49169242
0.075116329 0.021759886 0.53666657
0.062620625 0.047197059 0.49426472
0.075122796 0.026156275 0.53929251
0.062546045 0.051664561 0.49695635
0.075036809 0.030395236 0.54185081
0.062409706 0.055831358 0.49948594
0.074917957 0.034752551 0.54448926
0.062634088 0.06002469 0.50192803
0.074945077 0.038964037 0.54699868
0.062388621 0.064272754 0.50453746
0.074878871 0.043118123 0.54950058
0.062269129 0.068737067 0.50724006
0.074428484 0.047350142 0.55215919
0.062335797 0.073026873 0.509785
0.074435264 0.051837545 0.55483937
0.062328167 0.077205367 0.5122847
0.074624747 0.056054849 0.55730581
0.062313661 0.081477456 0.51484227
0.074492812 0.060429275 0.55995822
0.062107615 0.085778631 0.51747221
0.074325643 0.064693153 0.56255466
0.062065177 0.089984916 0.51999849
0.074040852 0.068988189 0.56520349
0.06198585 0.094263233 0.52257836
0.074266069 0.073363781 0.56775421
0.061955556 0.098479904 0.52510738
0.074163303 0.077632144 0.57033491
0.061999537 0.10292104 0.5277493
0.073806658 0.081979536 0.5730356
0.0618295 0.10711683 0.53030586
0.074059658 0.086191431 0.57548058
0.061862744 0.11153193 0.53293526
0.074041545 0.090356164 0.57797503
0.06170056 0.11581627 0.53554255
0.07392396 0.094716623 0.58061498
0.061643869 0.11986012 0.53797579
0.073841244 0.09906505 0.58323777
0.061827078 0.12429728 0.54057544
0.073833354 0.10323917 0.58573496
0.061712347 0.12855914 0.54315567
0.073575743 0.10742341 0.58830976
0.061487619 0.13296181 0.54585153
0.073636308 0.11180875 0.59091353
0.061731551 0.13708049 0.5482434
0.073666051 0.1161143 0.59347844
0.061393298 0.14128798 0.55085522
0.073462106 0.12035275 0.59607023
0.061137475 0.14557359 0.55349004
0.073511779 0.12464735 0.59862292
0.061333857 0.14974082 0.55592453
0.073420301 0.12892836 0.60120791
0.071259126 0.13848132 0.59011865
0.068111643 0.14060992 0.58650339
0.06864617 0.14224359 0.58380353
0.065208599 0.14960223 0.5714944
0.062314577 0.15210739 0.56726015
0.061475467 0.15506935 0.56231934
0.061208002 0.1543332 0.5587458
0.072730839 0.13244545 0.60018098
0.071582258 0.13481221 0.59622085
0.070257738 0.13721478 0.59219682
0.069358684 0.13971707 0.58801794
0.067975894 0.14217144 0.58390641
0.066563904 0.14473969 0.57960504
0.065627486 0.1472497 0.57541239
0.064484268 0.14976674 0.57120281
0.06316109 0.1522859 0.56698519
0.06214321 0.15463048 0.56306529
0.061293811 0.15619141 0.56045121
0.080295183 0.00114082 0.52285826
0.079609759 0.00018217764 0.51950616
0.07833223 0.0027707273 0.51517439
0.077266879 0.0051959138 0.51111943
0.076170579 0.0076766117 0.50697142
0.074908867 0.010087175 0.50293571
0.073441379 0.012663726 0.49861908
0.072559074 0.015211659 0.49436483
0.071405165 0.017622819 0.49033087
0.070397869 0.02025927 0.48592645
0.069261298 0.022645481 0.48193437
0.068000138 0.025680818 0.48005357
0.080104686 0.0053076288 0.52540338
0.067963108 0.030643573 0.48283952
0.079932094 0.0095453104 0.52798575
0.067976519 0.035108905 0.48550463
0.080042996 0.013926974 0.53057289
0.067715712 0.039249986 0.48805451
0.079963431 0.018198658 0.53314894
0.067787558 0.043714959 0.49070269
0.080068327 0.022603255 0.53575152
0.067756958 0.047982544 0.4932622
0.079952776 0.026766419 0.53827298
0.067537427 0.052205309 0.4958491
0.079683751 0.03087559 0.54080617
0.067294724 0.056400519 0.49842617
0.079750627 0.035428926 0.54350853
0.067618899 0.060652725 0.50087482
0.079727359 0.03971469 0.54607683
0.067129783 0.064963043 0.5035913
0.079727165 0.043941308 0.54860318
0.067106806 0.069285698 0.50618154
0.079308718 0.048149265 0.55123824
0.067165293 0.073497079 0.50868195
0.079327263 0.05249054 0.5538277
0.067112163 0.077901706 0.51132989
0.079283424 0.056739438 0.55637985
0.067092858 0.082141951 0.51386982
0.079071037 0.060898989 0.55892694
0.067100555 0.086384602 0.5164035
0.079170004 0.065334931 0.56154996
0.066962734 0.090714023 0.51903069
0.078976989 0.069508158 0.56409961
0.067116477 0.095079735 0.52159607
0.078980811 0.073977195 0.56676972
0.066868059 0.099370465 0.52423185
0.078766257 0.078213073 0.569363
0.066744164 0.103605 0.52679837
0.078915268 0.082571283 0.57192522
0.066713497 0.10794821 0.52940309
0.078888208 0.086737588 0.57442319
0.066689417 0.11226784 0.5319919
0.078884788 0.091010757 0.57697833
0.066583395 0.11654898 0.53458112
0.078664966 0.09504173 0.57945061
0.066477373 0.12073427 0.53711307
0.078735597 0.099664904 0.58219367
0.066575639 0.12505658 0.53966838
0.07866776 0.10393036 0.58476263
0.066331908 0.12942791 0.54235101
0.078650266 0.10825928 0.58735502
0.066387296 0.13352522 0.54478413
0.078573741 0.11252165 0.58992463
0.06641899 0.13795471 0.54742259
0.078349985 0.11682589 0.59256142
0.066344872 0.14216533 0.54996055
0.078339353 0.12105074 0.59508967
0.065943815 0.14644787 0.55263519
0.078307167 0.12527056 0.59762114
0.065998562 0.15058175 0.55509031
0.078224033 0.12952331 0.60018682
0.079056405 0.13468814 0.59661674
0.074584894 0.1377883 0.59135413
0.071527556 0.1402438 0.5871982
0.069602698 0.15309027 0.56581283
0.067878395 0.15479341 0.5629403
0.066033326 0.1549806 0.55770957
0.077664047 0.13299799 0.59938854
0.076478213 0.13556859 0.59508896
0.075466141 0.13803658 0.59096414
0.074265331 0.14051914 0.58681041
0.072794899 0.14288181 0.58284897
0.071621992 0.14536938 0.57868755
0.070511892 0.14791113 0.57443786
0.06926012 0.15042874 0.57022464
0.067813039 0.15298536 0.56594169
0.066841856 0.15548989 0.56175727
0.065910213 0.15680805 0.55954421
0.084893942 0.0015723285 0.52179825
0.084477283 0.00092210423 0.51840085
0.083366483 0.003424075 0.51421714
0.081854038 0.0058778608 0.51010329
0.080839336 0.0084091844 0.50587326
0.07972119 0.010911775 0.50168836
0.078393601 0.013307264 0.49767599
0.077323332 0.015855104 0.49341714
0.075959094 0.018356109 0.48922861
0.075056404 0.020717401 0.48528385
0.073860206 0.023260752 0.48102924
0.07278116 0.026392803 0.47911033
0.085114717 0.0060160104 0.524391
0.072833039 0.031518932 0.48196709
0.084855579 0.010180933 0.52695465
0.072584122 0.03579035 0.48459148
0.084914878 0.014625798 0.52959442
0.072636068 0.040018823 0.48710397
0.084698394 0.018879453 0.53219885
0.072694227 0.044198323 0.4895854
0.08468806 0.02313967 0.5347482
0.0723866 0.048501421 0.49224555
0.084715843 0.027498486 0.53734553
0.072402976 0.052981857 0.49491885
0.084486708 0.031845346 0.54000932
0.072089106 0.057247341 0.49755833
0.084366605 0.035998993 0.54252642
0.07247588 0.061324324 0.49988431
0.084450297 0.040177166 0.54499972
0.07231389 0.065501481 0.50242746
0.084277146 0.044452991 0.54760504
0.072206065 0.069888301 0.5050804
0.084257521 0.048944499 0.55029529
0.071933448 0.07435488 0.50782818
0.084268697 0.053060409 0.5527522
0.072253495 0.078611195 0.51028049
0.084072039 0.05738911 0.55539584
0.071932733 0.08279106 0.51287079
0.084049419 0.061729666 0.55799669
0.071903959 0.087164059 0.5154928
0.083862513 0.066037789 0.56062526
0.071935326 0.091358773 0.51799101
0.083708048 0.070251249 0.56318796
0.071777008 0.0955787 0.52055866
0.084037967 0.074732542 0.56577188
0.071823336 0.10000744 0.52319247
0.083763659 0.078764342 0.56826031
0.071663648 0.10417081 0.52572668
0.083913341 0.08309491 0.57080585
0.071576133 0.10852131 0.52835208
0.083968781 0.087550066 0.57345283
0.071593024 0.11294008 0.5309884
0.083672777 0.091592915 0.57595408
0.071315587 0.11691321 0.53344268
0.083635986 0.096086025 0.57865018
0.071481705 0.12133016 0.53603506
0.083578221 0.10046645 0.58128494
0.071331412 0.12554391 0.53859675
0.083593272 0.10470301 0.58381283
0.071067788 0.12983605 0.54123771
0.083397642 0.10890137 0.58637834
0.071095899 0.13420853 0.54384315
0.083368853 0.11315642 0.58892983
0.071205683 0.13855866 0.54641175
0.083385445 0.11741184 0.59146857
0.071103878 0.14289519 0.54903293
0.083114602 0.12166458 0.59408808
0.070929468 0.14702928 0.55155391
0.083096132 0.12608004 0.5967325
0.070852354 0.15138701 0.55418062
0.083228528 0.13039556 0.59927398
0.083340816 0.133463 0.59876037
0.081155874 0.13578874 0.59484208
0.074920923 0.15358406 0.56512773
0.069770426 0.15556219 0.56171149
0.070962161 0.15561596 0.55667681
0.082257859 0.13367331 0.59838355
0.08116781 0.13620317 0.59415406
0.08007355 0.13852003 0.59027821
0.078944832 0.14104599 0.58605427
0.077808298 0.14359766 0.58178741
0.076608911 0.14606178 0.57766432
0.075371832 0.14860606 0.57340717
0.074053161 0.15099275 0.56940967
0.072920918 0.15359315 0.56506193
0.071947962 0.15613109 0.56082207
0.071169004 0.157534 0.55847204
0.089880273 0.0024173281 0.52087432
0.091117837 0.0034036839 0.51798749
0.089968264 0.005866312 0.51389253
0.088645861 0.0082464609 0.50964433
0.087396078 0.010716734 0.50563359
0.08609394 0.01318332 0.50122845
0.084856518 0.015621692 0.49705392
0.083680138 0.017964592 0.49299875
0.082186036 0.020167138 0.48881525
0.080982387 0.022689233 0.48450899
0.079723127 0.025204802 0.48039773
0.078461893 0.027117331 0.47811151
0.08998996 0.0068184235 0.52347344
0.091624036 0.0083559575 0.52075225
0.090471111 0.010713678 0.51669753
0.089274175 0.013177512 0.51249892
0.088072456 0.015765663 0.5083611
0.086883068 0.018144887 0.50414222
0.085693501 0.020755976 0.50007945
0.084456526 0.023293197 0.49573433
0.083293915 0.025856003 0.49177101
0.082099706 0.028254228 0.48754138
0.080865219 0.030830372 0.48323479
0.078463092 0.03210108 0.48091441
0.089747474 0.010952407 0.52601385
0.091549724 0.012615077 0.52327156
0.090383157 0.015144025 0.51926595
0.089233398 0.017491462 0.51521981
0.088005602 0.019993208 0.51089561
0.086847782 0.022319242 0.50679547
0.085610017 0.025075849 0.50259501
0.084418803 0.027485669 0.4983879
0.083211102 0.030278426 0.49435923
0.082029589 0.032489277 0.49006501
0.080810033 0.035075113 0.48583815
0.078455597 0.036482103 0.4835141
0.089644283 0.01513657 0.52854431
0.09149795 0.017039478 0.52601331
0.09040346 0.019125389 0.52206099
0.089162819 0.021839274 0.5178175
0.087942526 0.024353378 0.51353848
0.086718962 0.026850538 0.50923193
0.08554934 0.029351067 0.50519204
0.084328331 0.03165419 0.50076669
0.083168022 0.034286346 0.49686164
0.081961684 0.036770824 0.49263093
0.080775924 0.039269429 0.48851067
0.078582011 0.040744837 0.48609513
0.089599706 0.019657506 0.5312593
0.091509223 0.021089735 0.52881074
0.090320379 0.023379199 0.52453375
0.089079402 0.026141364 0.52032125
0.087877072 0.028635556 0.51611686
0.086678371 0.03113557 0.5119341
0.08547388 0.033623673 0.50771493
0.084292963 0.03586071 0.50344127
0.083082996 0.038419709 0.49924329
0.081880003 0.041174822 0.49521223
0.080719337 0.043629076 0.49118495
0.078595199 0.044913255 0.48859292
0.0895463 0.023846591 0.53377843
0.091441132 0.025234554 0.53128314
0.090242222 0.027726449 0.52709389
0.089050829 0.030282641 0.52298504
0.087867185 0.03284508 0.5189184
0.086623341 0.035435848 0.51457584
0.085416451 0.037777159 0.5102455
0.08417502 0.040501304 0.50600505
0.082992852 0.042922966 0.50185031
0.081809789 0.045634717 0.49788761
0.080640793 0.047829017 0.49364349
0.07855361 0.049332265 0.49120715
0.089326918 0.028167086 0.53642368
0.091359787 0.029675582 0.5338912
0.09014719 0.031999651 0.52952123
0.088967092 0.034581874 0.52548534
0.08776132 0.037185214 0.52133793
0.086500235 0.039835952 0.51695144
0.085342377 0.042132199 0.51283097
0.08412867 0.044675447 0.50860393
0.082954995 0.047195252 0.50455731
0.081734166 0.049870756 0.50038487
0.080619916 0.052088857 0.49642524
0.078376986 0.053669643 0.4938899
0.089433886 0.032338716 0.53888643
0.091292299 0.03398513 0.5364781
0.090072513 0.036306381 0.53207105
0.08888723 0.038913552 0.52802664
0.08771009 0.041341595 0.52390081
0.086471356 0.043910384 0.51956844
0.085263424 0.046461288 0.5153749
0.084066324 0.048947521 0.51119071
0.082873844 0.05135072 0.50697291
0.081684895 0.054008484 0.50294477
0.08050672 0.056329541 0.49874151
0.078221485 0.057835527 0.4963913
0.089055307 0.03669234 0.54159713
0.091247723 0.038102739 0.53904742
0.090022333 0.040604547 0.53473508
0.088837571 0.043219328 0.53069842
0.087581828 0.04587543 0.52634174
0.086416908 0.048358161 0.52231288
0.085239775 0.050587609 0.5180527
0.083960868 0.05354676 0.51378769
0.082814157 0.055686027 0.50961554
0.081617564 0.05828457 0.50550979
0.080432422 0.060747761 0.50136864
0.07814911 0.062216852 0.49901113
0.089036845 0.040935624 0.54413867
0.091140896 0.042457476 0.54147214
0.089945421 0.045050759 0.53736836
0.088738419 0.047309943 0.53298187
0.087547235 0.050140787 0.52906001
0.086360335 0.052568726 0.52488631
0.085100725 0.055062167 0.52040058
0.083911054 0.057610214 0.5162946
0.082771912 0.060041249 0.51235712
0.081598684 0.062422868 0.50821906
0.080360979 0.065001115 0.50389814
0.078319326 0.066375636 0.50150234
0.089202702 0.045141812 0.54660517
0.091081865 0.046773732 0.54410505
0.089857928 0.04930564 0.53982025
0.088677034 0.051658481 0.53562516
0.087471522 0.054365769 0.53154933
0.086297907 0.056731679 0.52739877
0.085062154 0.059496686 0.52321386
0.083847545 0.061958246 0.5189271
0.08268331 0.06430015 0.51480627
0.08152847 0.066612296 0.51071131
0.080302164 0.069169775 0.50643224
0.077921093 0.070790142 0.50421482
0.08920595 0.049447592 0.54917783
0.09097679 0.051098749 0.54651821
0.089798436 0.053723969 0.54251999
0.088606492 0.056085158 0.53827637
0.087395765 0.058756839 0.53415096
0.08620207 0.061211333 0.52996194
0.08503107 0.063636713 0.52586442
0.083861679 0.066000506 0.52173316
0.082657292 0.068574078 0.51757234
0.081467561 0.071036816 0.51340836
0.080257863 0.073670566 0.50926226
0.078003742 0.074792877 0.5065853
0.089194663 0.053810596 0.55178887
0.090909198 0.055438768 0.54912531
0.089715719 0.057820808 0.54488826
0.088553332 0.060294054 0.54086542
0.087361924 0.062770873 0.53670275
0.086123943 0.065470353 0.53246254
0.084918179 0.067960046 0.52823818
0.083796456 0.070185818 0.52424705
0.082552023 0.072942235 0.52001381
0.081419513 0.075171411 0.51597214
0.080193467 0.077661455 0.5116486
0.077817887 0.079351887 0.50938505
0.088994958 0.058132101 0.55442911
0.090821005 0.05996985 0.55176073
0.089729995 0.061986342 0.54777849
0.088520512 0.064638339 0.5436458
0.087310836 0.06699378 0.53931141
0.086066313 0.069640271 0.53500324
0.084888279 0.072188862 0.53095466
0.083669327 0.074671023 0.52666062
0.082557239 0.077010766 0.52279389
0.081294268 0.079629794 0.51837671
0.080087833 0.082294561 0.51426762
0.077967137 0.083675683 0.51188332
0.088832356 0.062420409 0.55703884
0.090854459 0.063907772 0.55459082
0.089620396 0.066463754 0.55027264
0.088436939 0.068998285 0.546188
0.087239511 0.071337186 0.54190242
0.086011469 0.074095674 0.5377509
0.084813505 0.076556452 0.5335452
0.083645806 0.078831442 0.52936208
0.082453847 0.081400245 0.52525896
0.081225857 0.084061809 0.52104205
0.080028974 0.08646562 0.51680309
0.077679396 0.087841965 0.5144546
0.088783115 0.066732593 0.55963039
0.090715602 0.068256773 0.55685467
0.089520968 0.070805617 0.5527249
0.08831203 0.073273547 0.54847026
0.087132268 0.075804949 0.54440165
0.085942209 0.078219026 0.54020309
0.084746115 0.080700457 0.53602052
0.083574869 0.083369851 0.53208703
0.08237046 0.085815929 0.52783984
0.081167221 0.088172071 0.52353746
0.079959437 0.090864033 0.51944011
0.078011565 0.092093609 0.51700169
0.08896324 0.070901364 0.56207043
0.090636879 0.072488107 0.55933356
0.089486137 0.074901901 0.55532753
0.088250808 0.077608787 0.55110532
0.087046005 0.080165155 0.54693085
0.085856907 0.082554378 0.54272014
0.08469063 0.084996797 0.53865737
0.083498433 0.087392859 0.53443611
0.08233095 0.090152897 0.53058249
0.081086151 0.092576675 0.52612215
0.079901785 0.095035769 0.52198201
0.077857129 0.096312903 0.51958072
0.088802345 0.075040884 0.56459081
0.090613671 0.076844506 0.56216925
0.089421406 0.079419091 0.55806857
0.088214435 0.081800282 0.55376482
0.086984694 0.084306195 0.54943395
0.085814461 0.08682581 0.54540402
0.084610052 0.089292876 0.54117101
0.083434738 0.091805972 0.53711176
0.082221895 0.094321907 0.53287047
0.081063785 0.096784949 0.5288617
0.07983423 0.09921661 0.52448148
0.077644095 0.10062554 0.52216452
0.088585526 0.079374783 0.56724334
0.090535119 0.081155248 0.56470275
0.089320742 0.083742209 0.56050205
0.08810211 0.086316943 0.55627221
0.086935736 0.088729739 0.55218893
0.085748814 0.091106765 0.54798061
0.084520221 0.09351626 0.54359007
0.083365701 0.096024871 0.53962976
0.082157031 0.098594584 0.53544533
0.080986813 0.10119653 0.53147119
0.07978671 0.10354447 0.52717865
0.077524669 0.1049649 0.52481884
0.088538632 0.083732732 0.56986153
0.090464592 0.085718386 0.56744647
0.089256927 0.08790531 0.56300783
0.088068001 0.090468414 0.55891573
0.086878002 0.092931278 0.5547505
0.085690968 0.095387325 0.55059516
0.084497541 0.097936675 0.54647171
0.083276398 0.10039971 0.54215395
0.082104601 0.10279924 0.53803504
0.080892876 0.10539121 0.53385079
0.07972876 0.10773513 0.52973187
0.077482559 0.10945904 0.52748954
0.088666663 0.088031791 0.57239443
0.090398654 0.089811116 0.56989425
0.089243129 0.092200115 0.56584799
0.088005826 0.094733991 0.56149894
0.086840004 0.097169518 0.55743372
0.085628696 0.099677168 0.55319434
0.084423557 0.1021434 0.54895723
0.083231173 0.10456356 0.54475135
0.082092896 0.10692286 0.54076958
0.080825239 0.10975488 0.53647363
0.079672396 0.1121014 0.53241169
0.077374138 0.11358309 0.52997613
0.088434681 0.092226073 0.57496786
0.090339534 0.094024181 0.57245684
0.089179046 0.096437879 0.56840301
0.088015586 0.098852023 0.56433487
0.086783431 0.10143006 0.56004095
0.085508749 0.10405317 0.55556917
0.084353179 0.10638642 0.55148488
0.083136402 0.10892476 0.54723954
0.081953213 0.11151383 0.54319316
0.080761515 0.11404358 0.53906488
0.079573095 0.1163966 0.53483301
0.077173308 0.11798315 0.5326212
0.088689797 0.096673787 0.57755315
0.090247609 0.098473035 0.57501835
0.089081161 0.10079677 0.57087433
0.087884136 0.10327367 0.56668419
0.086721815 0.10571487 0.56263995
0.085513107 0.10820303 0.55840015
0.084322743 0.11074631 0.55428755
0.083072498 0.11334752 0.54992068
0.081931874 0.11583808 0.54601622
0.080724724 0.11822017 0.54171222
0.079510108 0.12066086 0.53741133
0.077297024 0.1220995 0.53512818
0.088317007 0.10083039 0.58014441
0.090236247 0.10259992 0.5777567
0.089063257 0.10503942 0.573659
0.087876223 0.10738318 0.56942767
0.086696707 0.10980074 0.56528318
0.085438736 0.11255998 0.56098545
0.084219567 0.11506645 0.55670673
0.083004326 0.11759733 0.55246383
0.081821673 0.12006233 0.54833603
0.08065024 0.1225417 0.54427296
0.079524092 0.12474173 0.54024273
0.077354364 0.12648702 0.53770334
0.088256359 0.10515967 0.58274943
0.090178512 0.1068621 0.58035934
0.088965416 0.10927407 0.57604647
0.08778248 0.11184303 0.57198769
0.086589351 0.11418615 0.56772608
0.085362822 0.11693182 0.56357324
0.084166676 0.11931726 0.55932546
0.082962118 0.12183385 0.55512524
0.081758581 0.12427635 0.5508799
0.080529094 0.12692496 0.54664683
0.079396054 0.12918788 0.54262543
0.076844037 0.13077614 0.54033357
0.088186502 0.1094107 0.58531034
0.090024635 0.11124054 0.58256954
0.088876478 0.11356601 0.57851636
0.087667346 0.11609443 0.57430172
0.086486265 0.1184567 0.57011211
0.085332528 0.12099712 0.56617713
0.084100917 0.12352539 0.56185222
0.082890742 0.12594628 0.55755967
0.081743374 0.12850833 0.55367053
0.080547959 0.13102084 0.54951239
0.079332538 0.13361445 0.54531103
0.077123061 0.13492522 0.5427931
0.088079147 0.11370192 0.587906
0.089983307 0.11555177 0.58528578
0.088835716 0.11779367 0.58117884
0.087641954 0.12029138 0.57701874
0.086428367 0.1229993 0.57290381
0.085226931 0.12529466 0.56856912
0.084061347 0.12768143 0.56447202
0.082831301 0.1305182 0.56036365
0.081660092 0.13270104 0.55610096
0.080470338 0.13527474 0.55201191
0.079293713 0.13773084 0.54790771
0.076885208 0.13922074 0.54545844
0.088290252 0.11825545 0.59056717
0.089918852 0.11979291 0.58784127
0.088744082 0.12204809 0.58361012
0.087551586 0.12458355 0.57948178
0.086389184 0.12716624 0.57553291
0.085174754 0.12964338 0.57125759
0.083999194 0.13205588 0.56712908
0.082791351 0.13456374 0.5629068
0.08159177 0.13703731 0.55870187
0.080383644 0.13950917 0.55445385
0.079228975 0.14199257 0.55047572
0.077053688 0.1436182 0.54803443
0.087893464 0.12247965 0.59320569
0.089855589 0.12397408 0.59036201
0.088692203 0.1263884 0.58629435
0.087510154 0.12890542 0.58220476
0.086301319 0.13152584 0.57805389
0.085120358 0.13394743 0.57390499
0.083897501 0.13645622 0.56960976
0.082691416 0.13894835 0.56538552
0.081504025 0.14146903 0.5612722
0.080283366 0.14408359 0.55705941
0.079157889 0.14632162 0.55305821
0.076800168 0.14776018 0.55055165
0.087900124 0.12666762 0.59570694
0.089809164 0.12827027 0.59304315
0.08863508 0.13066781 0.58891171
0.087448582 0.13338026 0.58493257
0.086214527 0.1357539 0.58049101
0.085069329 0.13823685 0.57655895
0.083805367 0.14079204 0.57209373
0.082619525 0.14337385 0.5680294
0.081487104 0.14560542 0.56398976
0.080273733 0.1484037 0.55993712
0.079102002 0.15068433 0.55573803
0.076922193 0.15204427 0.55304819
0.088067248 0.13103393 0.59826887
0.089620329 0.13258132 0.59575927
0.08842048 0.13496497 0.59159857
0.087403469 0.13748717 0.58749199
0.086202018 0.13986239 0.5832113
0.084910214 0.1425879 0.57872492
0.083798975 0.14496088 0.57488483
0.082577676 0.1473563 0.57052052
0.081389129 0.14990342 0.56641948
0.080159858 0.15254143 0.56250137
0.078933582 0.15498707 0.55819798
0.076558366 0.15641129 0.55578768
0.087298699 0.13439414 0.59731436
0.085916229 0.13677549 0.59332407
0.084940933 0.13926366 0.58916682
0.083933078 0.14192337 0.58472371
0.082597725 0.14435658 0.58064842
0.081424862 0.14684194 0.57649088
0.08010152 0.14937112 0.57225668
0.078856692 0.15184054 0.56812364
0.077703483 0.15430418 0.56400251
0.076601066 0.15677628 0.55986851
0.076460093 0.15836746 0.55722213
