# .PCD v0.7 - Point Cloud Data file format
VERSION 0.7
FIELDS x y z
SIZE 4 4 4
TYPE F F F
COUNT 1 1 1
WIDTH 837
HEIGHT 1
VIEWPOINT 0 0 0 1 0 0 0
POINTS 837
DATA ascii
0.30230889 -0.140515 0.88694042
0.30307239 -0.142974 0.88800389
0.30387318 -0.13232824 0.881293
0.30360964 -0.13568787 0.88271952
0.30406559 -0.14010058 0.88461888
0.30541438 -0.14439653 0.88657194
0.30749354 -0.14829831 0.8885687
0.30982643 -0.15102795 0.88980526
0.30644614 -0.13137256 0.87894702
0.30701724 -0.13575102 0.87974548
0.30799642 -0.14040235 0.88117707
0.30943263 -0.14481129 0.88316339
0.31100881 -0.1487726 0.8857953
0.31301284 -0.1519604 0.88834196
0.31029755 -0.12761864 0.87594891
0.31034592 -0.13055123 0.87625635
0.31116992 -0.13559198 0.87697685
0.31223583 -0.14028195 0.87836444
0.31368932 -0.14474744 0.88037878
0.31533217 -0.1487371 0.88296771
0.31724286 -0.15239352 0.88628298
0.31943578 -0.15411513 0.88769424
0.31341556 -0.12741299 0.87440622
0.31490171 -0.13010572 0.87407112
0.31561416 -0.13517764 0.87484431
0.31683609 -0.13995896 0.87621415
0.31819156 -0.14434081 0.87823075
0.31973436 -0.14832589 0.88085562
0.32166201 -0.15194461 0.8841148
0.32169595 -0.15388131 0.88657957
0.31940368 -0.13020852 0.87272257
0.32060084 -0.13447344 0.87328297
0.32149291 -0.13915108 0.87468237
0.32280645 -0.14356238 0.87671417
0.32455465 -0.14761886 0.8793757
0.32579583 -0.15071078 0.88214844
0.32299253 -0.13066956 0.87213153
0.32489946 -0.13382284 0.87258744
0.32653329 -0.13810997 0.87383562
0.32783487 -0.14233464 0.87577599
0.32876766 -0.14632809 0.87834978
0.32891268 -0.14918046 0.88066179
0.32962796 -0.13815309 0.87392795
0.33042267 -0.14059496 0.8750422
0.29724243 -0.1312459 0.88971007
0.29738674 -0.13439129 0.8908484
0.29799801 -0.13841219 0.89255208
0.29931462 -0.1426584 0.89450926
0.30111396 -0.14630903 0.89634192
0.29968518 -0.12598063 0.88520187
0.2989912 -0.12964889 0.88655376
0.29939526 -0.13446672 0.88747638
0.30032921 -0.13923818 0.88892865
0.30171037 -0.14370358 0.89100552
0.30350381 -0.14764005 0.89354199
0.3056322 -0.1509413 0.89623398
0.30821851 -0.15354183 0.89794719
0.30206683 -0.12514268 0.88246059
0.30200353 -0.12989844 0.88279116
0.30178541 -0.13429481 0.88414264
0.30184311 -0.13754976 0.88553566
0.3044917 -0.14619379 0.88957494
0.30638394 -0.14898647 0.89089215
0.30899581 -0.15212828 0.89297068
0.31131306 -0.1548126 0.89612395
0.3146686 -0.15686521 0.89758056
0.30583298 -0.12100768 0.87946075
0.3055875 -0.12486535 0.87921226
0.30539957 -0.1288653 0.87939698
0.3130092 -0.15336655 0.89064854
0.31532609 -0.15558952 0.89324206
0.3172619 -0.15733178 0.89610928
0.30984759 -0.12029356 0.87683833
0.30972898 -0.12474787 0.87635273
0.31644335 -0.15400274 0.88904333
0.31953713 -0.15565258 0.89047253
0.32132509 -0.15757054 0.89396125
0.31415272 -0.12009881 0.87473708
0.31435248 -0.12433978 0.87412512
0.31627604 -0.12723517 0.87330902
0.32423607 -0.15338521 0.88537562
0.32407993 -0.15520756 0.88827288
0.32573345 -0.15713269 0.89175373
0.31853709 -0.11996962 0.8732993
0.31913793 -0.1236424 0.87269199
0.32003814 -0.12753965 0.87236613
0.32779941 -0.15198091 0.88354522
0.32880682 -0.15428999 0.88675243
0.3298924 -0.1561539 0.88998944
0.32387716 -0.12292397 0.87199485
0.3248153 -0.12781572 0.87179482
0.32688627 -0.13202292 0.87215745
0.32855719 -0.13533178 0.87291485
0.331065 -0.14347219 0.87664801
0.33141285 -0.1465099 0.8787964
0.33178818 -0.14996572 0.88193631
0.33322465 -0.15278389 0.88557583
0.3330451 -0.15494841 0.88866603
0.32786918 -0.12346179 0.87178743
0.32960635 -0.12692975 0.87182897
0.33095816 -0.13154376 0.87239134
0.33206618 -0.13627748 0.87365979
0.33340147 -0.14076182 0.87570179
0.3350527 -0.14472103 0.87844467
0.33627358 -0.14817318 0.88159341
0.33633739 -0.1509636 0.88443774
0.33465287 -0.13075916 0.87291878
0.33621508 -0.13494246 0.87421751
0.33747286 -0.13913454 0.87612122
0.33844119 -0.14283821 0.87843221
0.29464626 -0.13225479 0.89684671
0.29537877 -0.1365876 0.89842105
0.29665294 -0.14069395 0.90032929
0.29844576 -0.1444428 0.90240729
0.29633042 -0.12402201 0.89094323
0.29578793 -0.1280017 0.89219654
0.29581121 -0.13254771 0.89354849
0.29650122 -0.13743673 0.89543426
0.29795066 -0.14196284 0.89741391
0.30002403 -0.1460468 0.89966106
0.30255049 -0.14950627 0.9019087
0.30514184 -0.15220845 0.90397227
0.29920176 -0.11952057 0.88711143
0.29823494 -0.12331846 0.88768554
0.29756397 -0.12763256 0.88849527
0.30507994 -0.15154001 0.89963984
0.30795053 -0.1540371 0.90172589
0.31075144 -0.15598391 0.90378743
0.30349261 -0.11492939 0.88371664
0.3019754 -0.11864801 0.8838799
0.3008942 -0.12240536 0.88406283
0.31147715 -0.15577011 0.89925444
0.31405878 -0.15730803 0.90169084
0.31737158 -0.15870556 0.90365386
0.30624744 -0.11447495 0.88136083
0.30552539 -0.11768349 0.88067544
0.31804824 -0.1582831 0.89921433
0.3201946 -0.15921414 0.90187585
0.31028211 -0.1139107 0.87870818
0.30968967 -0.11702161 0.87783253
0.32270721 -0.15868627 0.89688557
0.32430804 -0.15945712 0.89969403
0.31448966 -0.11346346 0.87672764
0.31434232 -0.1167249 0.87554735
0.3273268 -0.15826811 0.89466834
0.32875302 -0.15905878 0.89762908
0.31871048 -0.11329247 0.87533808
0.31938738 -0.11658528 0.8739894
0.33199757 -0.15701711 0.89255708
0.33283862 -0.15808432 0.89586574
0.32410288 -0.11650833 0.87328708
0.32553557 -0.12010171 0.87226439
0.33576295 -0.15349072 0.88757426
0.33616397 -0.15531623 0.89110285
0.33596271 -0.15700282 0.89478695
0.3283911 -0.11662181 0.87312931
0.33000201 -0.12039448 0.87240422
0.33175749 -0.12444048 0.87209344
0.33909503 -0.14820163 0.88290447
0.33961979 -0.1510071 0.88646865
0.33972886 -0.15335396 0.88997054
0.33395797 -0.12034771 0.8729912
0.33556342 -0.12434053 0.87295824
0.337466 -0.12878308 0.87356025
0.33915788 -0.13339216 0.87487078
0.34057978 -0.13800006 0.87697262
0.34158042 -0.14223267 0.8796891
0.34240943 -0.14586119 0.88289064
0.34271586 -0.14875829 0.8859334
0.33949599 -0.12501961 0.87417769
0.34071878 -0.12795335 0.87475634
0.34208271 -0.13226141 0.87598097
0.34342977 -0.13639587 0.87790358
0.34461707 -0.14020677 0.88040453
0.34507927 -0.14269333 0.88227963
0.29415143 -0.13512649 0.90555561
0.29503021 -0.13777393 0.90693194
0.29419291 -0.1221079 0.89746767
0.29382762 -0.12600417 0.89813209
0.29372418 -0.13053632 0.9001621
0.29429471 -0.1349096 0.90237707
0.29569981 -0.13939385 0.90437806
0.29782188 -0.14358577 0.90625656
0.30043727 -0.14725527 0.9078365
0.30282009 -0.14968872 0.90999424
0.29664877 -0.11754759 0.89288706
0.29550529 -0.12121492 0.89384383
0.29463401 -0.12555808 0.89503348
0.30208418 -0.14934078 0.90595782
0.30512729 -0.15203243 0.90792865
0.30813074 -0.15413222 0.90970105
0.30037808 -0.11300137 0.88904244
0.29866916 -0.11639887 0.88962758
0.2971732 -0.12013881 0.89031219
0.3078016 -0.15425667 0.90598571
0.31118515 -0.15608898 0.90791857
0.31426379 -0.15736067 0.90986127
0.30278426 -0.11242835 0.88618958
0.30121121 -0.11550403 0.8861627
0.31437212 -0.15770656 0.90558511
0.31709784 -0.15853932 0.90744084
0.30636084 -0.11105165 0.88333911
0.32155353 -0.15959316 0.90558654
0.31200743 -0.10738005 0.88166016
0.31055328 -0.10998327 0.88077235
0.32625693 -0.15995117 0.90358508
0.32829818 -0.16002533 0.9058426
0.31455159 -0.10720452 0.8803947
0.31516168 -0.10955466 0.8785609
0.33082226 -0.159527 0.90148735
0.33087531 -0.15980062 0.90462941
0.31986949 -0.10980736 0.87685269
0.33499333 -0.15835997 0.89913958
0.32449687 -0.11036636 0.8758055
0.32584524 -0.11308555 0.87438512
0.33905721 -0.15549576 0.89380652
0.33902535 -0.15654252 0.89701247
0.32840627 -0.11021816 0.87578547
0.33025789 -0.11342187 0.87448645
0.33219996 -0.11692306 0.87344646
0.34288058 -0.15099698 0.8889913
0.34266517 -0.15308715 0.89260894
0.34242794 -0.15471996 0.8961466
0.3341493 -0.11396439 0.87489951
0.33622015 -0.11748751 0.8743155
0.33819851 -0.12152131 0.87404394
0.34561378 -0.14529252 0.88488293
0.34588113 -0.14825746 0.88848549
0.34567302 -0.15061821 0.89166695
0.3398748 -0.11789254 0.87548089
0.34128082 -0.12161592 0.87538087
0.34360141 -0.12577237 0.87626022
0.34568051 -0.13013247 0.87781721
0.34698537 -0.1346615 0.87980771
0.34763736 -0.13894576 0.88221556
0.34793857 -0.14292218 0.88516438
0.34859911 -0.14530073 0.88807678
0.3482272 -0.13014984 0.87967002
0.34882995 -0.1319547 0.88053554
0.29301697 -0.12466057 0.90553343
0.2930873 -0.12826681 0.90622097
0.293742 -0.13277307 0.90771341
0.29509911 -0.13706283 0.9097963
0.29705444 -0.14088891 0.91197681
0.29883707 -0.14323416 0.91405594
0.2941736 -0.11941631 0.90012568
0.29328108 -0.12366222 0.9023701
0.29310724 -0.12814647 0.90346742
0.29343891 -0.1318367 0.90443027
0.29755351 -0.14256723 0.91008192
0.30019328 -0.14581814 0.91250807
0.30346492 -0.14920714 0.91376477
0.29828691 -0.11085856 0.89583147
0.29653722 -0.11460172 0.89615256
0.29503149 -0.11816208 0.89722979
0.30537444 -0.15148476 0.91235685
0.30864277 -0.15342984 0.91388351
0.2999711 -0.11053699 0.89235014
0.29826495 -0.11327132 0.89284754
0.31155816 -0.15566196 0.91221499
0.31444538 -0.15660897 0.91354859
0.30524841 -0.10588027 0.88927299
0.30321336 -0.10845675 0.88917959
0.31883267 -0.15837295 0.91209465
0.32177389 -0.15869696 0.91352677
0.30774611 -0.10573776 0.88663471
0.30633447 -0.10790032 0.88584
0.32281986 -0.15959653 0.90919042
0.32454258 -0.1594193 0.91134822
0.31171095 -0.10519466 0.88388115
0.30906263 -0.10763377 0.8835274
0.3286657 -0.15976933 0.90887517
0.31619996 -0.1047819 0.88172507
0.31748626 -0.10686634 0.87940508
0.33320552 -0.15935507 0.9066034
0.32059318 -0.10453546 0.88042188
0.32124686 -0.10650941 0.8786661
0.33748242 -0.15812914 0.90228778
0.33741832 -0.15827563 0.90503633
0.32438594 -0.10410699 0.88009638
0.32597083 -0.10646737 0.87819207
0.34149781 -0.15628742 0.90113294
0.34091148 -0.15691887 0.90433681
0.33069935 -0.10767834 0.87761569
0.33245361 -0.1100513 0.87641358
0.345783 -0.1524467 0.8958171
0.34515259 -0.15375127 0.89884299
0.33638355 -0.11098129 0.87701625
0.33858463 -0.11421588 0.87623328
0.34905326 -0.14751896 0.89162922
0.34848675 -0.14973693 0.89482182
0.34161934 -0.115014 0.87737304
0.34454697 -0.11887713 0.8777957
0.34620872 -0.12345534 0.87802982
0.34732315 -0.12688234 0.87866282
0.34976164 -0.13518049 0.88237351
0.35075307 -0.13786812 0.88474816
0.35144943 -0.14110491 0.88793808
0.35092479 -0.14486375 0.89105904
0.34724993 -0.11961614 0.87946361
0.34829238 -0.12301224 0.87971383
0.34968391 -0.12763159 0.8807807
0.3511008 -0.13194118 0.88283736
0.35227087 -0.13563383 0.88548601
0.35313499 -0.13811697 0.88801485
0.29342327 -0.12191593 0.90810913
0.29335997 -0.12600522 0.9100405
0.29404554 -0.1305107 0.91243273
0.29541448 -0.1348739 0.9144178
0.297517 -0.13921973 0.91613859
0.29987878 -0.14270647 0.91749525
0.29559302 -0.11367877 0.90256852
0.2943998 -0.11693494 0.90433198
0.29351088 -0.12049831 0.90578467
0.30117247 -0.14502774 0.91697288
0.30401331 -0.14754328 0.91833812
0.30711201 -0.14992861 0.91936505
0.29868975 -0.10890024 0.89848465
0.29689437 -0.11167636 0.89988667
0.30955443 -0.15221502 0.91840601
0.3126184 -0.15384871 0.91881359
0.30076551 -0.10717409 0.89570636
0.31586194 -0.15557179 0.91805357
0.30520245 -0.10386264 0.89242613
0.30326217 -0.10560215 0.89285231
0.31936687 -0.15722422 0.91670144
0.32208377 -0.15759706 0.91706043
0.30867636 -0.1026049 0.88969272
0.32613817 -0.15847336 0.91541392
0.31293371 -0.10147908 0.88728637
0.3308036 -0.15874875 0.91355276
0.31738824 -0.10105783 0.88516039
0.33530116 -0.15834746 0.91134614
0.32219794 -0.10135538 0.88323718
0.33960688 -0.15724523 0.90889919
0.32640913 -0.10191455 0.88215542
0.32838234 -0.10329349 0.88081956
0.34440163 -0.15502073 0.90450162
0.34320986 -0.15567191 0.9068501
0.33229494 -0.1042016 0.88062125
0.34747365 -0.1527268 0.90294743
0.33588454 -0.1055997 0.88042527
0.33853683 -0.10785163 0.87982637
0.3512527 -0.14834425 0.89847851
0.3500036 -0.15034962 0.90120327
0.34169042 -0.10941239 0.8803497
0.34430605 -0.11232418 0.88031602
0.34661949 -0.11550196 0.88041019
0.35429943 -0.14006147 0.8917073
0.35380137 -0.14299215 0.89431095
0.35304472 -0.14567985 0.89706552
0.34861755 -0.11679207 0.88161331
0.35079834 -0.12069904 0.88251191
0.35292065 -0.12508649 0.88425201
0.3542138 -0.12939364 0.88616413
0.35492766 -0.13383862 0.88858014
0.35511875 -0.13741954 0.89102763
0.29514232 -0.11607581 0.91137779
0.2944434 -0.11911818 0.91179025
0.2943874 -0.12370843 0.91447055
0.29508507 -0.12812823 0.91682148
0.2964448 -0.13246384 0.91881847
0.29849529 -0.13683115 0.92047483
0.3012931 -0.1411483 0.92176706
0.30339205 -0.14274782 0.92339641
0.29663485 -0.11114204 0.9060204
0.29535231 -0.11448635 0.90859628
0.29421106 -0.11790099 0.90871334
0.30225477 -0.14419863 0.92024964
0.30504581 -0.14533786 0.92279333
0.3083311 -0.14822294 0.92323124
0.29967785 -0.10644588 0.90227473
0.29794952 -0.10883375 0.90393835
0.31108233 -0.15038651 0.92305887
0.31393024 -0.15202785 0.92304599
0.30438322 -0.10186261 0.89897418
0.30215761 -0.10404776 0.89949691
0.31777847 -0.15397421 0.92241424
0.32088646 -0.15451913 0.92297584
0.30609179 -0.10132014 0.89621824
0.30364606 -0.1034451 0.89628011
0.31995276 -0.15596741 0.92003179
0.32312065 -0.15585218 0.92118651
0.31009749 -0.099552929 0.89348298
0.32805765 -0.15677908 0.91972154
0.31447923 -0.098454043 0.89095712
0.33269975 -0.15701297 0.91792893
0.31898069 -0.097994037 0.88888061
0.33730674 -0.15656695 0.91579163
0.32360402 -0.098264471 0.88701248
0.34159875 -0.15548626 0.91332066
0.3285107 -0.099212669 0.88547707
0.33037657 -0.10100581 0.88337666
0.34683758 -0.15334062 0.90743637
0.34567806 -0.15370633 0.91041005
0.3315599 -0.099518836 0.88548315
0.333884 -0.10111843 0.88423091
0.34956744 -0.15100655 0.90715855
0.34814322 -0.15201141 0.90983009
0.33793369 -0.10292241 0.88387793
0.34067389 -0.1048221 0.88350481
0.35367829 -0.14634757 0.90252948
0.352121 -0.14847136 0.90480828
0.34343243 -0.10668573 0.88368094
0.34661657 -0.1097144 0.88388139
0.35613716 -0.13897483 0.89472735
0.35629272 -0.14066787 0.89804256
0.35513809 -0.14384547 0.90075952
0.34916601 -0.11112898 0.88529503
0.35045201 -0.11408269 0.88485748
0.35317862 -0.11823441 0.88616878
0.35530913 -0.12249738 0.8879844
0.35662416 -0.12689726 0.88989413
0.35735458 -0.1312806 0.8922829
0.35735202 -0.13574576 0.8950358
0.35745421 -0.137722 0.89737856
0.29624119 -0.11466283 0.91394031
0.29613733 -0.11684502 0.91585106
0.29611814 -0.12123518 0.91850835
0.29680714 -0.12574054 0.9208709
0.2981824 -0.12997657 0.92290652
0.30016339 -0.13439237 0.92447406
0.30296758 -0.13868022 0.9258222
0.30436787 -0.14144079 0.92563337
0.29836464 -0.10873015 0.91012567
0.29706231 -0.11213576 0.912696
0.29748502 -0.11356542 0.9164114
0.30548146 -0.13944066 0.92809862
0.30675206 -0.14289084 0.92686045
0.31001383 -0.14595507 0.92710537
0.30138811 -0.1041028 0.90617579
0.29968569 -0.10637411 0.90803313
0.31273311 -0.14781363 0.92725879
0.31557089 -0.1497021 0.92695886
0.30542091 -0.10048923 0.90123773
0.3038505 -0.10166277 0.90360677
0.31956404 -0.15156092 0.92650759
0.32164243 -0.15343252 0.92482638
0.30781975 -0.098939203 0.9001562
0.3067618 -0.099167675 0.90362531
0.32342988 -0.15141 0.92772222
0.32485956 -0.1534497 0.92526913
0.31190559 -0.097118422 0.89750057
0.32978117 -0.15439047 0.9237572
0.31616873 -0.096051991 0.89504057
0.33459431 -0.15459755 0.92192888
0.32074174 -0.095660038 0.89278543
0.33900753 -0.15418519 0.91979498
0.32532227 -0.095867813 0.89106345
0.34323198 -0.15318631 0.91724753
0.33016986 -0.09680111 0.88953918
0.33349943 -0.096681505 0.89074814
0.35000181 -0.14883724 0.9148798
0.3473348 -0.15135711 0.91448784
0.33268148 -0.097936615 0.88816351
0.33562669 -0.098621234 0.8884241
0.35128635 -0.14858934 0.91131395
0.34898368 -0.15087311 0.91171438
0.33947051 -0.10062113 0.88770163
0.34248447 -0.10237078 0.88767552
0.3554579 -0.14386392 0.90683573
0.35380775 -0.14613476 0.90852731
0.34511712 -0.10439941 0.88758177
0.34845877 -0.10736887 0.88799351
0.35929713 -0.13458267 0.90229654
0.35809717 -0.13815619 0.90224582
0.35676551 -0.14158337 0.90462893
0.35007769 -0.10994312 0.88737327
0.35211062 -0.1115798 0.88887763
0.3549059 -0.11574333 0.89027685
0.35702026 -0.12011478 0.89203709
0.35839665 -0.1246346 0.8940466
0.35906485 -0.1289445 0.89635128
0.3590304 -0.13340884 0.89902949
0.35838693 -0.13646051 0.89971006
0.29832733 -0.1151605 0.91970295
0.29853809 -0.11882249 0.92223859
0.29918155 -0.12326255 0.92454755
0.30059695 -0.1276741 0.92661196
0.30264881 -0.1319869 0.92825812
0.30475894 -0.13572846 0.92915726
0.3003704 -0.10702254 0.91375673
0.29961717 -0.10971657 0.91649336
0.29921964 -0.11260969 0.91926473
0.30687058 -0.13704093 0.93044716
0.30915597 -0.14038683 0.93043566
0.31181002 -0.14339 0.93035996
0.30340385 -0.10234121 0.9096036
0.30213234 -0.10436933 0.91229868
0.31483981 -0.14482066 0.93090576
0.31725955 -0.14718683 0.93013096
0.30593863 -0.099955864 0.90798354
0.32112697 -0.1484227 0.93016714
0.31015411 -0.097015873 0.90396553
0.30894053 -0.097691655 0.90634167
0.32511327 -0.14934933 0.92996681
0.32693243 -0.15072161 0.92863309
0.31383505 -0.095402986 0.9018383
0.33134621 -0.15126657 0.92754424
0.31813249 -0.09430664 0.89940345
0.33598974 -0.15154783 0.92569923
0.32260197 -0.093904838 0.89721441
0.34050602 -0.15109208 0.92358416
0.32734647 -0.094168864 0.89536893
0.34483656 -0.15007612 0.92095447
0.33147609 -0.095068462 0.89372784
0.33408406 -0.095390707 0.89415807
0.35025358 -0.14702517 0.9178232
0.3482106 -0.14875567 0.91845268
0.33742669 -0.096989237 0.89279461
0.35269845 -0.1454678 0.9150005
0.34077781 -0.098783702 0.89194912
0.34381485 -0.10038469 0.89237505
0.35657048 -0.14091201 0.91092634
0.35483095 -0.14361812 0.91229075
0.34650624 -0.10269286 0.89172095
0.34948003 -0.10516065 0.89242232
0.35225624 -0.10769744 0.89364755
0.35989991 -0.1322746 0.90490621
0.35901403 -0.1357827 0.90663201
0.35780042 -0.13906181 0.90830994
0.35358483 -0.11002378 0.89321238
0.35596594 -0.11343295 0.89474511
0.35806105 -0.11787097 0.89639091
0.35939831 -0.12218153 0.89833546
0.36007464 -0.12657556 0.90068227
0.36002904 -0.13067472 0.90270168
0.30028981 -0.11451899 0.92272848
0.30123654 -0.11695158 0.92534482
0.30231601 -0.12075076 0.92792898
0.30365202 -0.12504864 0.92989731
0.30515698 -0.12943093 0.93109924
0.30611986 -0.13304248 0.93125039
0.30257472 -0.10775925 0.91978103
0.30197263 -0.11146518 0.9227435
0.30266511 -0.11474949 0.92598909
0.30634329 -0.12606514 0.93228906
0.30724698 -0.12928613 0.9327563
0.30889785 -0.13369517 0.93300462
0.31187943 -0.137585 0.93345159
0.31310445 -0.14116184 0.93246925
0.30496955 -0.10288006 0.91592276
0.30444208 -0.10521016 0.91935885
0.31480637 -0.13851033 0.9344883
0.31717646 -0.14160031 0.93383169
0.30834842 -0.098871469 0.91197646
0.30776736 -0.10016245 0.9150793
0.32094055 -0.14267221 0.93431294
0.32276046 -0.14500515 0.93313748
0.31275254 -0.095627449 0.9065063
0.31185597 -0.096398875 0.90963304
0.32743669 -0.14631528 0.93248409
0.32926926 -0.14848606 0.93070406
0.31599343 -0.094381273 0.9056797
0.31596762 -0.094515592 0.90847731
0.33223662 -0.14612065 0.93211848
0.33281112 -0.14809972 0.93037891
0.32021013 -0.093303904 0.90406483
0.31923157 -0.093489587 0.90758419
0.3372691 -0.1478074 0.92909014
0.32478738 -0.092880398 0.90188015
0.3279756 -0.092657305 0.9033854
0.34423104 -0.14505114 0.92733544
0.3417328 -0.14737971 0.92697126
0.32889405 -0.093234323 0.89938498
0.33083522 -0.093114108 0.90125275
0.34705138 -0.1448032 0.92493016
0.34567842 -0.14683925 0.92423934
0.33169958 -0.093974076 0.89718306
0.33464351 -0.094264545 0.89875883
0.35019416 -0.14417633 0.92165774
0.34816438 -0.14671418 0.92160863
0.3389819 -0.096016735 0.89726174
0.34196579 -0.09705285 0.89846164
0.35513636 -0.13945569 0.9179287
0.35338864 -0.14223845 0.91843975
0.34149498 -0.097800612 0.8950364
0.34476313 -0.099185407 0.89689434
0.34791607 -0.10107349 0.89829379
0.3583762 -0.13444586 0.91371953
0.35695857 -0.13793018 0.91459376
0.34719202 -0.10167845 0.89477718
0.349792 -0.10326687 0.89697415
0.35320103 -0.10678501 0.89822215
0.35574815 -0.10986044 0.90053844
0.36003074 -0.12100784 0.90647268
0.36033541 -0.12445351 0.90726334
0.36015588 -0.12901987 0.90844822
0.35926524 -0.13321577 0.9106968
0.35464427 -0.10945785 0.8967554
0.35639539 -0.11180559 0.89874196
0.35834673 -0.11555469 0.90108323
0.35971546 -0.11997813 0.90301991
0.3603563 -0.1245029 0.90456468
0.36042136 -0.1280501 0.90533793
0.30453414 -0.12055681 0.93013269
0.30551696 -0.1234047 0.93147701
0.30501574 -0.10718489 0.92274362
0.30553463 -0.10973924 0.92565739
0.30576968 -0.11372188 0.92853826
0.30641711 -0.11797301 0.93092895
0.30781072 -0.12244479 0.93298697
0.30987966 -0.12683132 0.93454134
0.31205645 -0.13092668 0.93536538
0.31354627 -0.13471533 0.9352951
0.30766708 -0.10203567 0.91897416
0.3076154 -0.104376 0.92232889
0.30781895 -0.10733482 0.92586446
0.31514812 -0.1311204 0.93669581
0.31721088 -0.13523237 0.93643188
0.31929445 -0.1386126 0.93590814
0.31108874 -0.097886562 0.91463804
0.31081244 -0.099520355 0.91812307
0.31070957 -0.10155211 0.92177886
0.32124555 -0.13567071 0.93734586
0.32315183 -0.13921186 0.93629003
0.3250936 -0.14238642 0.93501651
0.31442106 -0.096114792 0.91381788
0.31448299 -0.097073846 0.91687679
0.3277854 -0.13954791 0.93638879
0.32888064 -0.14221534 0.93500888
0.31841263 -0.094302684 0.91167223
0.33356079 -0.14282154 0.93393457
0.32228631 -0.09288945 0.90622866
0.32265851 -0.093112595 0.90923274
0.33825177 -0.14312291 0.93220323
0.33861661 -0.14556096 0.93042725
0.32480535 -0.092640251 0.90500325
0.32718748 -0.092694134 0.90715152
0.34287164 -0.14252937 0.93010241
0.3411915 -0.14526528 0.92926747
0.33183283 -0.093045473 0.90515333
0.3470839 -0.1415607 0.92745912
0.33622462 -0.094069347 0.9033308
0.33895063 -0.094893008 0.90516245
0.35206217 -0.13732581 0.9247238
0.35075104 -0.14023009 0.92446053
0.33909813 -0.095217459 0.90118092
0.3422986 -0.096575052 0.90291512
0.34564885 -0.09839651 0.9048211
0.35615525 -0.13237348 0.92073774
0.35475725 -0.13627918 0.92115229
0.35309935 -0.13975792 0.92158031
0.34529787 -0.098502412 0.90108919
0.34835532 -0.10064524 0.9028312
0.3513096 -0.10325497 0.90482694
0.3588025 -0.12712887 0.91574287
0.35792711 -0.13138527 0.91698676
0.35685393 -0.13503459 0.9177897
0.35057145 -0.10290218 0.90079844
0.35291755 -0.10530701 0.90281135
0.35562515 -0.10906927 0.90453911
0.35777208 -0.11330327 0.90622592
0.35916001 -0.11777277 0.90835947
0.359716 -0.12214655 0.91065359
0.35962379 -0.12657796 0.91260356
0.35922769 -0.13040751 0.91345233
0.35838389 -0.11478996 0.90388393
0.35927138 -0.11744031 0.90499896
0.30826494 -0.10987531 0.92836261
0.30895549 -0.11260712 0.93054706
0.30995217 -0.11626095 0.93284404
0.31129405 -0.12043667 0.93477267
0.3127735 -0.12452535 0.93603206
0.31368032 -0.12767057 0.93648756
0.31073195 -0.10383704 0.9247824
0.31102335 -0.10681237 0.92790157
0.31163418 -0.11041247 0.93095315
0.31277415 -0.11462613 0.93375063
0.31424668 -0.119146 0.93586469
0.31593889 -0.12391473 0.93720543
0.31775159 -0.12824625 0.93778908
0.31949788 -0.13220648 0.93780202
0.31364727 -0.099401325 0.92094284
0.31381142 -0.10152626 0.92415982
0.31419671 -0.1044618 0.92779571
0.32170045 -0.12817842 0.93868297
0.32358158 -0.13242969 0.9383533
0.32501739 -0.13598181 0.93765628
0.3178215 -0.095578231 0.91609061
0.31731483 -0.097369909 0.91977453
0.3175374 -0.099273875 0.92330551
0.32802051 -0.1325199 0.93851423
0.32935771 -0.13611938 0.93749315
0.32070056 -0.094540983 0.91490614
0.32147294 -0.095581599 0.91811365
0.33414781 -0.13611548 0.93674606
0.33473277 -0.13940033 0.9354164
0.3247349 -0.09357167 0.91310793
0.32613114 -0.094388232 0.91613692
0.33908606 -0.13592997 0.93523109
0.33899802 -0.13914804 0.93403834
0.3290849 -0.09318506 0.91107416
0.33072019 -0.093961105 0.91391003
0.34371668 -0.13555087 0.9329915
0.34331995 -0.13862833 0.93201411
0.33320752 -0.093418017 0.9088468
0.33525267 -0.094313107 0.91146988
0.34788999 -0.13486673 0.9301554
0.34709769 -0.13821101 0.92947936
0.33601412 -0.09393128 0.90722388
0.3393077 -0.095332846 0.90926355
0.34221873 -0.096996099 0.91145843
0.35251039 -0.13030443 0.92674685
0.35142881 -0.13401952 0.92693204
0.34985495 -0.13772288 0.92715663
0.34274185 -0.096681282 0.90681362
0.34558254 -0.098658577 0.90897435
0.34843802 -0.10121868 0.91132832
0.35591581 -0.12498789 0.92221254
0.35509634 -0.1293862 0.92325604
0.35424507 -0.13322519 0.92361695
0.34830034 -0.10043664 0.90668833
0.35087276 -0.10311469 0.90881479
0.35345787 -0.10662781 0.91100311
0.35554856 -0.11076751 0.91331106
0.356976 -0.11529086 0.91532689
0.35760915 -0.12009313 0.91728902
0.35762307 -0.12460437 0.91864735
0.35716465 -0.12869646 0.91971159
0.35319257 -0.10541885 0.90651435
0.35502845 -0.10825671 0.90843862
0.35683489 -0.11202467 0.91038388
0.35805893 -0.11604936 0.91236335
0.35875365 -0.12011278 0.91389918
0.35899565 -0.1234747 0.91483432
0.31441933 -0.10718887 0.93031853
0.31486106 -0.10979205 0.93227619
0.31587636 -0.11358212 0.93464917
0.31719273 -0.11774087 0.93655926
0.3187466 -0.12190605 0.93785441
0.32002839 -0.12505925 0.93844193
0.31698582 -0.10174852 0.92635852
0.31712866 -0.10442507 0.92911834
0.31839561 -0.10800139 0.93238807
0.31993964 -0.11183331 0.93502426
0.32138571 -0.11640776 0.93712974
0.32246482 -0.12113819 0.93838441
0.32381612 -0.12573658 0.93894422
0.32562843 -0.12921834 0.93898642
0.32016662 -0.099838741 0.92514563
0.32170647 -0.1026636 0.92882919
0.32215354 -0.10610749 0.93198013
0.32223433 -0.10918585 0.93411398
0.32478654 -0.11716788 0.93781412
0.32661197 -0.12055948 0.93860763
0.32856512 -0.12485708 0.93898505
0.32946071 -0.12958233 0.93880361
0.33157402 -0.13265267 0.9381811
0.32357797 -0.096507609 0.92082202
0.32459885 -0.098337218 0.92399132
0.32561442 -0.10057195 0.92712563
0.33344451 -0.12511586 0.93840885
0.33430731 -0.12901685 0.93808329
0.33496171 -0.13274558 0.93744141
0.32770747 -0.095518082 0.91903037
0.32938242 -0.097469017 0.9225567
0.33663237 -0.12545085 0.93763709
0.33902273 -0.12826815 0.93667716
0.33940989 -0.13263278 0.9359715
0.331846 -0.09505038 0.91687268
0.3339591 -0.097033426 0.9203524
0.33718145 -0.098611601 0.9215616
0.34357399 -0.12769474 0.93451601
0.34360662 -0.13222523 0.93395591
0.33604565 -0.095310315 0.91477287
0.33815631 -0.097059704 0.91750538
0.34045959 -0.099245526 0.92004573
0.34817818 -0.12368825 0.93125832
0.34773433 -0.12773928 0.93165869
0.34752584 -0.13158719 0.93139237
0.33893508 -0.095848851 0.91320485
0.34205538 -0.097775646 0.91459739
0.34434667 -0.1005211 0.91796064
0.34725749 -0.10386576 0.91989702
0.34902835 -0.10665237 0.92134005
0.35160747 -0.11440314 0.92481989
0.35169509 -0.11822058 0.92654181
0.35134941 -0.12254436 0.92805141
0.35136965 -0.12762296 0.92830914
0.34523845 -0.099117041 0.91283154
0.34778839 -0.10166862 0.91450155
0.34998965 -0.10500155 0.91713238
0.35167021 -0.10889205 0.91981065
0.35307756 -0.11333431 0.92184359
0.35409185 -0.11820443 0.92324352
0.35440549 -0.12297523 0.92428714
0.35384828 -0.12670739 0.9254517
0.35226887 -0.10620545 0.91429949
0.35406592 -0.10992884 0.91631883
0.35544822 -0.1141623 0.91815364
0.35607827 -0.11842551 0.91996735
0.35616803 -0.12147608 0.92114794
0.3231625 -0.11229949 0.93586981
0.32366896 -0.11428035 0.93676025
0.32472116 -0.10335469 0.93002874
0.32470414 -0.10633565 0.93244362
0.32547921 -0.11021588 0.93494606
0.32684419 -0.11451778 0.93693459
0.32864359 -0.11886629 0.93819624
0.33026746 -0.12193734 0.93865806
0.32760379 -0.10188864 0.92857343
0.32891491 -0.10511536 0.93147045
0.33052337 -0.10907066 0.93406612
0.331918 -0.11345252 0.93607986
0.33306476 -0.1181813 0.93745679
0.33405918 -0.12253392 0.93805879
0.3315368 -0.098753028 0.92423701
0.33172864 -0.10062137 0.92657322
0.33364159 -0.10425799 0.92987972
0.33528605 -0.10822509 0.9324789
0.33662325 -0.1126928 0.93455654
0.33777326 -0.11741005 0.93593413
0.33854082 -0.12251693 0.93669796
0.33966288 -0.12533432 0.93652523
0.33367124 -0.098570079 0.92328107
0.3362374 -0.10023105 0.92444837
0.33811352 -0.10386468 0.92776287
0.33978328 -0.10791401 0.93039012
0.34121931 -0.11232039 0.93238056
0.34231803 -0.11708718 0.93378311
0.34312826 -0.12217186 0.93451005
0.34251285 -0.12502436 0.93517423
0.34048027 -0.10071683 0.92243326
0.34234929 -0.10378265 0.9249444
0.34412923 -0.10790009 0.92757577
0.34538648 -0.11227835 0.92965585
0.34654945 -0.11706041 0.9309929
0.34692436 -0.12135366 0.93189812
0.34374839 -0.10167586 0.92091924
0.34589964 -0.10432774 0.92223316
0.34801808 -0.10824306 0.92420959
0.34931588 -0.11253608 0.92621773
0.34987777 -0.11691349 0.92798769
0.34948727 -0.12035567 0.92957097
0.35026789 -0.10934825 0.92257178
0.35107949 -0.11191072 0.92374688
