# .PCD v0.7 - Point Cloud Data file format
VERSION 0.7
FIELDS x y z
SIZE 4 4 4
TYPE F F F
COUNT 1 1 1
WIDTH 837
HEIGHT 1
VIEWPOINT 0 0 0 1 0 0 0
POINTS 837
DATA ascii
0.053943619 0.017618295 0.57242149
0.055265248 0.015209832 0.57195961
0.050161306 0.024744119 0.57844472
0.052158073 0.022188345 0.57674992
0.054658182 0.018374315 0.57517195
0.056912161 0.014096941 0.57432777
0.058720097 0.0095988112 0.57414913
0.059955582 0.006073284 0.57483226
0.050335482 0.025354093 0.58199924
0.053404398 0.022206971 0.58109814
0.05628977 0.018281845 0.58014369
0.058606118 0.013875174 0.57932955
0.060177412 0.0092109805 0.57839179
0.061104123 0.004776218 0.5780201
0.048405498 0.02716451 0.58755904
0.050632529 0.025387181 0.58679855
0.054253712 0.021801099 0.58600211
0.057183523 0.017836334 0.58513367
0.059528343 0.013372145 0.58430696
0.061137799 0.008684122 0.58344036
0.06203378 0.0035555447 0.58248842
0.062364407 0.00052734732 0.5831849
0.048674233 0.026558643 0.59098029
0.050868005 0.024534183 0.59179312
0.05450052 0.02095882 0.59087044
0.057494059 0.016871501 0.59011996
0.059782237 0.012503929 0.5892294
0.061381444 0.0078500211 0.58826262
0.062275447 0.0027683778 0.58736217
0.062487759 0.00013069611 0.5856815
0.051094942 0.022879476 0.59618711
0.054118678 0.019602563 0.59595132
0.057055295 0.015732169 0.59493607
0.059364796 0.011362186 0.59399652
0.060974445 0.0065339869 0.59316438
0.061799731 0.0024227528 0.59206659
0.051317431 0.021046728 0.59935468
0.053391982 0.018035818 0.60000134
0.055992413 0.014062502 0.5997619
0.05820141 0.0098570324 0.59890097
0.05991821 0.0055667516 0.59745586
0.060951311 0.0024823248 0.5957467
0.055558775 0.012280345 0.60225654
0.056833893 0.0098309936 0.6017977
0.045486365 0.023514634 0.56882083
0.047412746 0.021034632 0.5676595
0.049679473 0.017469183 0.56639725
0.051894724 0.013233145 0.56553525
0.053625766 0.0091277175 0.56526631
0.04334728 0.027875194 0.57433665
0.045696706 0.025440738 0.57225841
0.049079336 0.022072518 0.57105887
0.052057788 0.018095272 0.57003009
0.054377522 0.013630431 0.56911105
0.055952199 0.0089217685 0.56840765
0.056874305 0.004264696 0.56803793
0.057704564 0.00036002032 0.56870949
0.043863695 0.028783565 0.57791394
0.047587883 0.026087826 0.57665139
0.050470356 0.023007004 0.57480699
0.052356552 0.020351848 0.57341737
0.056839835 0.011710341 0.57160777
0.058141619 0.0083413096 0.57187164
0.059208982 0.0038998183 0.57225555
0.059343167 -0.00083279714 0.57193559
0.059763066 -0.0047040461 0.57349497
0.041633703 0.030843584 0.58348751
0.044968195 0.029097678 0.58257282
0.048170581 0.026964685 0.5814485
0.060974471 0.0025422508 0.57650679
0.061041772 -0.0015840317 0.57657927
0.060614105 -0.0054236278 0.57629955
0.041965198 0.030712748 0.58832252
0.04590369 0.028734798 0.587506
0.061925609 0.0013577089 0.58003765
0.062065855 -0.0021388587 0.58148342
0.061456453 -0.0063922489 0.58071911
0.042393405 0.029810403 0.59301186
0.046184283 0.027852202 0.59257036
0.048752777 0.025791388 0.59395069
0.062407907 -0.00022315152 0.58851278
0.062311519 -0.0029756529 0.58647466
0.061730511 -0.0071539078 0.5856021
0.042495593 0.02840074 0.59740603
0.045763858 0.026519926 0.59741688
0.049019244 0.024173899 0.59747881
0.061793789 -0.00025316712 0.592713
0.061767042 -0.00410276 0.59136653
0.06134814 -0.0077789621 0.59016615
0.044923015 0.024748163 0.60184592
0.048918717 0.021773638 0.60165644
0.051887188 0.018175261 0.60225701
0.053953502 0.015016705 0.60251778
0.05821313 0.0069170091 0.60086167
0.059461858 0.0037289197 0.59936476
0.06049813 -0.00033683155 0.59728187
0.060590412 -0.0049710711 0.59595257
0.060670435 -0.0080165742 0.59371978
0.044940628 0.022405239 0.605129
0.047526672 0.019589087 0.60578322
0.050814688 0.016041243 0.60559767
0.05384098 0.012107247 0.60481662
0.056201797 0.0076800846 0.60387379
0.057699502 0.0029039942 0.60294044
0.058613732 -0.0016299115 0.60155106
0.059310868 -0.004981271 0.59951073
0.049379323 0.014086116 0.60854083
0.05187615 0.010174382 0.60823864
0.054084718 0.0060339137 0.60736781
0.055705316 0.0020474344 0.60615242
0.042693973 0.019790782 0.56273609
0.045272008 0.016077314 0.56157321
0.047405548 0.011970293 0.56073225
0.049081523 0.0076577701 0.56030846
0.039000187 0.027040778 0.56900185
0.04163938 0.024422081 0.56703204
0.04461167 0.021129182 0.56535369
0.047478296 0.016943296 0.56387192
0.049892664 0.012471696 0.56304669
0.05171144 0.0077183321 0.56269288
0.052956767 0.0030463589 0.56284881
0.053674791 -0.001141471 0.56331956
0.037053272 0.030324219 0.57435149
0.039978482 0.028474076 0.57242572
0.043155972 0.026035886 0.57050842
0.055545144 0.0020483546 0.56567484
0.056044791 -0.0021988563 0.56640887
0.056116279 -0.006100757 0.56721836
0.03459812 0.032592945 0.58066338
0.037761159 0.031352729 0.57851541
0.04088619 0.029839898 0.57670832
0.05836466 -0.0034543648 0.57022864
0.057921935 -0.0072619068 0.57075089
0.057528786 -0.011090508 0.57215381
0.035164233 0.032844111 0.58426362
0.038273819 0.031986039 0.58332556
0.05956072 -0.0083672106 0.57512039
0.058553901 -0.011760105 0.57529873
0.035632696 0.032642461 0.58909822
0.0387506 0.03188796 0.58838761
0.060558002 -0.0096331369 0.58008969
0.059411738 -0.012736681 0.57977641
0.035799906 0.031849284 0.59369922
0.039150618 0.030967677 0.59348178
0.060825102 -0.010514944 0.58514762
0.059633918 -0.013631606 0.58460659
0.035863087 0.030520385 0.59794253
0.039221931 0.029278366 0.59848577
0.060343482 -0.011052647 0.59037429
0.059264474 -0.014219273 0.58910871
0.038913138 0.027183512 0.60275799
0.042235155 0.025156569 0.6036889
0.059715703 -0.0080317594 0.59684896
0.059195545 -0.01150022 0.5949403
0.058556177 -0.014665031 0.59248406
0.03851524 0.02487036 0.60635209
0.04179462 0.02245813 0.60723555
0.045048136 0.019553887 0.60796255
0.05752695 -0.0040425155 0.60318768
0.05777378 -0.0081205936 0.60114861
0.057735343 -0.011687354 0.5988993
0.040895857 0.019930562 0.61020207
0.043971475 0.016957182 0.61067194
0.047022525 0.013171948 0.61095738
0.049844403 0.0089560337 0.61066306
0.052261565 0.0043772189 0.60973352
0.054085936 -0.00016914785 0.60821772
0.055168286 -0.0046153609 0.60643911
0.055809785 -0.008284729 0.60447204
0.043319203 0.013649294 0.61313075
0.045237839 0.011050973 0.61319703
0.04790492 0.0072299987 0.61274272
0.050043698 0.0030587735 0.61194831
0.051616974 -0.001227568 0.61079097
0.052550387 -0.0040100394 0.60965115
0.040270731 0.012910159 0.5571574
0.041557282 0.010136332 0.55658627
0.034089684 0.02500779 0.56425261
0.036964141 0.022716785 0.56275439
0.039565019 0.019062296 0.56062084
0.041841757 0.015002053 0.5589813
0.044215895 0.010563137 0.55811745
0.04632172 0.0059643774 0.55797267
0.048098665 0.0015641934 0.55850446
0.04857209 -0.0024278173 0.55881274
0.032567162 0.029034933 0.56966317
0.035196263 0.027103378 0.56742054
0.038213275 0.024514111 0.56513351
0.050631531 0.00077115453 0.56038773
0.051331513 -0.0035992777 0.56128174
0.051661953 -0.0075063352 0.56237572
0.030474873 0.031879164 0.57573682
0.033165775 0.030641334 0.57328069
0.036053412 0.029040994 0.57087356
0.053875215 -0.0049884338 0.56401557
0.053845774 -0.0090664998 0.56539774
0.053392328 -0.012686795 0.56664556
0.031267297 0.032706052 0.57933474
0.034016456 0.031959739 0.57738024
0.056040093 -0.010163588 0.56889051
0.05532274 -0.013301547 0.56998849
0.031241462 0.033313897 0.58407211
0.05661707 -0.015107029 0.5744006
0.028402844 0.033241592 0.59040612
0.031227503 0.033236854 0.58910197
0.057389237 -0.016585166 0.57924575
0.055918761 -0.01920557 0.57973516
0.028619554 0.032755695 0.59320295
0.031484343 0.032362998 0.59414995
0.05759228 -0.017511256 0.58419788
0.056061588 -0.019717406 0.58254254
0.032006461 0.0307485 0.59886867
0.057378504 -0.017666018 0.58911747
0.032422863 0.028588569 0.6031093
0.035260655 0.027327731 0.60436898
0.057448257 -0.01493292 0.59587657
0.056527413 -0.017542904 0.59394914
0.03178487 0.026532831 0.60637623
0.03488455 0.024660731 0.6078819
0.038071819 0.02241396 0.60926211
0.05592211 -0.011537674 0.60252386
0.055652577 -0.01486527 0.60000259
0.055055454 -0.017887147 0.59760481
0.034574427 0.02196924 0.61075729
0.037508648 0.019345235 0.612001
0.040700238 0.016299654 0.61289388
0.053161271 -0.0073628537 0.6081664
0.053552255 -0.01140875 0.60586023
0.053746235 -0.014601453 0.60351348
0.03669925 0.016369956 0.61431861
0.039618127 0.013692053 0.61471772
0.042223901 0.0096492507 0.61526567
0.044652253 0.0051930142 0.61521643
0.047082476 0.0007922462 0.61426562
0.049167946 -0.0033903662 0.61261213
0.050747387 -0.0075673056 0.61045414
0.050988413 -0.011072479 0.60896027
0.043292128 0.0025868057 0.61634624
0.04420919 0.00074082694 0.61599785
0.03185457 0.019086026 0.5585174
0.034419581 0.016694346 0.55742967
0.037195936 0.012984812 0.55620754
0.039371505 0.0086222012 0.55530381
0.041031852 0.004113269 0.55494374
0.041557673 0.00054840359 0.55481732
0.030406673 0.024723602 0.56343728
0.032760046 0.021515271 0.56060356
0.035849981 0.018528001 0.55890906
0.038295418 0.01577024 0.55787486
0.043394744 0.0041765822 0.5559777
0.044354483 -0.00056273316 0.55617946
0.04599268 -0.0049658073 0.55748236
0.025223404 0.029770631 0.57093769
0.02835016 0.028543066 0.56851023
0.030873459 0.026789192 0.56592941
0.048385743 -0.0063092099 0.5592947
0.048690271 -0.010120979 0.56076908
0.026669081 0.031267468 0.57421321
0.028864644 0.030435801 0.5719499
0.05105526 -0.011824183 0.56355691
0.050700255 -0.014773583 0.56503552
0.023850322 0.032823615 0.58118719
0.026289534 0.032638248 0.57899535
0.052363358 -0.01717625 0.56902736
0.051435407 -0.019889355 0.57063514
0.024864048 0.033233624 0.58465475
0.027269844 0.0333785 0.58343321
0.054444131 -0.018135207 0.57356393
0.052865941 -0.020383168 0.57389754
0.025415424 0.033124432 0.5894798
0.027969602 0.033517003 0.58694798
0.05397227 -0.021233359 0.57851189
0.025670558 0.032271933 0.59439695
0.028496705 0.031962927 0.59621328
0.054283686 -0.022038123 0.58353162
0.025600575 0.030832449 0.59875381
0.028107625 0.030564414 0.59977818
0.055102009 -0.020947065 0.58957803
0.053701788 -0.022767093 0.58805913
0.024918456 0.029186666 0.60214508
0.027699303 0.028298771 0.60393059
0.053692374 -0.021430846 0.59389406
0.052507006 -0.023515148 0.59160107
0.028374739 0.025433755 0.6078667
0.030752432 0.023992022 0.6094228
0.05292201 -0.018313672 0.60103983
0.052393496 -0.020614887 0.59865642
0.03064937 0.02095174 0.6121465
0.033440102 0.018537572 0.61366439
0.050769813 -0.01479339 0.60699725
0.050888877 -0.01772091 0.60438031
0.033050925 0.015711321 0.61539829
0.035588305 0.011785724 0.61674917
0.038987763 0.0082989251 0.61699831
0.041295204 0.0054638856 0.61683923
0.045706037 -0.0026666443 0.6151033
0.046454974 -0.0061693089 0.61409545
0.047240511 -0.010327805 0.61229903
0.048657268 -0.014047372 0.60941768
0.034901641 0.0088313855 0.6179468
0.037406422 0.0062998356 0.61793482
0.040412813 0.0024010432 0.61751771
0.042611193 -0.0019879229 0.61667269
0.044007648 -0.0062977709 0.61544985
0.044520348 -0.0097220112 0.61430115
0.028116407 0.018649416 0.55810761
0.030403597 0.015271015 0.55615526
0.032674626 0.010962997 0.55448931
0.034963228 0.0066182865 0.55363035
0.037285618 0.0020507942 0.55351812
0.039071169 -0.0019689328 0.5539971
0.024151646 0.025400341 0.56458545
0.026001617 0.023191983 0.56197071
0.028235288 0.020854916 0.55970204
0.041090518 -0.0035699662 0.55483001
0.042010281 -0.0073444075 0.5559116
0.042976692 -0.010972762 0.55741072
0.022087382 0.028869716 0.57031298
0.023826046 0.02747987 0.56749499
0.045055337 -0.012903829 0.55942649
0.04575466 -0.015714748 0.5613842
0.021937385 0.030440053 0.57385117
0.047152564 -0.017916413 0.56407964
0.02044812 0.031877212 0.57994449
0.021899195 0.031746641 0.57774234
0.048786655 -0.019841306 0.5673151
0.048525997 -0.021762962 0.56928706
0.020468565 0.032402765 0.58451009
0.04961329 -0.023388483 0.57329863
0.020309504 0.03221672 0.58952242
0.050244808 -0.024892814 0.57805723
0.020545581 0.031368181 0.59439725
0.050536316 -0.025723377 0.58300531
0.021210326 0.029813053 0.59930241
0.050412662 -0.025922211 0.58807349
0.021702284 0.027903985 0.60321778
0.023309777 0.026954532 0.60524118
0.050387923 -0.024534091 0.59480768
0.049776245 -0.025743118 0.59245741
0.023636673 0.024453385 0.60837322
0.048956975 -0.024002178 0.59865272
0.024407655 0.021868827 0.61113077
0.026229348 0.019607797 0.61313915
0.047339484 -0.020868065 0.60505748
0.047636624 -0.023005562 0.60216802
0.026792381 0.016711369 0.61512631
0.028845681 0.013755759 0.6166656
0.031086694 0.010742577 0.61783087
0.043903545 -0.013778715 0.61291057
0.044925392 -0.016740071 0.61050177
0.045698985 -0.019528389 0.60785407
0.0312056 0.0081843529 0.61856943
0.03361496 0.0043379152 0.61904645
0.035958078 -0.00027493539 0.61893135
0.038251549 -0.0045011761 0.61806023
0.040455889 -0.0088081062 0.61641836
0.042004798 -0.01239103 0.61451751
0.021277472 0.018681759 0.55909443
0.023636943 0.017188841 0.55763882
0.025917284 0.013056922 0.55519247
0.028139392 0.0088143265 0.55357671
0.030399976 0.004481527 0.55270994
0.032782838 -2.7062488e-05 0.55258369
0.035226282 -0.0046840492 0.55327475
0.035348166 -0.0077371048 0.5538066
0.020010792 0.023937965 0.56419724
0.021493137 0.021206552 0.56106573
0.024381895 0.01995063 0.55931824
0.038441751 -0.0058449828 0.55419385
0.037584197 -0.0096259313 0.5549199
0.039262872 -0.013240231 0.55677122
0.017833173 0.027174521 0.56968606
0.019098889 0.025784081 0.56687152
0.040761508 -0.015784694 0.55865794
0.041730139 -0.018209076 0.56065518
0.015276108 0.029150393 0.57628888
0.017077424 0.028878279 0.57370383
0.04315817 -0.020943969 0.5637337
0.042873114 -0.023302523 0.56588495
0.016133837 0.030281587 0.57925427
0.018171843 0.03046027 0.57674122
0.045824431 -0.021651972 0.56633496
0.044660054 -0.024077693 0.56837022
0.015665805 0.030785903 0.58437061
0.045568712 -0.026332185 0.57300389
0.015578527 0.030594556 0.58954197
0.046131238 -0.027846022 0.57771653
0.015748981 0.029708767 0.5944382
0.046332739 -0.028757861 0.58272845
0.016386019 0.02823475 0.59916681
0.046241932 -0.02894506 0.58779317
0.017355435 0.026031213 0.60380757
0.01974234 0.02541602 0.60605091
0.047048986 -0.026880994 0.5956521
0.045851119 -0.028360987 0.59306455
0.017191593 0.024190605 0.60625231
0.018886127 0.022877567 0.60847324
0.044921294 -0.026965411 0.59855783
0.044451274 -0.028442886 0.59577006
0.020015156 0.019927097 0.61160356
0.021410577 0.01765817 0.61364353
0.043121442 -0.023763664 0.60538006
0.043805338 -0.025506163 0.60244322
0.022468394 0.015042982 0.61541992
0.024410563 0.011561836 0.61728036
0.041084498 -0.016166301 0.61308759
0.040607512 -0.019291874 0.61111671
0.04185741 -0.022096576 0.60805345
0.024440007 0.0084987609 0.61833668
0.026931789 0.0065124184 0.61898094
0.029238585 0.0019697375 0.6196394
0.031436484 -0.0026306235 0.61951882
0.033804379 -0.0069163684 0.61864674
0.035971083 -0.011182193 0.61704618
0.038101248 -0.015324237 0.61463332
0.038404644 -0.017941402 0.61306399
0.018545065 0.0171686 0.55897206
0.019285467 0.014835018 0.55741322
0.021409556 0.010803623 0.55505288
0.023696538 0.0065130051 0.55340523
0.025851909 0.0021994296 0.55255288
0.028333288 -0.0022392352 0.55240506
0.030720765 -0.0069203624 0.55307859
0.032900386 -0.0090281665 0.55372947
0.015516005 0.021609111 0.5640083
0.017054349 0.018859703 0.56084991
0.016102746 0.015467973 0.55894804
0.029738694 -0.010175762 0.55379814
0.033084981 -0.011898598 0.55473906
0.035021096 -0.015469965 0.55663264
0.013510997 0.024952022 0.56957245
0.014569928 0.02348379 0.56670374
0.036092684 -0.018046228 0.55838954
0.037425049 -0.020410109 0.56047428
0.012750773 0.02784325 0.57626343
0.012607105 0.026552487 0.57347614
0.038661305 -0.023295039 0.56359726
0.040850688 -0.024339583 0.56578004
0.011757739 0.028045559 0.57914436
0.010158002 0.026261924 0.57641196
0.037340168 -0.026123909 0.5661847
0.040184319 -0.026401903 0.5681985
0.011190651 0.02848269 0.58429688
0.041132566 -0.028624902 0.57284099
0.011109373 0.028296756 0.589329
0.041669898 -0.030195393 0.57771915
0.011425328 0.027451158 0.59436256
0.041923255 -0.031020822 0.58256215
0.011935454 0.025939276 0.5989933
0.041951187 -0.031164732 0.5875932
0.012894455 0.0237689 0.6035828
0.011674484 0.021221599 0.60572404
0.038788676 -0.031049917 0.59536088
0.041432824 -0.030665159 0.59281594
0.01425183 0.022678327 0.6061241
0.01427074 0.020529928 0.60826766
0.040395673 -0.029317936 0.59833485
0.042356294 -0.029520784 0.59572846
0.015793715 0.017827788 0.61137819
0.01683612 0.015263462 0.61349565
0.038449265 -0.026211923 0.60514295
0.039592944 -0.027601413 0.60240388
0.018196385 0.012804691 0.61527306
0.019951185 0.009131683 0.61716604
0.032846011 -0.020473065 0.61270303
0.035966314 -0.021672294 0.61096001
0.037630446 -0.024295924 0.6078704
0.022188505 0.0072814324 0.61826307
0.022419304 0.0043258267 0.61879754
0.024677625 -0.0003176491 0.61946416
0.026997477 -0.0049307062 0.61933553
0.029399913 -0.0093782013 0.6184358
0.031561587 -0.013516563 0.61684382
0.03373694 -0.017592346 0.61444378
0.03594742 -0.01929407 0.61289203
0.015465898 0.012032343 0.55757725
0.01702961 0.0083387317 0.55562896
0.019298954 0.0041422918 0.55398589
0.021576818 -0.00030482339 0.55311334
0.023920469 -0.0047787544 0.55300546
0.026203429 -0.0084992107 0.55346
0.011825226 0.019062696 0.56414062
0.0126135 0.016280716 0.56150365
0.013497712 0.013175585 0.55909848
0.026277067 -0.011187771 0.55424213
0.028718535 -0.014206111 0.5554027
0.03086492 -0.017204063 0.5569756
0.0098876823 0.022560133 0.56983083
0.010223011 0.020442082 0.56693345
0.031325489 -0.019978167 0.55887735
0.033370111 -0.022058137 0.5607608
0.0084909629 0.023478147 0.57328719
0.033841435 -0.02485957 0.56366175
0.0077465698 0.025317533 0.57950175
0.0071426164 0.024089566 0.57711363
0.034174703 -0.02740971 0.56685162
0.035796307 -0.028272415 0.56874824
0.007110646 0.025525261 0.58399934
0.036253214 -0.03028067 0.57283753
0.0069862194 0.025320038 0.58905315
0.036883507 -0.031786501 0.57756835
0.0072712917 0.024493773 0.59396893
0.037076931 -0.032657709 0.58249599
0.0078741182 0.022941938 0.59878707
0.037122302 -0.032797676 0.58766121
0.008967353 0.021259248 0.60285276
0.0086402688 0.019378113 0.60470873
0.0356315 -0.032132987 0.5944283
0.03697595 -0.032333881 0.59203732
0.010258395 0.017578244 0.60782802
0.035594791 -0.03082596 0.59825718
0.011747835 0.015334968 0.61064124
0.01241377 0.012544281 0.61257428
0.033603095 -0.027906571 0.60457039
0.035297759 -0.029265702 0.60183334
0.014307037 0.01026774 0.61463147
0.015539024 0.006874931 0.61617947
0.016562823 0.0032152706 0.61727619
0.029420391 -0.021270601 0.61234224
0.031456407 -0.023756728 0.6099456
0.033375502 -0.025910717 0.60735363
0.018533124 0.0015360151 0.61809129
0.020154487 -0.0025672023 0.61851132
0.022595201 -0.0071308715 0.61841196
0.024867475 -0.011404101 0.61755949
0.027073601 -0.015618717 0.6159339
0.029317519 -0.019069007 0.61394811
0.012991972 0.0093371747 0.55775714
0.013403378 0.0058377087 0.556642
0.014935326 0.0015629822 0.55535483
0.017184142 -0.0027182396 0.55449176
0.019905729 -0.0066412115 0.55414945
0.022653013 -0.0091790045 0.55407649
0.0087805614 0.013565814 0.56265461
0.010252519 0.010019274 0.55980361
0.011046588 0.0058017685 0.55796456
0.016323904 -0.0062811784 0.55524153
0.018583111 -0.0087842084 0.55504012
0.021837417 -0.012184725 0.55530983
0.024375878 -0.016169801 0.5566867
0.027689882 -0.018100087 0.5574289
0.006602956 0.017328022 0.56770754
0.0066732615 0.014162255 0.56497121
0.024162881 -0.018937526 0.55835772
0.026741933 -0.021449735 0.55998063
0.0050553679 0.020145983 0.57342786
0.0044662431 0.017775079 0.57104802
0.026845153 -0.02439552 0.5625999
0.029166354 -0.025869349 0.56420499
0.0048440434 0.022981871 0.58062208
0.0038581956 0.021043727 0.57808292
0.029973008 -0.028708281 0.56811649
0.032495856 -0.029712237 0.57008284
0.0038446859 0.022396017 0.58399808
0.0024020039 0.020529663 0.58248782
0.029369006 -0.031005025 0.5723083
0.031881928 -0.031242752 0.5732578
0.0032905303 0.02169472 0.58855331
0.0016170591 0.019857651 0.58586955
0.031757552 -0.032702871 0.57767057
0.0035408735 0.020817952 0.59356052
0.0020903144 0.018211437 0.5954532
0.029534109 -0.033932973 0.58492923
0.031983152 -0.033557646 0.5825507
0.0046648942 0.019989047 0.59817195
0.0032653343 0.017778533 0.59882462
0.030288219 -0.033795051 0.58856422
0.03252726 -0.033671666 0.58734804
0.0061177388 0.019480886 0.60147315
0.0050820392 0.016691169 0.60301548
0.03117048 -0.03307287 0.59300029
0.033552643 -0.033269335 0.59079808
0.0067660846 0.014349502 0.60699213
0.0065454487 0.011386318 0.6086008
0.028707195 -0.030877216 0.60005206
0.03094051 -0.031720497 0.59773672
0.0091275536 0.01346457 0.60983646
0.0087884087 0.0097351391 0.61126018
0.0091325473 0.0060992264 0.61271822
0.026503637 -0.027283015 0.60601342
0.029065633 -0.028913721 0.60362774
0.011682566 0.0084512159 0.61382383
0.011411965 0.004761742 0.61447519
0.01314238 0.00022051332 0.61586773
0.014031797 -0.004304043 0.61608863
0.01929307 -0.016393336 0.61409163
0.021637423 -0.018895471 0.61317837
0.024746742 -0.021979691 0.61141557
0.027056541 -0.025165299 0.60859215
0.015955159 -0.0010379228 0.61723995
0.01653878 -0.0045269155 0.61713529
0.0180471 -0.0090969186 0.61670482
0.020412067 -0.013442073 0.61585784
0.023176363 -0.017187634 0.61459291
0.025645964 -0.019600641 0.61346895
0.013251048 -0.00097791117 0.55607671
0.014705742 -0.0038942392 0.55556434
0.006332133 0.010612987 0.56324738
0.0067356508 0.0070916875 0.56159759
0.0083669126 0.002991722 0.55941916
0.010435378 -0.0011597342 0.557778
0.012769111 -0.0056226524 0.55687773
0.015221972 -0.010085579 0.55681568
0.017827831 -0.013981299 0.55728722
0.020772384 -0.016759001 0.55772573
0.0038490891 0.014319776 0.56852442
0.0039088167 0.010939874 0.5662207
0.0043406636 0.006975607 0.56389821
0.016829327 -0.016642287 0.55910051
0.020069428 -0.019780485 0.56004208
0.02285121 -0.022374874 0.56129599
0.0023973472 0.017440708 0.57451415
0.0018355865 0.014473828 0.57211137
0.0014817603 0.011090672 0.56967574
0.019375874 -0.022819502 0.56279695
0.022609562 -0.025057534 0.56414717
0.025658954 -0.026980234 0.5657202
0.00095109828 0.017078612 0.57807696
2.7507544e-05 0.014558679 0.57632273
0.022204835 -0.027844066 0.56784368
0.025011858 -0.028964637 0.56888479
0.00012017787 0.017233113 0.58288378
0.025474899 -0.031161027 0.57317281
0.0014667958 0.019374272 0.58922702
-7.160008e-05 0.017108804 0.58791792
0.026052065 -0.032777075 0.57787901
0.028989907 -0.03311896 0.57857448
0.0016041994 0.018915229 0.59199828
0.00013183244 0.016188974 0.59283024
0.026110573 -0.033641495 0.58291477
0.029045107 -0.033626556 0.58136767
0.00090457126 0.014744136 0.59762716
0.026218252 -0.03373272 0.5879792
0.0021652598 0.012969051 0.60197663
0.0014537983 0.0098513318 0.60308939
0.023595622 -0.032456614 0.59443617
0.0263004 -0.033103194 0.59285843
0.0039147995 0.012173785 0.60521758
0.0036313385 0.0085759861 0.60665596
0.0036124364 0.0045393324 0.60802698
0.021199936 -0.029505769 0.60097229
0.024360523 -0.031072935 0.59875071
0.027198557 -0.032280169 0.59640092
0.005822666 0.0070897648 0.60966158
0.0061980151 0.0031499173 0.61080652
0.0068289787 -0.0011444596 0.61163217
0.019320922 -0.024953691 0.60690618
0.022237167 -0.027529882 0.60460633
0.024927597 -0.029391028 0.60250592
0.008880347 0.0020531975 0.61320227
0.0094158147 -0.0018098397 0.61356205
0.011174167 -0.0064053214 0.61407256
0.013417767 -0.010916034 0.61403906
0.015708383 -0.015423462 0.6130951
0.017943474 -0.019527165 0.61140215
0.020504719 -0.023082806 0.60934162
0.023226092 -0.02544078 0.60773641
0.015857022 -0.010524072 0.61544108
0.017290171 -0.013135185 0.61501282
0.0049738754 0.0037705163 0.56240815
0.0059054587 0.0005327462 0.56124175
0.007489128 -0.0034338804 0.56006789
0.0096590854 -0.0076279831 0.55925703
0.012111383 -0.011418771 0.55892771
0.014314557 -0.013875835 0.55875158
0.0016814452 0.0079265879 0.5676285
0.0023465902 0.0041746106 0.56559205
0.0035185255 -3.9697741e-05 0.56371796
0.0052634757 -0.0047049755 0.56227899
0.0075948369 -0.009272893 0.56140399
0.010530777 -0.013593015 0.56105936
0.013513136 -0.017258251 0.56130451
0.016517486 -0.020321431 0.56187367
-0.00021319278 0.011156132 0.57300407
-0.00028256699 0.0078608096 0.57099724
4.9846247e-05 0.0037441235 0.56877738
0.012427308 -0.019969294 0.56410956
0.015842691 -0.023038948 0.56490517
0.018949274 -0.025256442 0.56567782
-0.0012120642 0.014025046 0.57981259
-0.0017239153 0.01097249 0.57708168
-0.0021570288 0.0075589363 0.57500738
0.015228109 -0.025628684 0.56846243
0.018567044 -0.027607523 0.56931239
-0.0017921962 0.01375882 0.58303136
-0.0028274767 0.01070939 0.58176774
0.018333009 -0.029753027 0.57365352
0.02168718 -0.030952612 0.57411283
-0.0021311119 0.013219116 0.58750832
-0.003335014 0.01006105 0.58690119
0.018357189 -0.031387188 0.57855707
0.021671288 -0.03227035 0.57840449
-0.0019038059 0.012350029 0.59224129
-0.0030657649 0.009207014 0.59194094
0.018667281 -0.032281257 0.58362722
0.021787947 -0.03305975 0.58313841
-0.0010301154 0.01140314 0.59675252
-0.0020313878 0.008109686 0.59687525
0.019120796 -0.032376908 0.58869803
0.022345966 -0.033274312 0.58766752
-8.521229e-05 0.010639783 0.59980196
-0.00051513501 0.0067699896 0.60114813
-0.00076517463 0.0028714389 0.60204077
0.016652517 -0.030295579 0.59528261
0.019741662 -0.031787354 0.59348327
0.022865716 -0.033028014 0.59125984
0.0014899522 0.0057548983 0.60496426
0.0015258715 0.0017508444 0.60574818
0.0019301809 -0.0026947232 0.60631621
0.014355989 -0.026419712 0.60161716
0.017492522 -0.028972112 0.599437
0.02055442 -0.030769613 0.59770882
0.0038887113 0.00079579826 0.60879427
0.0045545083 -0.0034095487 0.60922182
0.005868895 -0.0081038103 0.60944533
0.0076972302 -0.012935459 0.60906202
0.010092156 -0.017416945 0.60820031
0.012852859 -0.021575056 0.60665071
0.015794383 -0.024848552 0.60496897
0.018619556 -0.027450601 0.60314262
0.0074104741 -0.004415079 0.61183244
0.008419184 -0.0081697181 0.61172318
0.010182831 -0.012413956 0.61137575
0.012216536 -0.016496336 0.61047411
0.014600249 -0.020021552 0.60935897
0.01680401 -0.022538403 0.60833693
0.00085248053 0.00054705038 0.56704956
0.0018383209 -0.0023393491 0.56582433
0.0034889262 -0.006437433 0.56459641
0.0056587197 -0.01059657 0.56377792
0.0081438143 -0.014491807 0.56347466
0.010229466 -0.017244453 0.56353712
-0.0017518215 0.0045777168 0.57241958
-0.0011117235 0.0012978482 0.57051331
-0.00016918406 -0.0034053177 0.56907171
0.0012979805 -0.0079861553 0.56813341
0.0036823973 -0.012562918 0.56722915
0.0067175739 -0.016470347 0.56643218
0.0099942647 -0.020008007 0.56625098
0.012581106 -0.022873176 0.56696373
-0.0030723028 0.0046258951 0.57609242
-0.0030130111 -9.718549e-05 0.57482398
-0.0020023119 -0.0042031305 0.57279712
-0.00067611784 -0.0072566494 0.5710786
0.0034660175 -0.015275553 0.56951094
0.0055591911 -0.018586142 0.56986219
0.0086094867 -0.022177214 0.57033819
0.012464058 -0.025052311 0.57014024
0.015042707 -0.027435126 0.57153785
-0.0038589165 0.0073115313 0.58188862
-0.0042595416 0.0037327893 0.58067769
-0.0043077804 -3.4743105e-05 0.57939225
0.0084837228 -0.024621297 0.57460648
0.011747029 -0.026948979 0.57463658
0.015073173 -0.028866449 0.57469738
-0.0042308867 0.0067260135 0.58644503
-0.0048189238 0.0024929401 0.58556074
0.0087575112 -0.026050223 0.57756507
0.011278965 -0.028233087 0.57942241
0.015198056 -0.030299051 0.57915735
-0.0039726235 0.0060961079 0.59108597
-0.0045674928 0.001635569 0.59058034
-0.0043810084 -0.001751436 0.59226257
0.011396781 -0.029031491 0.58442861
0.015418793 -0.031084625 0.58375907
-0.0031581409 0.0050101718 0.59558833
-0.0035286397 0.0011578676 0.59552151
-0.0034603626 -0.0029068664 0.59561861
0.0093025118 -0.027332945 0.59079981
0.012461361 -0.029491916 0.58934081
0.01579275 -0.031241452 0.58846807
-0.0022342466 0.0041524181 0.59867185
-0.0018501189 0.00051840011 0.60009813
-0.0017791148 -0.0043681413 0.59963387
-0.00050666556 -0.0089891888 0.60029423
0.00073650293 -0.012369735 0.60039365
0.0048079249 -0.020138571 0.59901357
0.0069683604 -0.02332052 0.59735435
0.0097205564 -0.026395148 0.59533805
0.013738673 -0.029260529 0.59411192
-0.00019749254 -0.00079754193 0.60335183
0.000621574 -0.0046283808 0.60402668
0.0015938487 -0.0093026701 0.60374206
0.0030671991 -0.014016727 0.60288161
0.0053888205 -0.018455328 0.60201216
0.008466471 -0.022495048 0.60105538
0.011755439 -0.025866952 0.59972841
0.014243011 -0.028289182 0.59784675
0.0038493052 -0.0093592945 0.60683709
0.0055364668 -0.013622706 0.606453
0.0078004785 -0.017808914 0.60571176
0.010202143 -0.021584094 0.60435468
0.012034625 -0.024011299 0.60314703
0.00077489205 -0.010549793 0.57024848
0.0018354263 -0.012452115 0.56976926
-0.0035204627 -0.0028944099 0.57653356
-0.0024173111 -0.0060244938 0.57460898
-0.00073233433 -0.010122044 0.5730958
0.0015046149 -0.014434382 0.57224512
0.0041255094 -0.018539865 0.57212186
0.0061676074 -0.021355556 0.57254994
-0.0043020099 -0.0027605183 0.57999015
-0.0034447871 -0.0070619015 0.57885575
-0.0018626209 -0.011717223 0.57796478
0.00042187795 -0.016104449 0.57710803
0.0033785477 -0.020127272 0.57630336
0.006478399 -0.023366166 0.57585949
-0.0049915724 -0.00045655959 0.58618057
-0.0047851168 -0.0030616438 0.58471209
-0.0039007626 -0.0081752772 0.58377099
-0.0023157466 -0.012858903 0.58290529
1.1345372e-05 -0.017301355 0.58194911
0.002957765 -0.021320267 0.58114928
0.0066166595 -0.024938395 0.58026928
0.0088714845 -0.026933834 0.58066994
-0.0048978627 -0.00091371976 0.58847958
-0.0045316182 -0.0039570574 0.5896244
-0.0036492124 -0.0090540908 0.58864933
-0.0020157974 -0.01381325 0.58777189
0.00029621832 -0.018221097 0.58695608
0.003276255 -0.022254234 0.58609015
0.0069317389 -0.025860172 0.58526945
0.0089842509 -0.027461255 0.58379287
-0.0035849139 -0.0052410383 0.59406888
-0.0027202256 -0.0095140841 0.59363103
-0.0010481216 -0.014372487 0.5928275
0.0012150686 -0.018725259 0.59182358
0.0042354185 -0.02275938 0.59104151
0.0072015356 -0.025822708 0.5899415
-0.0023973528 -0.0065641915 0.59734482
-0.0012441967 -0.0099988822 0.59785467
0.00058083609 -0.014512641 0.59771615
0.0028086752 -0.018796047 0.59680182
0.0053375419 -0.022565879 0.59538645
0.0073319003 -0.02519704 0.59348708
0.0020945426 -0.015273777 0.60018492
0.0034324192 -0.017835606 0.59968191
