# .PCD v0.7 - Point Cloud Data file format
VERSION 0.7
FIELDS x y z
SIZE 4 4 4
TYPE F F F
COUNT 1 1 1
WIDTH 1294
HEIGHT 1
VIEWPOINT 0 0 0 1 0 0 0
POINTS 1294
DATA ascii
-0.28409997 0.10430969 0.44059309
-0.28163132 0.10350741 0.4400869
-0.2767323 0.1024966 0.44008145
-0.2718415 0.10152248 0.44004688
-0.26689649 0.10069855 0.44005424
-0.26198909 0.099768139 0.44003022
-0.2571241 0.098863259 0.44003507
-0.25204083 0.09772259 0.44003487
-0.24709092 0.096967243 0.44002685
-0.24227206 0.095896341 0.44004494
-0.23756903 0.094964966 0.44002247
-0.23434614 0.094434187 0.44019324
-0.28308389 0.10939015 0.44039041
-0.28052565 0.10890962 0.44
-0.27567104 0.10784498 0.44
-0.27087542 0.10681025 0.44
-0.26590443 0.10592929 0.44
-0.26094925 0.10486336 0.44
-0.25615287 0.10367949 0.44
-0.25114113 0.10290016 0.44
-0.24618144 0.10204326 0.44
-0.24138077 0.1008798 0.44
-0.23651338 0.099986412 0.44
-0.23341545 0.09911558 0.44031826
-0.28217328 0.11394323 0.44050696
-0.27961344 0.11365924 0.44
-0.27480423 0.11282419 0.44
-0.2699016 0.11174694 0.44
-0.2648879 0.11063949 0.44
-0.26005611 0.10969985 0.44
-0.25529176 0.10875317 0.44
-0.25022972 0.1077795 0.44
-0.24535857 0.10672731 0.44
-0.24050312 0.10585773 0.44
-0.23550788 0.10466652 0.44
-0.232372 0.10432011 0.44024861
-0.28118402 0.11888956 0.44039637
-0.27876389 0.11843516 0.44
-0.27385902 0.11777546 0.44
-0.26905242 0.11674502 0.44
-0.26393932 0.1153668 0.44
-0.25899374 0.11473504 0.44
-0.25427324 0.11366168 0.44
-0.24922818 0.11261465 0.44
-0.24439958 0.11161244 0.44
-0.23958237 0.11088868 0.44
-0.23450755 0.10966159 0.44
-0.23130636 0.10905264 0.44030014
-0.28013459 0.12413662 0.44049105
-0.27773201 0.1233674 0.44
-0.27262285 0.1225909 0.44
-0.26776713 0.12156782 0.44
-0.26305488 0.12051342 0.44
-0.25813079 0.11964762 0.44
-0.25337103 0.11854641 0.44
-0.24836905 0.11745173 0.44
-0.24361019 0.11670637 0.44
-0.23849913 0.11561162 0.44
-0.23334859 0.11458798 0.44
-0.230377 0.1141993 0.44016463
-0.27926797 0.12846968 0.44044149
-0.27660835 0.12833489 0.44
-0.27179408 0.12735723 0.44
-0.26692846 0.12652333 0.44
-0.26188633 0.12563702 0.44
-0.25721663 0.12458258 0.44
-0.25234786 0.12334691 0.44
-0.24725878 0.12256948 0.44
-0.24233416 0.12149401 0.44
-0.23750129 0.12036118 0.44
-0.23286799 0.11964148 0.44
-0.22952046 0.11931528 0.44018075
-0.27824366 0.13359132 0.44039729
-0.27583027 0.1331536 0.44
-0.27097243 0.13242915 0.44
-0.26608676 0.13139299 0.44
-0.26102325 0.13057013 0.44
-0.25610495 0.12921214 0.44
-0.25125861 0.12860605 0.44
-0.24612983 0.12745835 0.44
-0.24126559 0.12631729 0.44
-0.23637137 0.1253929 0.44
-0.23165642 0.12434011 0.44
-0.22837104 0.12409801 0.44017667
-0.27715194 0.13904993 0.44053632
-0.2748192 0.13808946 0.44
-0.26967102 0.13746567 0.44
-0.26491311 0.13641043 0.44
-0.26002133 0.13532357 0.44
-0.25525391 0.1342866 0.44
-0.25018227 0.13335603 0.44
-0.24524319 0.13235141 0.44
-0.24040474 0.1313601 0.44
-0.23539343 0.13019755 0.44
-0.23047459 0.12923445 0.44
-0.22736922 0.12861331 0.44033766
-0.27616912 0.14396395 0.44054088
-0.27382272 0.14319155 0.44
-0.26889753 0.14212064 0.44
-0.26391995 0.14099625 0.44
-0.25901374 0.1401635 0.44
-0.25406861 0.13913089 0.44
-0.24926022 0.13811815 0.44
-0.24412625 0.13715711 0.44
-0.23935275 0.13625251 0.44
-0.2345992 0.13520372 0.44
-0.22967042 0.13422315 0.44
-0.22649249 0.13367866 0.44020379
-0.27520072 0.14880596 0.440348
-0.27290019 0.147976 0.44
-0.26790032 0.14709285 0.44
-0.26310542 0.14608908 0.44
-0.25808102 0.14512405 0.44
-0.25332555 0.1439057 0.44
-0.24838153 0.14295346 0.44
-0.24335811 0.14207725 0.44
-0.2385453 0.14116356 0.44
-0.23364423 0.14014934 0.44
-0.22853106 0.13912812 0.44
-0.22538519 0.13873214 0.44030213
-0.27425992 0.15350999 0.44062814
-0.27186006 0.15285182 0.44
-0.26691294 0.15212193 0.44
-0.26214722 0.15107028 0.44
-0.25722697 0.1500372 0.44
-0.25207168 0.14882693 0.44
-0.24742547 0.14781773 0.44
-0.24237415 0.14724731 0.44
-0.23752366 0.14605765 0.44
-0.2326093 0.14522721 0.44
-0.22774783 0.14406578 0.44
-0.22443131 0.143805 0.440301
-0.27327266 0.15844622 0.44073075
-0.27111465 0.1578137 0.44
-0.26596308 0.15700038 0.44
-0.26127249 0.15600601 0.44
-0.25625181 0.15505035 0.44
-0.25120443 0.15376268 0.44
-0.24625339 0.15298806 0.44
-0.24132131 0.1521506 0.44
-0.23657148 0.15089591 0.44
-0.2316789 0.14998879 0.44
-0.22675753 0.1489353 0.44
-0.22357427 0.14815223 0.44031981
-0.272255 0.16353455 0.4404881
-0.27004707 0.16260295 0.44
-0.2649858 0.16173804 0.44
-0.26000282 0.16063331 0.44
-0.25506327 0.15979296 0.44
-0.25019601 0.15870224 0.44
-0.24547774 0.15763599 0.44
-0.24048637 0.15688652 0.44
-0.23531814 0.15596956 0.44
-0.23066932 0.1547306 0.44
-0.22557363 0.15386847 0.44
-0.22265947 0.15321229 0.44023281
-0.27134264 0.16809642 0.44052789
-0.26867467 0.16763934 0.44
-0.26379466 0.16657159 0.44
-0.25916877 0.16581768 0.44
-0.25433347 0.16477284 0.44
-0.24932809 0.16375525 0.44
-0.24428079 0.16277125 0.44
-0.23939419 0.16161373 0.44
-0.23444588 0.16085427 0.44
-0.22956544 0.15966664 0.44
-0.22474787 0.15896799 0.44
-0.22168544 0.15798596 0.44025564
-0.27035862 0.17301644 0.44056827
-0.26820105 0.17249973 0.44
-0.26311502 0.17155799 0.44
-0.25818157 0.17066959 0.44
-0.25315315 0.16967352 0.44
-0.24848604 0.16860662 0.44
-0.24346901 0.16760372 0.44
-0.23857558 0.1667296 0.44
-0.23369581 0.16558397 0.44
-0.22878811 0.16479003 0.44
-0.22372149 0.16377506 0.44
-0.22057143 0.16327895 0.44024944
-0.2693392 0.17811355 0.44036925
-0.26679611 0.17728356 0.44
-0.26199055 0.17657456 0.44
-0.25700948 0.17551601 0.44
-0.25214547 0.17477533 0.44
-0.24750036 0.17335033 0.44
-0.24264431 0.17231244 0.44
-0.23768018 0.17163816 0.44
-0.2324852 0.17060877 0.44
-0.22780919 0.16960806 0.44
-0.22279491 0.168909 0.44
-0.219686 0.16787499 0.44017541
-0.26839605 0.18282929 0.44031629
-0.26576477 0.18229419 0.44
-0.26112956 0.18120846 0.44
-0.25614643 0.18051606 0.44
-0.25123042 0.17940062 0.44
-0.24611506 0.17823762 0.44
-0.24126622 0.17729348 0.44
-0.23635949 0.17647867 0.44
-0.2315686 0.17547813 0.44
-0.22634974 0.1745684 0.44
-0.22195792 0.17359671 0.44
-0.21870559 0.17274156 0.44023809
-0.26751316 0.18724382 0.44052902
-0.26481101 0.18720421 0.44
-0.25995126 0.186263 0.44
-0.25488016 0.18525475 0.44
-0.25008556 0.18446556 0.44
-0.24526291 0.18348864 0.44
-0.24015924 0.18228596 0.44
-0.23544332 0.18146652 0.44
-0.23076057 0.18047112 0.44
-0.2258895 0.17914653 0.44
-0.22075281 0.17839931 0.44
-0.21774849 0.17767754 0.44025061
-0.26639542 0.19283247 0.44047445
-0.26396269 0.19216129 0.44
-0.25904888 0.19131793 0.44
-0.25423691 0.19000655 0.44
-0.24925777 0.18928969 0.44
-0.24432886 0.18811068 0.44
-0.23944712 0.1873145 0.44
-0.23463055 0.1862957 0.44
-0.22966705 0.18520588 0.44
-0.22469169 0.18417856 0.44
-0.21990442 0.18326712 0.44
-0.21665105 0.18228205 0.44028226
-0.26544949 0.19756207 0.44060418
-0.26307264 0.19692849 0.44
-0.25824973 0.19614495 0.44
-0.25337845 0.19500029 0.44
-0.24822947 0.19399402 0.44
-0.24350262 0.19320405 0.44
-0.23840699 0.19236609 0.44
-0.23348406 0.19113356 0.44
-0.22879645 0.19010901 0.44
-0.2237435 0.18923283 0.44
-0.21899924 0.18832532 0.44
-0.21579984 0.18740425 0.44023013
-0.26446131 0.20250306 0.44060192
-0.26201507 0.20208219 0.44
-0.25704196 0.2009109 0.44
-0.25200126 0.2001238 0.44
-0.24742281 0.19884109 0.44
-0.24213821 0.19802186 0.44
-0.23737293 0.19717747 0.44
-0.23248395 0.19588055 0.44
-0.22768235 0.19509083 0.44
-0.22269022 0.19411823 0.44
-0.21796601 0.19319338 0.44
-0.21475643 0.1922996 0.44033441
-0.26347777 0.20742071 0.44060102
-0.26091155 0.20676708 0.44
-0.2562848 0.20597613 0.44
-0.25123307 0.20482959 0.44
-0.24629267 0.20381437 0.44
-0.24132848 0.20304328 0.44
-0.23653968 0.20195988 0.44
-0.23168023 0.20102093 0.44
-0.22656657 0.20004442 0.44
-0.22179055 0.19926986 0.44
-0.21690921 0.19799927 0.44
-0.21372658 0.19737381 0.44024241
-0.26243141 0.21265256 0.44050929
-0.26007223 0.21180815 0.44
-0.2552197 0.21089438 0.44
-0.25048634 0.20996308 0.44
-0.24532276 0.20892625 0.44
-0.24045357 0.20812678 0.44
-0.23563591 0.20703411 0.44
-0.23070788 0.20585771 0.44
-0.22580023 0.20508584 0.44
-0.22084659 0.20396709 0.44
-0.21588135 0.2027933 0.44
-0.21279864 0.20228037 0.44022921
-0.26160529 0.21678312 0.44058567
-0.25907409 0.21676409 0.44
-0.25423771 0.21562833 0.44
-0.24936956 0.21495952 0.44
-0.24432063 0.21362418 0.44
-0.23933989 0.21289745 0.44
-0.23451748 0.21169269 0.44
-0.22973345 0.21084875 0.44
-0.22477654 0.20983441 0.44
-0.21996553 0.20883581 0.44
-0.21485183 0.20777351 0.44
-0.21173325 0.20694299 0.44021729
-0.26040152 0.22280197 0.44043821
-0.25790372 0.22137688 0.44
-0.25311953 0.22047082 0.44
-0.24836712 0.21972996 0.44
-0.24332222 0.21855325 0.44
-0.23845586 0.21760306 0.44
-0.23365857 0.21677606 0.44
-0.22875498 0.21561539 0.44
-0.22387107 0.21490838 0.44
-0.21871573 0.21386817 0.44
-0.21418604 0.21287164 0.44
-0.21082366 0.21232161 0.44028819
-0.25952709 0.22717407 0.44047016
-0.25699055 0.22634427 0.44
-0.25230676 0.22555448 0.44
-0.24729137 0.22435284 0.44
-0.24224871 0.22340775 0.44
-0.2372719 0.2225274 0.44
-0.23247024 0.22168386 0.44
-0.22764014 0.22052354 0.44
-0.22275287 0.21974778 0.44
-0.21787131 0.21857303 0.44
-0.21279547 0.2176162 0.44
-0.20983121 0.21669093 0.44022849
-0.25856453 0.23198693 0.44028938
-0.25601578 0.23135586 0.44
-0.25122765 0.23048 0.44
-0.2462578 0.22938392 0.44
-0.24134253 0.22855839 0.44
-0.23644771 0.22734277 0.44
-0.23152055 0.22662272 0.44
-0.22653764 0.22544631 0.44
-0.22180216 0.22442953 0.44
-0.21692263 0.22368175 0.44
-0.21200056 0.22240205 0.44
-0.20869106 0.22231868 0.44031063
-0.25757819 0.23691861 0.44049913
-0.25525078 0.23648027 0.44
-0.25017944 0.23519859 0.44
-0.24533555 0.23441009 0.44
-0.24038282 0.23348789 0.44
-0.23558968 0.23230708 0.44
-0.23063508 0.23132886 0.44
-0.22574981 0.2304174 0.44
-0.22064456 0.22955276 0.44
-0.21580529 0.2285841 0.44
-0.21109352 0.22765949 0.44
-0.20789111 0.22657423 0.44020408
-0.25667134 0.24145283 0.44047615
-0.25405768 0.24127771 0.44
-0.24898241 0.24023524 0.44
-0.24430439 0.23929073 0.44
-0.23954594 0.23825704 0.44
-0.23457097 0.23733278 0.44
-0.2298187 0.23611729 0.44
-0.22478837 0.23522159 0.44
-0.21984974 0.23439673 0.44
-0.2148535 0.23341238 0.44
-0.2101399 0.23233776 0.44
-0.20698616 0.23144627 0.44023493
-0.25574031 0.24610795 0.44025651
-0.25288743 0.24602289 0.44
-0.24841189 0.24498549 0.44
-0.24358201 0.24403276 0.44
-0.23871663 0.24311367 0.44
-0.23366383 0.2421404 0.44
-0.2286981 0.24109577 0.44
-0.22386229 0.24023038 0.44
-0.21903284 0.23924993 0.44
-0.21399367 0.23827571 0.44
-0.20896651 0.23722917 0.44
-0.20576043 0.23695903 0.44032744
-0.25476703 0.25097442 0.44049117
-0.2521418 0.25120929 0.44001061
-0.24738118 0.24978967 0.44
-0.24228409 0.24908169 0.44
-0.2373994 0.24795505 0.44
-0.23242979 0.2469271 0.44
-0.22763744 0.24615936 0.44
-0.22289518 0.24493694 0.44
-0.21790543 0.24399687 0.44
-0.21300194 0.24300501 0.44
-0.20815617 0.24220207 0.44002661
-0.20500728 0.24132358 0.44017965
-0.25224918 0.25355196 0.44044471
-0.24657187 0.25241649 0.44059622
-0.2419637 0.25149485 0.44050324
-0.2369664 0.2504954 0.44046929
-0.23204862 0.24951185 0.44067472
-0.22746165 0.24859445 0.44051364
-0.22236058 0.24757423 0.44044656
-0.21770164 0.24664244 0.44057453
-0.21237066 0.24557626 0.4406651
-0.20812592 0.24472731 0.44047198
-0.20478299 0.24405873 0.4400728
-0.28408763 0.1043715 0.44363207
-0.28214139 0.1014608 0.44340408
-0.27727047 0.10048661 0.44364196
-0.27236596 0.099505715 0.44349349
-0.26742846 0.098518215 0.44356936
-0.2625016 0.097532846 0.44322857
-0.25753668 0.096539855 0.44335088
-0.25249943 0.095532402 0.44365528
-0.24796064 0.094624653 0.44348216
-0.24293588 0.093619697 0.44368863
-0.23792651 0.092617825 0.44353974
-0.23410851 0.094308801 0.44348216
-0.2831268 0.10917555 0.44346073
-0.2330457 0.099530779 0.44357619
-0.28211695 0.11422487 0.44349
-0.23212153 0.10415178 0.44345829
-0.28113967 0.11911129 0.44349003
-0.23114586 0.10903013 0.44362488
-0.28014657 0.12407681 0.44338405
-0.23017117 0.11390355 0.44341776
-0.27920711 0.12877403 0.44370216
-0.229141 0.11905429 0.44355538
-0.27814811 0.13406909 0.44362253
-0.22817087 0.12390508 0.44338197
-0.27724171 0.13860099 0.4435302
-0.22725263 0.12849624 0.44359416
-0.27624208 0.14359927 0.44327563
-0.2262308 0.1336055 0.44366258
-0.27523679 0.14862561 0.44337672
-0.22528648 0.13832714 0.44371971
-0.27425176 0.15355071 0.4437395
-0.22428633 0.14332794 0.44368288
-0.27332038 0.15820764 0.44360477
-0.22324869 0.14851612 0.44363186
-0.2723102 0.16325858 0.44360173
-0.22232553 0.1531319 0.44356054
-0.27133873 0.16811594 0.44364861
-0.22135863 0.15796649 0.44341961
-0.27034849 0.17306708 0.44351465
-0.22037558 0.16288167 0.44334245
-0.26935923 0.17801349 0.44339478
-0.21941444 0.16768742 0.44338381
-0.26837921 0.1829136 0.44353956
-0.21839976 0.17276074 0.44343945
-0.26738974 0.18786091 0.443533
-0.21742156 0.17765173 0.44349247
-0.26642764 0.19267142 0.44370639
-0.21641307 0.18269426 0.44341299
-0.2654613 0.19750306 0.44355938
-0.21542323 0.18764348 0.44347027
-0.26445854 0.20251697 0.44344863
-0.21446157 0.19245178 0.44368169
-0.26348835 0.20736787 0.44374266
-0.21349053 0.19730696 0.44345209
-0.26249689 0.21232516 0.44352111
-0.21249385 0.20229031 0.44331568
-0.26154217 0.21709874 0.44367704
-0.21151459 0.20718664 0.44355375
-0.26059774 0.22182092 0.44360265
-0.21053183 0.21210045 0.443517
-0.25955954 0.22701193 0.44359216
-0.20953944 0.21706238 0.44333002
-0.25857866 0.23191629 0.44338697
-0.20856141 0.22195256 0.44366041
-0.25759611 0.2368291 0.44328117
-0.20760433 0.22673792 0.44348988
-0.25665072 0.24155606 0.44351599
-0.20662595 0.2316298 0.44349134
-0.25568768 0.24637115 0.44336843
-0.20562485 0.23663534 0.4436633
-0.2546671 0.25147399 0.44361836
-0.24823204 0.25274852 0.44181728
-0.23030424 0.24916297 0.44481978
-0.22523993 0.24815011 0.44446516
-0.21676564 0.24645525 0.44235414
-0.21336296 0.24577472 0.44153324
-0.20793939 0.24468999 0.44478166
-0.20460825 0.24171837 0.44329348
-0.2517412 0.25345039 0.44332165
-0.24675594 0.25245333 0.44378436
-0.24163595 0.25142932 0.44365689
-0.23689185 0.25048047 0.44344887
-0.23240684 0.24958348 0.44357255
-0.22745541 0.2485932 0.44348967
-0.22246495 0.24759513 0.44375974
-0.21738845 0.24657981 0.4434894
-0.21254256 0.24561062 0.44377407
-0.20733804 0.24456973 0.44335711
-0.20456654 0.24401544 0.44353384
-0.28408381 0.10439052 0.44842935
-0.28199229 0.10143098 0.44818544
-0.27721897 0.10047632 0.44854188
-0.27230522 0.099493563 0.4485274
-0.26739815 0.09851215 0.44835514
-0.26238257 0.097509034 0.44856599
-0.2573224 0.096497007 0.4484992
-0.2526772 0.095567964 0.44846427
-0.24761447 0.094555415 0.44853759
-0.2429059 0.093613699 0.44881293
-0.23794317 0.092621155 0.44853562
-0.23412433 0.094298936 0.44843796
-0.28310439 0.10928761 0.44861326
-0.23309943 0.099262327 0.4482674
-0.28212979 0.11416055 0.44827044
-0.23213001 0.10410932 0.44848254
-0.28110245 0.11929735 0.44863513
-0.23113029 0.10910803 0.44838548
-0.28013131 0.12415306 0.44855419
-0.23014292 0.11404485 0.44830304
-0.27917871 0.12891601 0.4487628
-0.22921251 0.11869687 0.44856143
-0.27820241 0.13379754 0.44863477
-0.22821626 0.12367819 0.44834885
-0.27720007 0.1388092 0.44860032
-0.22723344 0.12859216 0.44852215
-0.27623773 0.14362091 0.44838122
-0.22626901 0.1334144 0.44870624
-0.27530393 0.14828989 0.44840473
-0.22527677 0.13837561 0.44854608
-0.27432445 0.15318741 0.44881433
-0.22431645 0.14317724 0.44869211
-0.27330303 0.15829444 0.4485901
-0.22330797 0.1482197 0.44853875
-0.27230904 0.16326444 0.44858584
-0.22230572 0.15323097 0.44859526
-0.27137437 0.16793776 0.44849989
-0.22135699 0.15797465 0.44847617
-0.27034718 0.17307374 0.44856447
-0.22036374 0.1629409 0.44864687
-0.26938027 0.17790824 0.44848958
-0.21937117 0.16790378 0.44855568
-0.26838464 0.18288645 0.44835353
-0.21839222 0.17279845 0.44853061
-0.26743686 0.18762523 0.44846588
-0.21742177 0.1776507 0.44836885
-0.26646301 0.1924945 0.44872686
-0.21641821 0.18266851 0.44863623
-0.26545402 0.19753943 0.44854313
-0.21544254 0.18754688 0.44844276
-0.26452404 0.20218943 0.4484306
-0.21442278 0.1926457 0.4483133
-0.26350033 0.20730788 0.44870368
-0.21347539 0.19738263 0.44853312
-0.26252016 0.21220873 0.44847372
-0.21249858 0.20226666 0.44854543
-0.26154298 0.21709466 0.44871476
-0.21153209 0.20709918 0.44871226
-0.26055568 0.2220311 0.44860756
-0.21051934 0.21216284 0.44847536
-0.25959802 0.22681946 0.4486272
-0.2095392 0.21706355 0.44839737
-0.25859535 0.23183288 0.44865367
-0.20859075 0.22180587 0.44834578
-0.25759426 0.23683827 0.44850212
-0.20758632 0.22682801 0.44856244
-0.25658721 0.24187362 0.44848177
-0.20662011 0.23165901 0.44857976
-0.25563958 0.2466117 0.44869974
-0.20560375 0.2367408 0.44852853
-0.25464004 0.25160944 0.44843954
-0.22876956 0.24885602 0.44872114
-0.2211642 0.24733496 0.44894087
-0.21760812 0.24662374 0.44913802
-0.21264863 0.24563184 0.44661215
-0.20779887 0.2446619 0.44655246
-0.20464049 0.24155712 0.44843191
-0.25136739 0.25337559 0.44853884
-0.24644975 0.25239205 0.44860196
-0.24174263 0.25145066 0.44843817
-0.23714006 0.25053012 0.44869095
-0.23208852 0.24951985 0.44859591
-0.22695468 0.24849306 0.44838378
-0.22243986 0.24759009 0.44839069
-0.21740399 0.24658291 0.44832769
-0.21246834 0.2455958 0.44865683
-0.20765351 0.24463283 0.44889659
-0.20470332 0.2440428 0.44817913
-0.28409833 0.10431793 0.45364472
-0.28189278 0.10141107 0.45342013
-0.27734283 0.10050109 0.45351094
-0.27225897 0.099484317 0.4534626
-0.26743734 0.098519988 0.45350188
-0.26262459 0.09755744 0.45360252
-0.25767106 0.096566737 0.45379639
-0.25281999 0.095596522 0.45370567
-0.24785805 0.094604127 0.45360249
-0.24302022 0.093636565 0.45348403
-0.23795667 0.09262386 0.45348755
-0.23411964 0.094313331 0.45334938
-0.28311524 0.10923336 0.45360604
-0.23308867 0.099316157 0.45316449
-0.28212148 0.11420214 0.45333615
-0.23208922 0.10431334 0.45337617
-0.2811529 0.11904502 0.45365176
-0.23113684 0.10907529 0.45328203
-0.28017396 0.12393986 0.45366073
-0.2301653 0.11393301 0.45321599
-0.27916494 0.12898487 0.45368761
-0.22918239 0.11884755 0.45325336
-0.27817616 0.13392879 0.4535498
-0.22818096 0.1238547 0.45330185
-0.27722198 0.13869971 0.45378584
-0.22721139 0.12870252 0.45322511
-0.27622807 0.14366925 0.45353755
-0.22622684 0.13362531 0.45313594
-0.27528316 0.14839377 0.45350328
-0.22526233 0.13844781 0.45312166
-0.27427673 0.1534259 0.45376581
-0.22429994 0.14325982 0.45330346
-0.27328861 0.15836658 0.45353761
-0.22328718 0.14832363 0.45331231
-0.27232939 0.16316265 0.45357156
-0.22232793 0.15311988 0.45344043
-0.27133048 0.16815722 0.45361406
-0.2213251 0.15813403 0.45342773
-0.27038428 0.17288817 0.45351422
-0.22037746 0.16287228 0.45366153
-0.26934478 0.17808571 0.45339021
-0.21940327 0.16774322 0.4534674
-0.26834548 0.18308222 0.45365533
-0.21840528 0.17273317 0.45346904
-0.26741695 0.1877248 0.45368546
-0.21740061 0.17775658 0.45346084
-0.26640263 0.19279645 0.45353726
-0.21643436 0.18258782 0.45348501
-0.26546696 0.19747472 0.45342225
-0.21544132 0.18755299 0.45347235
-0.26445258 0.20254663 0.45370772
-0.21449545 0.19228232 0.45346078
-0.26350561 0.20728152 0.45350212
-0.21350798 0.19721967 0.45341915
-0.26254204 0.21209946 0.45360804
-0.21251801 0.2021696 0.45369628
-0.26152918 0.21716377 0.45351377
-0.2115131 0.20719412 0.45348155
-0.26054114 0.22210391 0.45362654
-0.21057345 0.21189231 0.45333856
-0.25954232 0.22709802 0.45357755
-0.20957451 0.21688706 0.453529
-0.25857976 0.23191082 0.45357811
-0.20860067 0.22175619 0.45361137
-0.25759277 0.23684576 0.45339289
-0.20760798 0.22671965 0.45350504
-0.25661239 0.24174757 0.453482
-0.20663401 0.2315895 0.45356202
-0.25561661 0.24672653 0.45364124
-0.20564249 0.23654714 0.45356312
-0.25463375 0.2516408 0.45373622
-0.22974616 0.24905135 0.45273665
-0.2275072 0.24860355 0.45317048
-0.21179631 0.24546137 0.45415661
-0.20606287 0.24431469 0.45500079
-0.20468171 0.24137567 0.45345989
-0.25162131 0.2534264 0.45351171
-0.24707268 0.25251666 0.45343426
-0.24191242 0.25148463 0.45347217
-0.23706457 0.25051504 0.45365185
-0.23225895 0.2495539 0.45375115
-0.22708839 0.24851979 0.45317751
-0.22219983 0.2475421 0.4535141
-0.21741603 0.24658534 0.45350409
-0.21270917 0.24564396 0.45352361
-0.20771742 0.24464561 0.45343632
-0.20475864 0.24405384 0.45340982
-0.28406772 0.10447101 0.45879784
-0.28214785 0.1014621 0.45844886
-0.27712303 0.10045713 0.45843914
-0.27218911 0.099470347 0.45850351
-0.26723757 0.098480038 0.45859998
-0.26252756 0.097538032 0.45855176
-0.25750646 0.096533813 0.45867711
-0.2526626 0.095565043 0.4586288
-0.24774483 0.094581492 0.45861787
-0.24278817 0.093590155 0.45872813
-0.23788883 0.092610285 0.45848447
-0.23428375 0.093928725 0.45853266
-0.28308851 0.10936699 0.45858657
-0.23311742 0.099172503 0.45842698
-0.28215134 0.11405282 0.45844096
-0.23212001 0.10415959 0.45856622
-0.28115118 0.11905374 0.45856684
-0.23113799 0.1090696 0.45831209
-0.28017676 0.12392583 0.4586125
-0.23014325 0.11404332 0.4584125
-0.27920017 0.12880878 0.45861676
-0.22917399 0.11888966 0.45829529
-0.27819598 0.13382968 0.45869249
-0.22815099 0.12400459 0.45828885
-0.27722484 0.13868536 0.45867074
-0.22719476 0.12878576 0.45821419
-0.27622563 0.14368141 0.45861709
-0.22624385 0.13354033 0.4585107
-0.27526435 0.14848784 0.45871115
-0.22526561 0.13843155 0.45832518
-0.27431324 0.15324342 0.45870838
-0.22424193 0.14354992 0.45827255
-0.27333218 0.15814866 0.458312
-0.22326401 0.14843959 0.45840847
-0.27230722 0.16327348 0.45838949
-0.22230916 0.15321381 0.45846629
-0.27134973 0.16806094 0.4586505
-0.2213327 0.15809605 0.45851853
-0.27034619 0.1730786 0.45858365
-0.22034357 0.16304171 0.45837435
-0.2693668 0.17797554 0.45847887
-0.21938127 0.16785319 0.45839685
-0.26837659 0.18292663 0.45825365
-0.21840137 0.17275277 0.45838255
-0.26738405 0.18788925 0.45855388
-0.21743709 0.17757417 0.45841768
-0.2664057 0.19278115 0.45851535
-0.21642387 0.18264027 0.45853269
-0.26540124 0.19780338 0.45821714
-0.21545994 0.18745989 0.45842385
-0.264447 0.20257464 0.45854333
-0.21445233 0.19249794 0.45852742
-0.26349497 0.2073348 0.45859018
-0.21346843 0.19741747 0.45842806
-0.26249507 0.21233425 0.45853785
-0.21254279 0.20204565 0.45843333
-0.26149902 0.21731444 0.45852119
-0.21153487 0.20708522 0.45869136
-0.26054516 0.22208372 0.45857868
-0.21055759 0.2119716 0.45864043
-0.25958112 0.22690395 0.45837966
-0.20954469 0.21703616 0.45847866
-0.25858119 0.23190369 0.45851085
-0.20861144 0.22170234 0.45879409
-0.25759849 0.23681715 0.45860907
-0.20763955 0.2265619 0.45851257
-0.25662374 0.24169084 0.45846605
-0.20665239 0.23149762 0.45831698
-0.25564417 0.24658868 0.45858461
-0.20570655 0.2362268 0.45858431
-0.25466326 0.25149325 0.45855787
-0.2399379 0.25108969 0.45993745
-0.23520598 0.25014332 0.45788303
-0.23232645 0.2495674 0.45915598
-0.21786585 0.24667528 0.4592436
-0.21250339 0.2456028 0.4576084
-0.20682159 0.24446644 0.45816967
-0.20468229 0.24151944 0.45851916
-0.25145549 0.25339323 0.45856357
-0.24679352 0.25246084 0.45855027
-0.24202067 0.25150627 0.45838359
-0.23717211 0.25053656 0.4586741
-0.23228878 0.24955988 0.45847511
-0.22718777 0.24853969 0.45830068
-0.22231549 0.24756524 0.45855865
-0.21737745 0.24657762 0.45862013
-0.21238971 0.24558006 0.45850873
-0.20780209 0.24466255 0.4586114
-0.20470402 0.24404293 0.45851386
-0.28407416 0.10443881 0.46361521
-0.28214049 0.10146062 0.46348518
-0.27703628 0.10043978 0.46345004
-0.27228773 0.099490061 0.46354419
-0.26742879 0.098518282 0.46363413
-0.26265717 0.097563952 0.46353182
-0.25752664 0.096537851 0.46330762
-0.25259817 0.095552154 0.46363541
-0.24785291 0.094603106 0.46363753
-0.24272916 0.093578354 0.46388561
-0.2380344 0.092639402 0.46389291
-0.23439603 0.093590967 0.46344802
-0.28311622 0.10922855 0.46348491
-0.23312433 0.099137917 0.4635258
-0.28214264 0.11409642 0.46337414
-0.23210463 0.10423648 0.46360976
-0.28114513 0.11908402 0.46355698
-0.23115033 0.10900792 0.46340677
-0.28016672 0.12397605 0.46354234
-0.23013255 0.11409685 0.46355081
-0.27916375 0.1289908 0.46371937
-0.22915661 0.11897647 0.46358642
-0.278209 0.13376455 0.46366602
-0.22818497 0.12383471 0.46342716
-0.27726173 0.13850084 0.46345413
-0.2272189 0.12866512 0.46324363
-0.27622363 0.1436915 0.46359441
-0.22625768 0.13347121 0.46364364
-0.27524376 0.14859073 0.46363786
-0.22525752 0.13847198 0.46320871
-0.27427816 0.15341875 0.46370408
-0.22426926 0.14341331 0.46325302
-0.27330363 0.15829146 0.46334013
-0.22330898 0.14821467 0.46337929
-0.2723124 0.16324751 0.46342742
-0.22230104 0.15325439 0.46339393
-0.27134034 0.16810787 0.46344915
-0.22133172 0.15810101 0.46344072
-0.27038336 0.17289278 0.46329623
-0.22036269 0.16294609 0.46351531
-0.26937306 0.17794427 0.46346766
-0.21936926 0.16791327 0.4634417
-0.26841357 0.18274173 0.46333486
-0.21837674 0.17287591 0.46366832
-0.26739269 0.18784603 0.46340904
-0.21738866 0.17781633 0.46348041
-0.26641822 0.19271846 0.46325511
-0.21641733 0.18267292 0.46341965
-0.26542726 0.19767326 0.46347672
-0.21542412 0.18763895 0.46345636
-0.2644746 0.20243663 0.46351439
-0.21443652 0.19257697 0.46349952
-0.26349825 0.20731837 0.46357802
-0.21345511 0.19748399 0.46345782
-0.26257041 0.21195754 0.46341547
-0.21249561 0.20228152 0.46341464
-0.26151645 0.21722738 0.4635607
-0.21151125 0.20720331 0.46358356
-0.26053983 0.22211045 0.46355802
-0.2105049 0.21223509 0.46340176
-0.2595503 0.22705805 0.46360806
-0.20957059 0.21690661 0.46352306
-0.25857413 0.23193899 0.4635964
-0.20855965 0.22196135 0.46362525
-0.25758374 0.23689094 0.4634341
-0.20759536 0.22678277 0.46361527
-0.2566182 0.24171861 0.46348956
-0.20660433 0.23173793 0.46327037
-0.25565314 0.24654391 0.46352279
-0.20566165 0.23645134 0.4633916
-0.25467893 0.2514149 0.4635042
-0.2489284 0.25288779 0.46571234
-0.24206528 0.25151518 0.46282896
-0.23675284 0.2504527 0.46101302
-0.21254739 0.24561159 0.46510342
-0.20896372 0.24489486 0.46422666
-0.20465779 0.24147062 0.46349648
-0.2516934 0.2534408 0.46358463
-0.24664569 0.25243127 0.46362975
-0.24183168 0.25146845 0.46379519
-0.23694265 0.25049067 0.46378505
-0.23220623 0.24954337 0.46345896
-0.22731505 0.24856512 0.46347809
-0.22233996 0.24757013 0.46358299
-0.21737325 0.24657679 0.46353987
-0.21228477 0.24555911 0.46332613
-0.20741373 0.24458493 0.46354797
-0.20474279 0.2440507 0.46325859
-0.28412071 0.10420611 0.46834829
-0.28201577 0.10143568 0.46852955
-0.27711388 0.1004553 0.46861535
-0.2721985 0.099472225 0.4682909
-0.26726693 0.098485909 0.46848312
-0.26236203 0.097504929 0.4685621
-0.25760141 0.096552804 0.46838918
-0.2526252 0.095557563 0.46853539
-0.24766046 0.094564617 0.46837595
-0.24307133 0.093646787 0.46859762
-0.23807126 0.092646778 0.46862009
-0.23438521 0.093650803 0.46837258
-0.28311247 0.10924722 0.46864504
-0.23307803 0.099369422 0.46854454
-0.2821528 0.11404563 0.46844417
-0.23209435 0.10428788 0.46835583
-0.28113919 0.11911357 0.46857497
-0.23112996 0.10910979 0.4684757
-0.28016061 0.12400661 0.46841931
-0.23017696 0.11387479 0.46860114
-0.27918699 0.12887463 0.46847564
-0.22918418 0.11883869 0.46835262
-0.27819207 0.13384925 0.46857271
-0.22816111 0.12395404 0.46843985
-0.27719176 0.13885075 0.46840551
-0.22717673 0.12887596 0.46818429
-0.27623904 0.14361435 0.46834737
-0.22625752 0.133472 0.46864587
-0.27528715 0.1483738 0.46849903
-0.22529811 0.13826907 0.46854505
-0.27430487 0.15328532 0.46838829
-0.2242925 0.14329708 0.46850315
-0.27327812 0.158419 0.46843868
-0.22326347 0.14844218 0.46829319
-0.27233815 0.16311878 0.46851486
-0.22230119 0.15325361 0.46868899
-0.27134302 0.16809441 0.46838078
-0.22133616 0.15807882 0.46842504
-0.27035069 0.17305613 0.46842575
-0.2203362 0.16307856 0.46846417
-0.26936057 0.17800671 0.46830136
-0.21937889 0.16786516 0.46856233
-0.2683931 0.18284407 0.46820882
-0.21840981 0.17271051 0.46846592
-0.26737973 0.18791091 0.4686183
-0.21739951 0.17776209 0.46858314
-0.26644999 0.19255966 0.46839976
-0.21644332 0.18254301 0.46848446
-0.26546538 0.19748276 0.46862164
-0.21544665 0.18752635 0.46846288
-0.2644493 0.20256309 0.46874863
-0.21443769 0.19257116 0.46854967
-0.26351634 0.20722787 0.46850798
-0.21352124 0.19715339 0.46832699
-0.26248869 0.21236609 0.46854076
-0.21251741 0.20217258 0.46856713
-0.26148614 0.21737888 0.46855024
-0.21155 0.20700958 0.46847889
-0.26051873 0.22221586 0.46863228
-0.21056111 0.21195404 0.4682754
-0.25955343 0.22704247 0.46849719
-0.20956308 0.21694422 0.468373
-0.25858042 0.23190747 0.46853447
-0.20857272 0.22189596 0.4685542
-0.25760877 0.23676576 0.46861839
-0.20757881 0.22686559 0.46851772
-0.25662866 0.24166633 0.46840689
-0.20662883 0.23161541 0.46840343
-0.25561932 0.24671294 0.46845728
-0.20563085 0.23660532 0.46839267
-0.2546376 0.2516216 0.46866119
-0.2522825 0.25355864 0.46928337
-0.24743202 0.25258851 0.46825001
-0.21299194 0.24570051 0.47046915
-0.20802698 0.24470751 0.46641028
-0.20466818 0.24141867 0.46857199
-0.25161809 0.25342572 0.4683347
-0.24667004 0.25243613 0.46845347
-0.24211407 0.25152493 0.4684695
-0.23716334 0.2505348 0.46854913
-0.23216319 0.24953479 0.46863306
-0.22730857 0.24856389 0.46861577
-0.2222964 0.24756144 0.46859917
-0.2175543 0.24661304 0.46843082
-0.21246524 0.24559525 0.46854147
-0.20753214 0.24460866 0.46877709
-0.20474362 0.24405085 0.46867445
-0.28408501 0.10438457 0.47348621
-0.28166303 0.10322691 0.47539201
-0.27684134 0.1022754 0.47541729
-0.27192312 0.10115422 0.47529408
-0.26713297 0.10026132 0.47520643
-0.26205042 0.099099994 0.47514558
-0.25716689 0.098074242 0.47509807
-0.25244594 0.09705957 0.4750734
-0.24765 0.095844038 0.47474685
-0.24262513 0.094793409 0.47476947
-0.23773104 0.093866557 0.4746986
-0.23453942 0.093713343 0.47418338
-0.28308299 0.10939457 0.4736681
-0.28051168 0.10877035 0.47600001
-0.27578688 0.10776779 0.47600001
-0.27087897 0.10674621 0.47600001
-0.26593181 0.1058574 0.47600001
-0.2610667 0.1047597 0.47600001
-0.25616112 0.10393856 0.47600001
-0.25109062 0.10287203 0.47600001
-0.24629435 0.10208254 0.47600001
-0.2414079 0.10099156 0.47600001
-0.23634002 0.099979803 0.47600001
-0.23327516 0.099288523 0.47429773
-0.28213093 0.11415501 0.47348386
-0.27950218 0.1136153 0.47600001
-0.27469689 0.11277222 0.47600001
-0.26998574 0.11176785 0.47600001
-0.26495567 0.11068933 0.47600001
-0.26021799 0.10963267 0.47600001
-0.25510687 0.10882577 0.47600001
-0.25022966 0.10775858 0.47600001
-0.24522495 0.10709451 0.47600001
-0.24041827 0.10582165 0.47600001
-0.23540466 0.10487095 0.47600001
-0.23225899 0.10428001 0.47436303
-0.28117177 0.1189508 0.47344357
-0.27854875 0.11873253 0.47600001
-0.27408957 0.1175987 0.47600001
-0.26897499 0.1167312 0.47600001
-0.26397094 0.11569232 0.47600001
-0.25895754 0.11462233 0.47600001
-0.25414568 0.11373514 0.47600001
-0.24917516 0.1124417 0.47600001
-0.24437562 0.11174272 0.47600001
-0.23942892 0.11071465 0.47600001
-0.23455691 0.10977168 0.47600001
-0.23133883 0.10917576 0.47454619
-0.28013751 0.12412202 0.47346878
-0.27789581 0.12361146 0.47600001
-0.27304816 0.12240828 0.47600001
-0.26792401 0.12159735 0.47600001
-0.26299068 0.1205942 0.47600001
-0.25806996 0.11961003 0.47600001
-0.25312954 0.11859241 0.47600001
-0.24832061 0.11735283 0.47600001
-0.24334754 0.11640184 0.47600001
-0.23836693 0.11570837 0.47600001
-0.23359656 0.11479554 0.47600001
-0.23039415 0.11394194 0.47462326
-0.2791788 0.12891558 0.47347975
-0.27692923 0.12834039 0.47600001
-0.2720091 0.12734583 0.47600001
-0.26710612 0.12645304 0.47600001
-0.26223111 0.12559338 0.47600001
-0.25712565 0.12456809 0.47600001
-0.25220147 0.12336706 0.47600001
-0.24708214 0.1225092 0.47600001
-0.24223682 0.12148616 0.47600001
-0.23733835 0.12080693 0.47600001
-0.23258139 0.11955576 0.47600001
-0.22935537 0.11897018 0.47465768
-0.27818483 0.13388541 0.47332218
-0.27586216 0.1333795 0.47600001
-0.27091956 0.13213897 0.47600001
-0.26605442 0.13131472 0.47600001
-0.26108947 0.13043062 0.47600001
-0.25590912 0.12941986 0.47600001
-0.25117639 0.12832747 0.47600001
-0.24619201 0.12734523 0.47600001
-0.24136166 0.12646767 0.47600001
-0.23632786 0.12561992 0.47600001
-0.23177199 0.12457865 0.47600001
-0.22838731 0.12397911 0.47453648
-0.27723518 0.13863373 0.47349766
-0.27486956 0.13830735 0.47600001
-0.26990053 0.13703962 0.47600001
-0.26501167 0.13622801 0.47600001
-0.26018408 0.13522926 0.47600001
-0.25510156 0.13419463 0.47600001
-0.25013748 0.1332407 0.47600001
-0.24522513 0.13224536 0.47600001
-0.24034432 0.13116606 0.47600001
-0.23543306 0.13040277 0.47600001
-0.23061994 0.1292727 0.47600001
-0.22740693 0.12874007 0.47444868
-0.27622861 0.14366654 0.47317702
-0.27399579 0.14308171 0.47600001
-0.26897475 0.14201124 0.47600001
-0.26408654 0.14121045 0.47600001
-0.25892526 0.1402238 0.47600001
-0.25413412 0.13933094 0.47600001
-0.24934062 0.13809481 0.47600001
-0.24404055 0.13739367 0.47600001
-0.23937654 0.13615057 0.47600001
-0.23444678 0.13529114 0.47600001
-0.22958319 0.13430789 0.47600001
-0.22638965 0.13374308 0.47444704
-0.27525863 0.14851649 0.4732247
-0.27284804 0.1479332 0.47600001
-0.26792338 0.14707121 0.47600001
-0.26301289 0.14577165 0.47600001
-0.25806355 0.14520785 0.47600001
-0.2531994 0.14417663 0.47600001
-0.24805155 0.14298275 0.47600001
-0.24315642 0.14208591 0.47600001
-0.23847072 0.14121667 0.47600001
-0.23366573 0.14017537 0.47600001
-0.22858544 0.13915548 0.47600001
-0.22548376 0.13850304 0.47467661
-0.27430293 0.15329498 0.47346127
-0.27188599 0.1528971 0.47600001
-0.26686525 0.15186743 0.47600001
-0.26203647 0.15076634 0.47600001
-0.25705466 0.15000737 0.47600001
-0.25225094 0.14894603 0.47600001
-0.24714588 0.14815582 0.47600001
-0.24217215 0.14707296 0.47600001
-0.2374077 0.14601402 0.47600001
-0.23268358 0.14495063 0.47600001
-0.22764954 0.14394367 0.47600001
-0.22443387 0.14358157 0.47434467
-0.27331933 0.1582129 0.47353226
-0.2707499 0.15771887 0.47600001
-0.26588392 0.15695181 0.47600001
-0.26101235 0.15582408 0.47600001
-0.25601709 0.15500525 0.47600001
-0.25112295 0.15398327 0.47600001
-0.2463188 0.15300168 0.47600001
-0.24153128 0.15195182 0.47600001
-0.23657662 0.15103672 0.47600001
-0.23169592 0.15003774 0.47600001
-0.22671099 0.14917696 0.47600001
-0.22352326 0.14814195 0.47449216
-0.27232224 0.16319847 0.47358924
-0.2697517 0.16268283 0.47600001
-0.26487079 0.16157493 0.47600001
-0.26009071 0.1606791 0.47600001
-0.25520131 0.15969138 0.47600001
-0.25009915 0.15881547 0.47600001
-0.24515373 0.15779555 0.47600001
-0.24056852 0.15673867 0.47600001
-0.23543242 0.15590943 0.47600001
-0.2308062 0.15482087 0.47600001
-0.2257847 0.15373415 0.47600001
-0.22249128 0.15339337 0.47436854
-0.27132866 0.16816637 0.47345191
-0.2686435 0.16780686 0.47600001
-0.2642093 0.16660163 0.47600001
-0.25922209 0.16576338 0.47600001
-0.25428504 0.16457002 0.47600001
-0.24916747 0.16360909 0.47600001
-0.24431583 0.16275147 0.47600001
-0.23932229 0.16167884 0.47600001
-0.23475362 0.16079013 0.47600001
-0.22957163 0.15973522 0.47600001
-0.22459364 0.15892236 0.47600001
-0.22147715 0.15827984 0.47459847
-0.27034381 0.17309049 0.47335219
-0.26809296 0.17262504 0.47600001
-0.26303011 0.17159057 0.47600001
-0.25816059 0.17069817 0.47600001
-0.25327229 0.16952562 0.47600001
-0.24819723 0.16875319 0.47600001
-0.24328601 0.16772458 0.47600001
-0.23852004 0.16657412 0.47600001
-0.23361278 0.16569453 0.47600001
-0.22855458 0.1648064 0.47600001
-0.22365716 0.16371326 0.47600001
-0.22051528 0.16308339 0.47436848
-0.26935712 0.17802399 0.47336936
-0.26682618 0.17736351 0.47600001
-0.26191229 0.17645119 0.47600001
-0.25695872 0.17539474 0.47600001
-0.25210357 0.17451087 0.47600001
-0.24722998 0.17345262 0.47600001
-0.24232218 0.17245483 0.47600001
-0.23747525 0.17176414 0.47600001
-0.2325424 0.17069657 0.47600001
-0.22762936 0.16952538 0.47600001
-0.22264165 0.16874054 0.47600001
-0.21962678 0.16795518 0.47475666
-0.26841041 0.18275748 0.47361997
-0.26580492 0.18216065 0.47600001
-0.26107872 0.18123236 0.47600001
-0.2559852 0.18037407 0.47600001
-0.25103194 0.17943704 0.47600001
-0.2461662 0.17835227 0.47600001
-0.24137686 0.1774067 0.47600001
-0.23649833 0.17631981 0.47600001
-0.23164997 0.17574994 0.47600001
-0.22656956 0.17452183 0.47600001
-0.22170959 0.17353627 0.47600001
-0.21866721 0.1728078 0.47466171
-0.26745963 0.18751138 0.47351968
-0.26497021 0.18729126 0.47600001
-0.26006079 0.18641755 0.47600001
-0.25512946 0.18526392 0.47600001
-0.25009143 0.18418396 0.47600001
-0.24527398 0.18331754 0.47600001
-0.24033754 0.18227507 0.47600001
-0.23550218 0.18138403 0.47600001
-0.23052572 0.18037201 0.47600001
-0.22576344 0.17947818 0.47600001
-0.22073883 0.17831005 0.47600001
-0.21763588 0.17773087 0.47452143
-0.26646268 0.19249614 0.47336495
-0.26393598 0.19218388 0.47600001
-0.25894159 0.1912517 0.47600001
-0.25393331 0.19029078 0.47600001
-0.24914871 0.18930948 0.47600001
-0.24429321 0.18821731 0.47600001
-0.23927601 0.18702587 0.47600001
-0.23451936 0.1861984 0.47600001
-0.22954932 0.18526451 0.47600001
-0.2247178 0.18449657 0.47600001
-0.21981791 0.18332598 0.47600001
-0.21665971 0.18272421 0.47446164
-0.26546562 0.19748156 0.47338524
-0.26288846 0.1974048 0.47600001
-0.25798789 0.19601667 0.47600001
-0.25309294 0.19514027 0.47600001
-0.24821121 0.19414055 0.47600001
-0.24334173 0.19314247 0.47600001
-0.23843229 0.19223475 0.47600001
-0.23343383 0.19113202 0.47600001
-0.22863114 0.19011688 0.47600001
-0.22364585 0.18919948 0.47600001
-0.21888149 0.18814331 0.47600001
-0.2156119 0.18784598 0.47449446
-0.2644875 0.2023721 0.47358438
-0.2619389 0.20207861 0.47600001
-0.25719902 0.20110482 0.47600001
-0.25212783 0.20003319 0.47600001
-0.24734135 0.19908088 0.47600001
-0.24237207 0.19806406 0.47600001
-0.23743303 0.19701818 0.47600001
-0.23254967 0.19595948 0.47600001
-0.22787952 0.19500737 0.47600001
-0.22264341 0.19419153 0.47600001
-0.21792084 0.19317584 0.47600001
-0.21465957 0.19256765 0.47444969
-0.26352197 0.20719977 0.47341189
-0.26099423 0.20691887 0.47600001
-0.25623152 0.20595814 0.47600001
-0.25145757 0.20498812 0.47600001
-0.24639809 0.20398633 0.47600001
-0.24117152 0.2028975 0.47600001
-0.23644102 0.20185691 0.47600001
-0.231446 0.20085867 0.47600001
-0.2265681 0.20003235 0.47600001
-0.22166851 0.19910693 0.47600001
-0.21681151 0.19798112 0.47600001
-0.21361764 0.19759704 0.47432083
-0.26251391 0.21224007 0.47374398
-0.25988618 0.21193226 0.47600001
-0.25511655 0.21084425 0.47600001
-0.25020608 0.20983799 0.47600001
-0.24543175 0.20890409 0.47600001
-0.24047557 0.20787258 0.47600001
-0.23557866 0.20696776 0.47600001
-0.2304474 0.20593372 0.47600001
-0.2257459 0.20513071 0.47600001
-0.22081375 0.20397757 0.47600001
-0.21584356 0.20286974 0.47600001
-0.21273988 0.20233446 0.47449642
-0.26155254 0.21704692 0.47342616
-0.25913525 0.21682775 0.47600001
-0.25432125 0.21585645 0.47600001
-0.24947105 0.21472418 0.47600001
-0.24463636 0.213705 0.47600001
-0.23944905 0.21283428 0.47600001
-0.23445052 0.21179 0.47600001
-0.2294625 0.21078791 0.47600001
-0.22460791 0.20981504 0.47600001
-0.2197929 0.20889658 0.47600001
-0.21519551 0.20779425 0.47600001
-0.21171725 0.20731658 0.47463042
-0.26056156 0.22200175 0.47343186
-0.25818735 0.22173131 0.47600001
-0.25322777 0.22059418 0.47600001
-0.24835429 0.21974468 0.47600001
-0.24348137 0.21859144 0.47600001
-0.2384142 0.21780869 0.47600001
-0.23352271 0.21669602 0.47600001
-0.2285772 0.21571225 0.47600001
-0.22364821 0.21464331 0.47600001
-0.21858659 0.21373472 0.47600001
-0.2139526 0.21268475 0.47600001
-0.21066421 0.2122432 0.47418913
-0.25958818 0.22686866 0.47342688
-0.25685924 0.22645524 0.47600001
-0.25215784 0.22542991 0.47600001
-0.24719316 0.22444513 0.47600001
-0.2423621 0.2233547 0.47600001
-0.23760292 0.22256784 0.47600001
-0.23255402 0.22150837 0.47600001
-0.22760385 0.2203916 0.47600001
-0.22286484 0.21965168 0.47600001
-0.21795428 0.21869336 0.47600001
-0.21295482 0.21776564 0.47600001
-0.20976776 0.2169784 0.4745293
-0.25860444 0.23178738 0.47338399
-0.25596437 0.23147179 0.47600001
-0.25127947 0.23034845 0.47600001
-0.24637762 0.22937788 0.47600001
-0.24136543 0.2285929 0.47600001
-0.2364696 0.22735502 0.47600001
-0.23169237 0.22634523 0.47600001
-0.22659639 0.22565976 0.47600001
-0.22183311 0.22438754 0.47600001
-0.21693325 0.22352107 0.47600001
-0.2121028 0.22255762 0.47600001
-0.20880023 0.22194257 0.47434646
-0.2575708 0.23695549 0.47367251
-0.2549949 0.2363279 0.47600001
-0.25020587 0.23513038 0.47600001
-0.24530229 0.23420914 0.47600001
-0.24050337 0.23344409 0.47600001
-0.23552763 0.23238043 0.47600001
-0.23070866 0.23136836 0.47600001
-0.22575231 0.23036328 0.47600001
-0.22083282 0.22934455 0.47600001
-0.21588162 0.22829549 0.47600001
-0.21112871 0.22743741 0.47600001
-0.20779794 0.22693637 0.47458953
-0.25659326 0.24184334 0.47333109
-0.25404015 0.2411163 0.47600001
-0.24926648 0.24014674 0.47600001
-0.24440522 0.23923808 0.47600001
-0.23942587 0.23836426 0.47600001
-0.23458505 0.23734513 0.47600001
-0.2295723 0.23629136 0.47600001
-0.22462526 0.23527333 0.47600001
-0.21974336 0.23435131 0.47600001
-0.2147207 0.23343129 0.47600001
-0.21011929 0.23237664 0.47600001
-0.20682141 0.23168688 0.47440022
-0.25563669 0.24662612 0.47340375
-0.25312883 0.24609801 0.47600001
-0.24831793 0.2450729 0.47600001
-0.24340643 0.24438313 0.47600001
-0.23837492 0.2431307 0.47600001
-0.2336576 0.24230346 0.47600001
-0.22848287 0.24116895 0.47600001
-0.22359627 0.2403252 0.47600001
-0.21896997 0.23923977 0.47600001
-0.21394309 0.23856354 0.47600001
-0.20916106 0.23740648 0.47600001
-0.20582569 0.23654178 0.47459874
-0.25464445 0.25158733 0.47364414
-0.25219905 0.25110933 0.47585678
-0.2473702 0.2500535 0.47583571
-0.24253248 0.24914292 0.47600001
-0.23762286 0.24800046 0.47600001
-0.23231456 0.24697728 0.47600001
-0.22774336 0.24613111 0.47600001
-0.22275591 0.24494699 0.47600001
-0.21786514 0.2440528 0.47600001
-0.21303609 0.24334708 0.47593641
-0.20805812 0.24224092 0.47592625
-0.20483446 0.24160431 0.47428849
-0.25157282 0.25341669 0.47353765
-0.24682429 0.25246698 0.4733052
-0.24198253 0.25149864 0.47351545
-0.23681566 0.25046527 0.47377378
-0.23198338 0.2494988 0.47361085
-0.22709641 0.24852145 0.47362897
-0.22209015 0.24752022 0.47352207
-0.21721418 0.24654505 0.47346333
-0.21237221 0.24557665 0.47349042
-0.20752752 0.24460764 0.4735705
-0.2045542 0.24401297 0.47417128
