# .PCD v0.7 - Point Cloud Data file format
VERSION 0.7
FIELDS x y z
SIZE 4 4 4
TYPE F F F
COUNT 1 1 1
WIDTH 1190
HEIGHT 1
VIEWPOINT 0 0 0 1 0 0 0
POINTS 1190
DATA ascii
0.016870052 0.095317915 0.61249834
0.040731303 0.07965225 0.62987673
0.0070856735 0.09672752 0.6097514
0.007475365 0.095853753 0.61050534
0.015253332 0.094410934 0.61318302
0.039959144 0.07798712 0.6312539
0.04329136 0.072969869 0.63594621
0.044104237 0.072461084 0.63670963
0.0068867505 0.091853715 0.61429453
0.0089429542 0.089965507 0.61599755
0.012803126 0.087810233 0.61897951
0.031499725 0.075429134 0.63252115
0.035879191 0.0721993 0.63575619
0.038851742 0.07186681 0.63650781
0.043103129 0.072004341 0.63696641
0.0058839098 0.09078718 0.61505902
0.0087501481 0.08895769 0.61683547
0.011275563 0.086843193 0.61942005
0.030497607 0.074338689 0.63335317
0.033901602 0.072121389 0.63534707
0.036294874 0.070716143 0.63723779
0.031734824 0.1034846 0.60139537
0.034077663 0.10236029 0.60324317
0.052252192 0.090149313 0.6164813
0.054094382 0.08865881 0.61775345
0.028494669 0.10345978 0.60335356
0.032396682 0.10180345 0.60561597
0.033767365 0.098690569 0.60681576
0.047200963 0.089697249 0.61625344
0.050023325 0.090036593 0.61810088
0.052987009 0.087441653 0.62088484
0.021887325 0.10010596 0.60346341
0.024229705 0.10136543 0.60487938
0.028333001 0.098329008 0.60847539
0.031098206 0.096649662 0.60805762
0.045403522 0.087926708 0.61726558
0.046095215 0.087070704 0.62076676
0.050515845 0.084151849 0.62386727
0.050411269 0.080733262 0.62431157
0.019540742 0.099176601 0.60483301
0.021221861 0.098698981 0.60829699
0.025647631 0.09474013 0.60964841
0.042901915 0.083691955 0.62190825
0.046705183 0.082373239 0.62624657
0.048725493 0.079484567 0.6264953
0.01459812 0.096882805 0.60723555
0.01767607 0.09667591 0.61076701
0.02242244 0.091594964 0.61256796
0.038625237 0.080971763 0.62425995
0.043197207 0.080081195 0.62909347
0.045865741 0.076465182 0.62953389
0.0076087341 0.095632747 0.60755759
0.0099240951 0.094247505 0.60931677
0.013396487 0.092723295 0.61335701
0.019229904 0.089332186 0.61478806
0.035458364 0.078732714 0.62656432
0.039733067 0.076355748 0.63216126
0.043101996 0.072772235 0.63287461
0.044866499 0.071122967 0.63477224
0.0063098855 0.094913535 0.6091361
0.007349208 0.091479659 0.61088747
0.011288766 0.088910773 0.6136142
0.014823504 0.086051598 0.61648667
0.031951532 0.0747177 0.62898546
0.035875097 0.072782859 0.63161242
0.040094014 0.070438161 0.63427317
0.043263387 0.070517853 0.63598907
0.0051334687 0.089282058 0.61357188
0.0089353919 0.087068804 0.61592376
0.011115007 0.084598809 0.61817127
0.029884741 0.072191365 0.63177729
0.033275302 0.070941813 0.63358134
0.036212623 0.068690777 0.63629884
0.032047652 0.10169876 0.59905076
0.03459014 0.10037453 0.60063982
0.052745864 0.088167369 0.61403501
0.054580078 0.087177448 0.61592525
0.028981574 0.10082521 0.59917736
0.03562858 0.098176993 0.60177428
0.034782615 0.096740372 0.60430455
0.047670837 0.088136449 0.61385757
0.050557859 0.088099055 0.61263394
0.05418238 0.084435731 0.61703825
0.021922924 0.098895006 0.60248029
0.024342701 0.098561384 0.60061973
0.029358104 0.092787556 0.60574383
0.031503182 0.094165422 0.6057716
0.04530403 0.085599214 0.61515492
0.044231415 0.083838224 0.616476
0.051573209 0.080545589 0.62032098
0.05038761 0.080093272 0.62356716
0.019541748 0.09607853 0.60232884
0.020853516 0.094825745 0.60209912
0.026277881 0.091758147 0.60746914
0.042262621 0.081303135 0.61896992
0.048694409 0.077330455 0.62226111
0.048558317 0.076893866 0.62387037
0.015353076 0.094205886 0.60430437
0.01852686 0.091116183 0.60500216
0.022195559 0.08967872 0.60854113
0.040268917 0.078140341 0.62130064
0.043633748 0.074641697 0.62312841
0.046320327 0.0741795 0.62636834
0.0118463 0.092292257 0.60644698
0.014711846 0.089220345 0.6082195
0.018028073 0.087074794 0.61091518
0.036820862 0.074907333 0.62435627
0.040127777 0.072631732 0.62656152
0.04354547 0.071800366 0.62921822
0.0094207674 0.089183353 0.60917908
0.011745796 0.088301092 0.60954744
0.015114054 0.085327052 0.61301696
0.033993483 0.072910674 0.62678677
0.037983291 0.070833549 0.62900025
0.039311387 0.069613084 0.63070434
0.032638073 0.099311449 0.5974856
0.034041394 0.098621175 0.59836066
0.028980408 0.097220302 0.59614205
0.03392069 0.09500894 0.59804446
0.033912431 0.093534261 0.60130715
0.047527783 0.084560975 0.61167967
0.050881285 0.083798341 0.61081481
0.0537384 0.080915235 0.61387914
0.025446633 0.094478898 0.59769309
0.029037541 0.090307787 0.6010747
0.03233736 0.090898782 0.60184777
0.045501914 0.08221066 0.61158222
0.045754168 0.07917694 0.61288494
0.051378518 0.077781871 0.61627227
0.023190515 0.092444293 0.60098648
0.026624635 0.090584144 0.60230458
0.044970386 0.078297235 0.61589783
0.047426034 0.076578289 0.61848903
0.03004013 0.092955738 0.59392804
0.033097059 0.09174712 0.59479773
0.051172428 0.079651646 0.6080966
0.052656438 0.078465387 0.61090189
0.027714619 0.091101371 0.59484667
0.030312303 0.088577487 0.59734809
0.032352746 0.08926332 0.59917974
0.046399426 0.080189221 0.60942841
0.047188379 0.077569991 0.60975772
0.05092353 0.075916648 0.61172956
0.027265765 0.086958915 0.59549308
0.047070317 0.074157439 0.61025727
0.048093073 0.073041953 0.61073834
0.030541165 0.088982426 0.59111863
0.032776877 0.088150173 0.59141123
0.05136421 0.075943261 0.60500062
0.027968708 0.087422974 0.59075075
0.031880774 0.085124351 0.59319788
0.048084516 0.074536771 0.6048888
0.051569454 0.072192416 0.60766166
0.025410071 0.084875278 0.59228253
0.027677832 0.083323292 0.59411979
0.045757603 0.070841029 0.60721445
0.048632365 0.069654815 0.60930657
0.032938354 0.084774069 0.5883618
0.051139735 0.073063947 0.60207933
0.028158206 0.084367365 0.58680058
0.032647729 0.082543202 0.58886081
0.032910548 0.079771236 0.59050786
0.04635185 0.070882633 0.60009599
0.049910128 0.071408145 0.60121369
0.052275836 0.068436153 0.60419583
0.024338048 0.081511259 0.5888682
0.027868476 0.079126067 0.5924564
0.030964496 0.077952117 0.59167135
0.044019654 0.069023892 0.60158455
0.044442952 0.068113066 0.60493624
0.049244381 0.065411597 0.60677797
0.023239506 0.078132413 0.58932775
0.025523458 0.076724984 0.59110737
0.043716662 0.064575031 0.60450453
0.046310101 0.063257813 0.60646057
0.028368484 0.081443273 0.58287138
0.033299007 0.080094621 0.58479929
0.034141213 0.076975159 0.58740294
0.046630882 0.068784162 0.59668601
0.050717015 0.06846796 0.59763891
0.053180367 0.065012291 0.60076666
0.02370641 0.079044297 0.58430624
0.031717554 0.074426129 0.5895465
0.043354046 0.066764303 0.59820771
0.050759312 0.061297242 0.60392994
0.021866638 0.075171292 0.58688849
0.024483252 0.072845846 0.5897553
0.028069254 0.071126103 0.59025508
0.040928461 0.063246228 0.6000312
0.042517018 0.060909443 0.60318524
0.046382837 0.059067462 0.60470933
0.021325372 0.07104826 0.58768749
0.022266241 0.070592634 0.58818477
0.039510325 0.059628665 0.60025609
0.041657723 0.057867385 0.60254234
0.043783464 0.056632817 0.60386372
0.028991587 0.077789634 0.57964736
0.033092875 0.076189369 0.58155692
0.034255918 0.073633946 0.58418489
0.046988457 0.065409273 0.59350371
0.050498292 0.064567775 0.5944593
0.053023111 0.061844964 0.59726059
0.024043147 0.076209903 0.58032823
0.032439232 0.07062988 0.58585423
0.043604493 0.063362971 0.59402215
0.051823456 0.057834834 0.59997511
0.020930216 0.072880432 0.58252764
0.023713818 0.069889501 0.58871871
0.02903368 0.067988835 0.58768851
0.040461481 0.060478445 0.5961417
0.047850445 0.055181816 0.60239857
0.019351423 0.069039151 0.58540291
0.021950766 0.066499628 0.58792591
0.025430733 0.065755799 0.58837157
0.03856834 0.057131723 0.59819555
0.039396599 0.054889861 0.60073137
0.043538466 0.053050224 0.60278809
0.01753163 0.065220729 0.58618259
0.019005891 0.064110041 0.58763301
0.038243126 0.051627196 0.60170519
0.040443726 0.050231818 0.60274637
0.029004861 0.074325569 0.57813478
0.031841546 0.07278347 0.57971346
0.033391397 0.071130872 0.58188194
0.049575824 0.060908537 0.5928427
0.051888514 0.059565511 0.59489453
0.025988132 0.071913317 0.57801783
0.02997487 0.069175795 0.5793581
0.031892013 0.068334624 0.58262813
0.044733901 0.060288928 0.59189415
0.047758736 0.057518929 0.59244668
0.050589126 0.056083336 0.59588003
0.022270605 0.069381155 0.5787583
0.027990572 0.066068128 0.57984203
0.029059594 0.065128341 0.58423316
0.041347556 0.057046305 0.59294623
0.045485422 0.054289863 0.59282583
0.048245128 0.052297782 0.59759814
0.018351197 0.066357523 0.58132505
0.023190988 0.062800318 0.5866791
0.025102325 0.061912976 0.58519113
0.038246371 0.053059287 0.59518051
0.038143538 0.053513613 0.59760243
0.044775821 0.049213491 0.60027176
0.016331252 0.062650278 0.5837335
0.018764701 0.060276546 0.58665991
0.022389853 0.059513234 0.58612782
0.036171637 0.050575405 0.59640574
0.036288776 0.04899203 0.59962183
0.04052379 0.046928026 0.60116476
0.016624115 0.058541726 0.58497596
0.036474377 0.045764398 0.59998357
0.037442375 0.045248322 0.6005426
0.023069732 0.064543508 0.57709819
0.026054021 0.063307047 0.57891113
0.028067565 0.061144974 0.58063054
0.041457206 0.052387565 0.59004581
0.044087928 0.051401101 0.59209341
0.046194993 0.049215533 0.59408391
0.019034006 0.06277518 0.57768887
0.024203658 0.062626973 0.5792408
0.025777224 0.058832821 0.58242744
0.038452893 0.050637387 0.59155798
0.043304373 0.049967587 0.59307283
0.045054354 0.046128646 0.59618402
0.016847834 0.059582077 0.58038396
0.019215181 0.056521535 0.58329731
0.023080856 0.056778207 0.58358657
0.036060866 0.048020463 0.59342754
0.036556486 0.044744782 0.59570605
0.04099394 0.04390448 0.59770632
0.016798552 0.057677526 0.58407235
0.036097523 0.044934832 0.59810293
0.037980147 0.044198677 0.59960973
0.041375041 0.069084696 0.5670774
0.044139482 0.068316355 0.56856972
0.048000574 0.066170216 0.57086784
0.051432732 0.064106755 0.57352614
0.054150622 0.061104991 0.57659292
0.055945948 0.058761291 0.57726932
0.037828639 0.067813605 0.56683111
0.054287571 0.059650082 0.57775569
0.055561364 0.056660052 0.58035564
0.05633314 0.05354441 0.58221871
0.034438517 0.066817701 0.56671727
0.05507208 0.053408004 0.58201516
0.055611365 0.051994976 0.58304822
0.027708799 0.062219832 0.57049614
0.029990215 0.062406581 0.57229376
0.033129059 0.059732761 0.57453066
0.044766814 0.051924165 0.58337492
0.048456967 0.050097346 0.58539408
0.049442038 0.047768265 0.58639121
0.024466448 0.061766829 0.57251501
0.028269172 0.062489189 0.57495213
0.03141658 0.05741813 0.5774256
0.040818371 0.051019259 0.58440828
0.046563499 0.05024324 0.58812106
0.047717541 0.046277806 0.5895294
0.020015493 0.059427191 0.57402635
0.027313471 0.054911152 0.57943434
0.038049165 0.047941953 0.58666468
0.045425609 0.042830672 0.59213758
0.018867798 0.057189304 0.57650423
0.02087111 0.054723009 0.57843375
0.023954879 0.053268716 0.57954574
0.036695514 0.044761773 0.58917713
0.038693957 0.042827416 0.59167099
0.04213354 0.041785724 0.59330815
0.041250274 0.067295864 0.56329674
0.045086205 0.066512451 0.56526917
0.049213707 0.064381018 0.56760889
0.052156493 0.061996318 0.57048106
0.055696622 0.059124567 0.573129
0.057093743 0.056643974 0.57457691
0.034936432 0.066023931 0.56417567
0.038303509 0.066524029 0.56455618
0.041941535 0.064140648 0.56567931
0.047033593 0.061389938 0.56821662
0.050301515 0.059244454 0.57076281
0.052483603 0.056269977 0.5749048
0.056457736 0.054731622 0.57772923
0.057009518 0.051294722 0.57968569
0.032404087 0.064994268 0.56533873
0.034786411 0.062425863 0.5667994
0.03756788 0.059315696 0.56868321
0.039445177 0.056771465 0.5695138
0.049081806 0.051986475 0.57664549
0.052184381 0.051254906 0.57960713
0.055712726 0.049334254 0.58184785
0.028307531 0.061302781 0.5665586
0.031820297 0.061988305 0.56871051
0.035578154 0.058694478 0.57222134
0.036816418 0.055313561 0.57290757
0.043117858 0.051372141 0.5773477
0.045720834 0.051904362 0.57950222
0.050908774 0.049235754 0.58241439
0.052037843 0.045765426 0.58425641
0.024915215 0.059039012 0.56759489
0.031840187 0.053007625 0.57510895
0.034230419 0.053947367 0.57448506
0.040907066 0.049360566 0.57922357
0.039789658 0.0476433 0.58078605
0.049608365 0.04256209 0.58570921
0.021397233 0.055850353 0.57095629
0.023072101 0.052533727 0.57255918
0.027758963 0.051700216 0.57548243
0.038760044 0.044571996 0.58319622
0.04166808 0.040142883 0.58598787
0.045125537 0.040189512 0.58827704
0.022684215 0.052365806 0.57559866
0.024471421 0.051808655 0.57710057
0.037947793 0.042387165 0.58623403
0.039374586 0.041228414 0.58773983
0.042452231 0.040307172 0.58987695
0.041825131 0.06448406 0.55973005
0.046440709 0.063852772 0.56089312
0.050633408 0.061840992 0.56313616
0.053677313 0.059607856 0.56605208
0.056827903 0.056843892 0.5690155
0.05845267 0.053401493 0.57182872
0.036156505 0.063459262 0.55902791
0.038616624 0.064364605 0.55940944
0.041982647 0.059625864 0.56424809
0.045912523 0.057789937 0.56524152
0.049722649 0.055745199 0.56853902
0.050963454 0.052501105 0.57090843
0.058408555 0.050948165 0.57422328
0.058316827 0.048320517 0.57581973
0.032146506 0.061141919 0.56019986
0.038261428 0.061127413 0.56512684
0.040202856 0.058486205 0.56622082
0.040986892 0.055112209 0.56790185
0.046305925 0.051406752 0.57199711
0.050130803 0.051943734 0.57355988
0.056840941 0.045846932 0.57791853
0.027939539 0.059071496 0.56238431
0.038438506 0.053007036 0.56999427
0.043379474 0.049250621 0.57374245
0.054055717 0.04200853 0.58060557
0.02419094 0.05633102 0.56502926
0.032769963 0.049858298 0.57062918
0.034600735 0.048562698 0.57199758
0.038551379 0.045989804 0.57480961
0.041100718 0.044263463 0.57689655
0.050377153 0.039245985 0.58296388
0.022461465 0.053042185 0.56713438
0.024749629 0.050556712 0.56929886
0.028768282 0.049003575 0.5721243
0.032452621 0.046569426 0.57462519
0.036630139 0.04461097 0.57674968
0.039633099 0.041245028 0.57993776
0.042724058 0.038416646 0.58249092
0.046593793 0.038258899 0.58425069
0.052320488 0.058937702 0.55941081
0.055086777 0.056231868 0.5602293
0.042637855 0.061157349 0.55587876
0.047302414 0.06053393 0.55693346
0.05100175 0.059074685 0.5591501
0.054560028 0.056956995 0.56234396
0.058509834 0.053058505 0.56477749
0.059817288 0.050178278 0.56817496
0.036603045 0.060273569 0.55583423
0.039140001 0.060753066 0.5554508
0.043262716 0.056320809 0.56300241
0.045556195 0.053584833 0.56287903
0.048817016 0.051502515 0.56553447
0.059753098 0.047913142 0.57048619
0.059384231 0.045326225 0.5717805
0.033185858 0.058592163 0.55712914
0.042761791 0.051736072 0.56412458
0.047213778 0.049056798 0.56687409
0.057444096 0.042292409 0.5744707
0.029134909 0.055245992 0.55875576
0.038801201 0.048960626 0.5652197
0.044444215 0.045686778 0.56950623
0.043862924 0.042555109 0.56963974
0.054233659 0.038833339 0.57731402
0.026075095 0.05277982 0.56122267
0.027359966 0.048498798 0.56258184
0.034126662 0.047918081 0.56647336
0.036529344 0.045273624 0.56872356
0.039284285 0.042736884 0.57155722
0.042632394 0.042407148 0.57262462
0.047655176 0.035920776 0.57677555
0.050482742 0.036743619 0.57876301
0.024810381 0.050725292 0.5643056
0.02689914 0.04884731 0.56548309
0.030483462 0.046233151 0.56778115
0.033581492 0.044432499 0.56984168
0.037645254 0.042256799 0.57252336
0.040748965 0.038952377 0.57553661
0.04442092 0.037195046 0.57757401
0.046453293 0.036581039 0.58040464
0.050641701 0.05612364 0.55195349
0.052766643 0.055574987 0.5549044
0.055361401 0.053792313 0.55678219
0.058338229 0.050915103 0.55805945
0.043666944 0.057767835 0.55195498
0.047396958 0.05770646 0.55336326
0.052057348 0.055614818 0.55552667
0.056549709 0.052255638 0.55827421
0.058791835 0.050533585 0.56115079
0.060347322 0.046977121 0.56446064
0.036814816 0.056434695 0.55239213
0.039525028 0.057047594 0.55189198
0.060375821 0.0441393 0.56636286
0.059477311 0.042270359 0.56837755
0.034053437 0.054514427 0.5536918
0.043830406 0.048079606 0.56183171
0.046136856 0.046433158 0.56368178
0.057337716 0.039235968 0.57044125
0.030887712 0.051603727 0.55554056
0.03013869 0.048590679 0.5561471
0.039979305 0.045768961 0.56307113
0.043958642 0.043409094 0.56571794
0.053845659 0.036032751 0.57235396
0.028188348 0.049945947 0.55845815
0.029176326 0.046911493 0.55945051
0.031791277 0.043715332 0.56282467
0.036005445 0.041193821 0.56544513
0.038870592 0.038617477 0.56806946
0.043139912 0.035771079 0.56996524
0.047362506 0.034617346 0.57238793
0.050574854 0.034694202 0.57442707
0.030780902 0.043858871 0.56384641
0.034090936 0.041581288 0.56596655
0.039084196 0.037821144 0.56843615
0.041771863 0.036691252 0.57197571
0.044227857 0.035767958 0.57382631
0.047267381 0.056294881 0.5467965
0.050208852 0.055524968 0.54849619
0.054203622 0.053854514 0.55078369
0.057604395 0.051341847 0.5536477
0.060691193 0.04858084 0.55620116
0.062537685 0.046665177 0.55823654
0.043972705 0.055935148 0.54753917
0.047652401 0.056192651 0.54903984
0.056721739 0.051329318 0.55650896
0.060219586 0.048236698 0.55899614
0.062046476 0.044095233 0.56071234
0.037906867 0.053768504 0.5481146
0.039496038 0.054446466 0.54870087
0.059952907 0.04186945 0.56444067
0.060506314 0.039102428 0.56402951
0.034811601 0.051201832 0.55006051
0.057317283 0.03646902 0.56675637
0.032674722 0.049153119 0.55183184
0.032121576 0.046650164 0.55310178
0.051766314 0.033406857 0.56739771
0.05454953 0.034590043 0.56826758
0.031803176 0.043794502 0.55586576
0.033191077 0.041050367 0.55857658
0.035645347 0.03866972 0.56189901
0.039804839 0.0360687 0.56513643
0.044241399 0.033613063 0.56651914
0.048179347 0.033341505 0.56809998
0.0360469 0.036196336 0.56147861
0.039042719 0.034492776 0.56399715
0.04156021 0.032846637 0.56521976
0.050755378 0.052634388 0.54601121
0.054379631 0.050104298 0.54744554
0.057978924 0.048004545 0.54983646
0.060591452 0.046061177 0.55313796
0.044155702 0.051982559 0.54500312
0.048412755 0.050745346 0.54510564
0.052220348 0.048806787 0.54570323
0.058449361 0.044726137 0.55015475
0.060271535 0.0433078 0.55340856
0.061169554 0.040773142 0.55683297
0.06249626 0.039632987 0.56052458
0.038631096 0.051441483 0.54559946
0.041042648 0.049604267 0.5453524
0.059609044 0.037270471 0.55780488
0.060709134 0.036855452 0.56150645
0.035422511 0.048822619 0.54787087
0.037279945 0.046217985 0.5466426
0.05609243 0.03342817 0.56024987
0.058049347 0.034598965 0.56299782
0.033554137 0.046902463 0.54892814
0.034079723 0.043569699 0.54972458
0.03607522 0.039721776 0.55172062
0.048342481 0.031564388 0.56050873
0.052490033 0.031169984 0.56250286
0.054985564 0.032647029 0.56543189
0.032503378 0.041258939 0.55264533
0.03440338 0.038448848 0.55514187
0.037715927 0.035807256 0.55743873
0.041527297 0.03331966 0.56012452
0.044891685 0.031344727 0.56266284
0.048845649 0.030259941 0.56426835
0.035488669 0.035658039 0.55977201
0.039286852 0.033269227 0.56253588
0.042029135 0.031812772 0.56430304
0.0029415004 0.0031275135 0.57722366
0.0056878924 0.0015683826 0.579395
0.0007283017 0.001233412 0.57904065
0.0034371316 -0.00022611208 0.58096045
-0.00055361167 -0.0010464136 0.58060151
0.00071438402 -0.0018346515 0.58171797
0.055535611 0.04599826 0.5445317
0.057374291 0.045079075 0.54606324
0.044884503 0.048234314 0.54335237
0.04845598 0.046775069 0.54273015
0.052521806 0.046288241 0.54371756
0.058205422 0.042359225 0.54748559
0.059261836 0.040037807 0.5502485
0.059887711 0.037833214 0.55334282
0.04247579 0.046032019 0.54365349
0.044361953 0.043982118 0.54218322
0.058102932 0.035041325 0.55214894
0.058323648 0.035516355 0.55494231
0.039125219 0.043718033 0.54586381
0.040740732 0.040464614 0.54544711
0.053363178 0.032252807 0.55468106
0.055251352 0.033143464 0.55725133
0.036981534 0.041859549 0.54814005
0.038557939 0.03804969 0.54908568
0.041051079 0.03325253 0.55111068
0.044353895 0.030993311 0.55351371
0.049134769 0.031189384 0.55658299
0.051887296 0.031631678 0.55933243
0.037475508 0.036497202 0.55236316
0.039604641 0.034131903 0.55362952
0.042937588 0.031904593 0.55570674
0.045847822 0.031138048 0.55850971
0.017297354 0.027137883 0.55206835
0.018185571 0.026672805 0.55235833
0.039432921 0.012727285 0.56765407
0.040160023 0.012341261 0.5684045
0.015511289 0.025989331 0.55319703
0.017169107 0.024124142 0.55503583
0.032501169 0.012036366 0.56739348
0.035968449 0.011914449 0.56852144
0.038465537 0.010929335 0.56978881
0.013489366 0.023216415 0.55493206
0.014701277 0.021165367 0.55747002
0.016510993 0.019251285 0.5593034
0.029460279 0.010794211 0.56865841
0.032147858 0.0097040497 0.57009953
0.035511907 0.0089443997 0.57072812
0.012521014 0.018098315 0.5595572
0.014396798 0.015880343 0.5621385
0.015124369 0.013306845 0.56395209
0.022366773 0.0087735225 0.56848806
0.025180738 0.0088394638 0.56998688
0.028543793 0.0075973123 0.57128966
0.012845974 0.012589976 0.5646252
0.013823561 0.011021011 0.56681192
0.018444762 0.0078830048 0.57010096
0.021726487 0.0070625357 0.57081944
0.0090529062 0.0083636157 0.56720471
0.01139449 0.0079464093 0.56927443
0.015010022 0.0057292096 0.57136792
0.016816638 0.0036318377 0.57248211
0.0075651146 0.0067317933 0.56811839
0.0074624568 0.0053519458 0.57155913
0.010921836 0.0026382748 0.57406521
0.014703345 0.0020216759 0.57369691
0.0044094473 0.0023316313 0.57461721
0.0071846284 0.00049669109 0.57644516
0.0013328418 0.00083411112 0.57776105
0.003697142 -0.00077268295 0.57966483
-0.00067536905 -0.0015029311 0.57969809
0.00096406043 -0.0024135914 0.58104002
0.055865001 0.042426072 0.5407058
0.057604112 0.041517332 0.54204357
0.048908494 0.042577516 0.53977299
0.053011328 0.04251878 0.54044902
0.058056388 0.03891914 0.54404241
0.058665864 0.036616109 0.54684621
0.042635299 0.039946333 0.53871602
0.045184586 0.041301221 0.5397982
0.057919137 0.033166267 0.54920423
0.057658806 0.030183785 0.54970831
0.039919831 0.038324744 0.54027098
0.041162703 0.03857233 0.54329288
0.053638481 0.030380115 0.55223602
0.05561813 0.028029358 0.5516243
0.03853048 0.036388095 0.54181254
0.039519135 0.034510609 0.54502839
0.040218975 0.032831501 0.54863036
0.046015851 0.029089965 0.55292392
0.049541656 0.027841806 0.55238587
0.053334877 0.026729619 0.55238414
0.038106218 0.031082513 0.54560429
0.040165007 0.029992625 0.54910749
0.043713354 0.02789671 0.55175811
0.046782054 0.025329847 0.55197507
0.017799694 0.026588194 0.54846221
0.019402299 0.025078641 0.55107778
0.039337724 0.012053095 0.56532371
0.042421408 0.010565579 0.56619
0.014054682 0.024769489 0.55033702
0.019427188 0.022589445 0.55322719
0.020178992 0.019433223 0.55493367
0.032960534 0.011310138 0.56401676
0.036366194 0.011806097 0.56531382
0.039949726 0.0079610087 0.56886792
0.01198652 0.02072509 0.55256414
0.012052149 0.019932566 0.55588001
0.018843129 0.016819546 0.5579291
0.028551586 0.010366408 0.56494784
0.032845914 0.0065170806 0.5706858
0.035635464 0.0052596014 0.56954676
0.011158906 0.017540431 0.55348927
0.011188701 0.015941836 0.55669326
0.016714316 0.014520319 0.56070983
0.016682155 0.011894977 0.56170428
0.022916658 0.0080865677 0.56593913
0.02516488 0.0093817078 0.56709737
0.029557005 0.0041950811 0.57001859
0.03293667 0.0036063157 0.56927121
0.011063673 0.012794321 0.55847698
0.011390336 0.010663992 0.56185007
0.015675709 0.0080279559 0.56483877
0.01807306 0.0067883842 0.56645077
0.022152681 0.0034843143 0.56981665
0.025879445 0.0032308847 0.56967235
0.0089694858 0.0070032403 0.56446904
0.013850197 0.0044182483 0.56684059
0.013771005 0.0039636139 0.56712729
0.017934561 0.001243569 0.57096088
0.0057379901 0.0038574617 0.56618077
0.008439634 0.0020829383 0.56925285
0.010587815 0.00039310753 0.57073659
0.014490921 -0.0016701911 0.57250923
0.0026069693 0.00069569983 0.56797892
0.0047861524 -0.00017094053 0.57151747
0.0074882396 -0.0022985209 0.57277077
0.010741796 -0.004715858 0.57436025
0.0010081492 -0.0017660577 0.56944627
0.0013389513 -0.0039821379 0.57250166
0.0044848099 -0.0058850106 0.57516259
0.0082637966 -0.0067467988 0.57540798
-0.0016336329 -0.0069331266 0.57462132
0.0010346547 -0.0083225127 0.57706732
-0.0043240972 -0.0094137713 0.57622772
-0.001659777 -0.010820825 0.57877737
0.056478381 0.039294817 0.53678668
0.058467485 0.038022548 0.53842473
0.046621427 0.039712023 0.53321785
0.049928017 0.039521731 0.53573662
0.053102899 0.03965418 0.5369277
0.058659233 0.036168363 0.54085505
0.05967278 0.033072229 0.54285192
0.061568525 0.029955577 0.54438645
0.043662362 0.038966119 0.53495175
0.046536487 0.040233992 0.53706789
0.059144687 0.032142304 0.546076
0.05993852 0.028428163 0.54667366
0.039642926 0.03652788 0.53749746
0.039296344 0.035623565 0.54081571
0.053699136 0.026363857 0.55094558
0.056696426 0.025370955 0.5495407
0.037403151 0.033012271 0.53888255
0.03764281 0.032200545 0.54182541
0.050436631 0.023767196 0.55112207
0.053250417 0.022730224 0.55022717
0.036824994 0.028629372 0.54284668
0.038991667 0.026076641 0.5465439
0.042857148 0.023662239 0.54941183
0.047531914 0.021887034 0.55062228
0.038110651 0.023105912 0.54550308
0.041399982 0.021338854 0.54806173
0.01866943 0.025914032 0.53977484
0.02082834 0.025771879 0.54156762
0.043933522 0.0093936026 0.55832613
0.046492744 0.0088388082 0.56017518
0.048115898 0.006734171 0.56096351
0.016186234 0.024652887 0.54137218
0.018475637 0.025353327 0.54398417
0.021311671 0.021459151 0.54680866
0.040381774 0.009324044 0.56012303
0.044752911 0.0080772871 0.56296378
0.046337079 0.0050695306 0.56305909
0.014299355 0.023177126 0.54377639
0.014523279 0.020903612 0.54665399
0.018834896 0.018172303 0.54910529
0.019873172 0.01717902 0.55220151
0.033136047 0.0084756743 0.56170893
0.036363326 0.0067302268 0.56162572
0.040172316 0.0042871702 0.56517071
0.043778196 0.0039314954 0.56476301
0.012085564 0.018469095 0.54974353
0.015712146 0.015597921 0.55016923
0.018380083 0.013971922 0.55413848
0.029208088 0.0064984439 0.56227678
0.033805922 0.0037218779 0.56325632
0.036222003 0.0027635582 0.56714743
0.011329371 0.016470779 0.55196196
0.012194801 0.013459011 0.55374277
0.015205778 0.010743113 0.55590922
0.016316772 0.0093577933 0.55957675
0.023309162 0.0055575483 0.56389737
0.026215212 0.0036423383 0.56381589
0.029872254 0.0019201916 0.56653082
0.033280224 0.0024283733 0.56807566
0.012767799 0.0081195747 0.55933189
0.014530044 0.0055351667 0.56092095
0.01907732 0.0027512256 0.56423426
0.021637589 0.0017270409 0.56617481
0.025835807 0.0018811822 0.56768405
0.0096676871 0.003818078 0.56072474
0.014083095 0.0021283394 0.56334466
0.015003912 0.0014728792 0.56410283
0.018692654 -0.0022163559 0.56707311
0.0062238649 0.00082301348 0.56285405
0.009628024 -0.0018805973 0.56582463
0.010974135 -0.0025044978 0.56658316
0.015330132 -0.0050852671 0.56927842
0.0040517002 -0.0015576482 0.56472278
0.0042737275 -0.00337727 0.56655771
0.0075461939 -0.0054377131 0.56800073
0.011647131 -0.0074653085 0.57111019
0.0029388294 -0.0060928725 0.56848347
0.0064250976 -0.0087453723 0.57107306
0.0090316385 -0.010318331 0.57076788
0.056522228 0.036368944 0.53280497
0.05946267 0.034612346 0.5347752
0.04723613 0.037412528 0.53065544
0.050454434 0.037269503 0.53114557
0.053832039 0.037393939 0.53262132
0.060465492 0.033085503 0.53718495
0.06146504 0.02998369 0.53911257
0.061938591 0.027657939 0.54148579
0.044193864 0.036303442 0.53112048
0.060886189 0.028764015 0.54289049
0.060941711 0.025418878 0.54331732
0.03932108 0.034116644 0.5325371
0.058821552 0.021583349 0.54604632
0.034979738 0.030647883 0.53197688
0.035663389 0.030650238 0.53528202
0.05454265 0.018446371 0.54873294
0.056320027 0.015998829 0.54800594
0.034421302 0.026641075 0.53684574
0.035230979 0.025808018 0.54061514
0.047412354 0.018157572 0.54933202
0.050555054 0.016311817 0.54854143
0.022621766 0.02595927 0.53440094
0.024551934 0.025661092 0.53618687
0.033184454 0.023400173 0.53774399
0.033538006 0.022006167 0.54097235
0.037059743 0.019479232 0.54456806
0.040275026 0.017530734 0.54700804
0.044392969 0.014948757 0.54886883
0.047664266 0.011592549 0.55042738
0.050174199 0.0085943025 0.55452991
0.051647332 0.0064740609 0.55539215
0.019186419 0.025643701 0.5366382
0.022804081 0.025359925 0.53911662
0.025170049 0.021195687 0.54030478
0.033172548 0.018222142 0.54202932
0.041218258 0.012692611 0.54788834
0.044355206 0.0087157069 0.55427521
0.048670061 0.008577833 0.55732834
0.050156306 0.0053572636 0.55896604
0.016457509 0.023508471 0.53859723
0.017241471 0.019609747 0.53996605
0.023283135 0.01849287 0.54379869
0.040293708 0.0075257383 0.55575395
0.044161536 0.002157256 0.55917084
0.047552444 0.0033201296 0.5610767
0.014896113 0.021798663 0.54178405
0.016811989 0.018271368 0.54327059
0.019586168 0.016490918 0.54503334
0.03819925 0.0042184265 0.55836821
0.040525664 0.002819581 0.56084925
0.044181861 0.0027637267 0.56304103
0.009863127 0.0002701655 0.55787641
0.01322164 -0.00092100725 0.55848372
0.016296025 -0.0032133292 0.56095243
0.018306553 -0.0052812174 0.56407881
0.0087708607 -0.0015659109 0.55876493
0.008313112 -0.0042862818 0.56094337
0.011326984 -0.0069846343 0.56345862
0.015282296 -0.007686507 0.56517613
0.004082337 -0.004263794 0.56292337
0.0060391463 -0.0070621856 0.56248659
0.009695977 -0.0089779869 0.5653528
0.011757012 -0.010068733 0.56807441
0.0024964996 -0.010067694 0.56506616
0.005735714 -0.012346238 0.56820428
0.0083221197 -0.012665037 0.5698812
-0.00043345243 -0.013615053 0.56661463
0.0025834441 -0.015540287 0.56961441
-0.0034528449 -0.016701914 0.56806797
-0.00039332733 -0.018713042 0.57074219
0.057356372 0.033602282 0.52925158
0.060548518 0.03171286 0.53140187
0.047483187 0.034290604 0.52788866
0.050734043 0.033879716 0.52763116
0.054662578 0.033281222 0.52861714
0.06076698 0.029239014 0.53267723
0.061733201 0.026613947 0.53550643
0.061955556 0.02395761 0.53741133
0.040555783 0.032950677 0.52523243
0.044431701 0.033023316 0.52723324
0.061992865 0.022786431 0.53593159
0.0616288 0.021845262 0.5396868
0.063204542 0.018080395 0.54151469
0.037329149 0.031856455 0.52636892
0.039748784 0.032777339 0.52910954
0.060078926 0.019290263 0.5440039
0.061789811 0.016026001 0.54385549
0.034210205 0.029212454 0.52919424
0.058055617 0.013862821 0.54624176
0.026201658 0.025687754 0.52818191
0.030612409 0.024672458 0.53035361
0.033246666 0.023931939 0.53328323
0.051563103 0.011929747 0.54641712
0.054464217 0.0093375556 0.54730666
0.056522235 0.0060872417 0.54976714
0.023056593 0.025231807 0.53023213
0.027215671 0.024654986 0.53341746
0.030570745 0.020883534 0.53504878
0.032040026 0.020586096 0.53826869
0.037221909 0.014842227 0.54289687
0.038119398 0.014091695 0.54303592
0.045669004 0.01151768 0.5479266
0.048189517 0.0094502699 0.54791027
0.052382458 0.0081391409 0.55128312
0.054743111 0.0046404693 0.55297703
0.020045023 0.022819195 0.53261054
0.026747083 0.01832379 0.53701484
0.031483859 0.016520366 0.53911948
0.03524287 0.014394865 0.54131395
0.03907463 0.011870715 0.54429245
0.042449564 0.0095327571 0.54744297
0.044872619 0.0065661306 0.550165
0.051420607 0.0025629979 0.55532211
0.018699858 0.020006128 0.53458577
0.019825723 0.017490443 0.53686023
0.022878291 0.015538902 0.53938109
0.041645609 0.0032628849 0.55261946
0.044913266 0.0012774654 0.55514431
0.048411261 0.00095318258 0.55587989
0.018879894 0.016519416 0.54074979
0.020246964 0.015325147 0.54140705
0.026651664 0.0046953708 0.54656899
0.028319094 0.0035384912 0.54795545
0.040092621 0.0023600226 0.55543375
0.041422572 0.0018060766 0.55698127
0.022646025 0.0036362614 0.54833889
0.02602599 0.0013465881 0.55076629
0.021456894 0.0017514378 0.5495891
0.024372136 -1.7799437e-05 0.55136031
0.0098019764 -0.002774585 0.55603743
0.011910643 -0.0047164466 0.55576867
0.015802734 -0.0071056429 0.55897462
0.01717262 -0.0079318061 0.56118822
0.0092246383 -0.0038193315 0.55618286
0.010011919 -0.0076969154 0.55713981
0.013201423 -0.0099494383 0.5594635
0.015839081 -0.0093254894 0.56200862
0.0090743415 -0.0111228 0.55777758
0.011489969 -0.012344379 0.55997217
-0.0011122487 -0.015624676 0.56510359
0.0015422031 -0.018739499 0.56891835
-0.0032923222 -0.018281769 0.56632781
-0.00035911798 -0.020009018 0.56940192
0.058315154 0.030634724 0.52717251
0.060112942 0.029467694 0.52837443
0.051090699 0.030343931 0.52517235
0.055214547 0.028586719 0.52618974
0.059342857 0.026034847 0.5287466
0.061211906 0.023581106 0.53252929
0.041067231 0.031365279 0.52401692
0.044285126 0.029865598 0.52357054
0.048541594 0.028572947 0.52405953
0.060977548 0.020362379 0.53327507
0.062215678 0.018153293 0.53658849
0.063166082 0.017369859 0.53985769
0.037871402 0.028700367 0.5238055
0.040625192 0.027521005 0.52301699
0.06121549 0.014168622 0.53798854
0.061485626 0.013353219 0.54094481
0.031324755 0.025060885 0.52252901
0.033627663 0.026930086 0.52367485
0.06047029 0.0094184671 0.54320991
0.06004563 0.0063230377 0.5436582
0.027079696 0.024406584 0.5247485
0.030496418 0.024793208 0.52715147
0.032619275 0.021174408 0.53218448
0.050235849 0.0095825158 0.54496694
0.056592181 0.0079931598 0.54599589
0.058356185 0.0043899613 0.54708266
0.022904836 0.02304389 0.52603805
0.031257242 0.018821811 0.53281063
0.038515732 0.0098569803 0.53868556
0.048270907 0.0075287186 0.54514134
0.056601908 0.0013090055 0.55033612
0.020150732 0.019738022 0.52839339
0.02786918 0.014793977 0.53483939
0.031335197 0.012856212 0.53573835
0.035463877 0.010842497 0.53848487
0.038742546 0.0085500879 0.54100031
0.042068563 0.0055362228 0.54368055
0.044405866 0.0043121632 0.54654741
0.052509345 -0.0014394615 0.55204129
0.019133698 0.017142605 0.5309571
0.020753708 0.014974006 0.53272021
0.02395295 0.013743549 0.53481621
0.030364607 0.0045700911 0.54068196
0.032707207 0.0032344619 0.54243487
0.043739028 0.00089516304 0.54921514
0.046253234 -0.0015654862 0.55104464
0.049070653 -0.0023105163 0.55242813
0.024527498 0.0045150574 0.541466
0.027954992 0.0046404842 0.54250145
0.031372976 0.0020354819 0.54542446
0.032193087 -0.0014369413 0.5463472
0.021547111 0.0031594643 0.54306906
0.022259146 0.0034029046 0.54550779
0.028661078 -0.00070263259 0.54943109
0.030472325 -0.0034170747 0.54874104
0.016988736 -6.140396e-05 0.54409689
0.019827291 -0.0013399124 0.54771012
0.023905678 -0.0038802139 0.55050045
0.027547613 -0.0066414885 0.55165541
0.016680084 -0.0029804446 0.54485929
0.019062746 -0.0047817007 0.54819345
0.022109846 -0.0066114403 0.54994851
0.025021562 -0.0079771765 0.55146247
0.010189537 -0.010923933 0.55484349
0.013068162 -0.012832878 0.55684304
0.007782165 -0.014063463 0.55557513
0.010296296 -0.015692003 0.55781639
0.0061851703 -0.016991619 0.55640626
0.0083998851 -0.018596318 0.55840015
0.055189978 0.024127539 0.52485669
0.05767091 0.022735838 0.52615505
0.044955444 0.025823902 0.52132195
0.048384249 0.024296992 0.52219391
0.052954655 0.022597425 0.5234834
0.057738535 0.019408632 0.52654916
0.059411965 0.017146386 0.53013152
0.061103385 0.015247416 0.53302407
0.038008578 0.02490568 0.52195448
0.041491497 0.02394364 0.52125067
0.045794941 0.021839604 0.52101022
0.058657482 0.013365236 0.53041095
0.059995506 0.011773176 0.53460634
0.060278956 0.010470839 0.53807461
0.031253353 0.024028629 0.52131748
0.034745164 0.02344111 0.52096468
0.038746119 0.021891005 0.52059019
0.059337799 0.0083606262 0.53581506
0.060187772 0.006944811 0.5392893
0.060490243 0.0048022363 0.54235613
0.028615724 0.02229283 0.52212173
0.030587103 0.019311247 0.52183819
0.056906037 0.0020701587 0.54082549
0.058977399 0.0027130377 0.54389298
0.024504116 0.018950356 0.52317429
0.028867017 0.016706947 0.52294081
0.030528747 0.012143243 0.52736521
0.034913916 0.01096779 0.53061271
0.035633557 0.0094506405 0.53216344
0.042383648 0.0046788333 0.53741801
0.044569846 0.0042493269 0.53773344
0.048284981 0.00041590817 0.54013628
0.054516155 -0.00022322871 0.54165059
0.05587665 -0.0015721451 0.54578614
0.021830637 0.016192736 0.5254792
0.023870381 0.012605278 0.52664286
0.027935924 0.011294602 0.52966434
0.032182269 0.011339843 0.53302574
0.034542367 0.007757456 0.53525448
0.03884463 0.0044520115 0.53868967
0.043159612 0.004083652 0.54065931
0.045884162 -0.00051995739 0.54264402
0.04917096 -0.0037797187 0.54491138
0.052597731 -0.0037475284 0.54744297
0.020265304 0.015321864 0.52893901
0.022263248 0.013065469 0.52957344
0.024513701 0.011708718 0.53141445
0.028582606 0.0034076702 0.53499573
0.031648748 0.0040908828 0.53716326
0.035383269 0.0017890278 0.53968871
0.036297303 -0.0016019139 0.54068482
0.044871822 -0.0013893973 0.54610872
0.0473952 -0.0032260865 0.54764026
0.025280492 0.0026791273 0.53700489
0.028151825 0.0036328165 0.53840613
0.0337083 -0.00023249164 0.54260075
0.034298275 -0.0034257732 0.54351217
0.020574041 0.00085653923 0.53832608
0.031849831 -0.0065557081 0.54661286
0.01616862 -0.00032388419 0.54023063
0.016726602 -0.001284752 0.54021376
0.028612576 -0.0093490742 0.5492093
0.016077857 -0.005195301 0.54270005
0.017375775 -0.0082748719 0.54576772
0.021279696 -0.010566128 0.54818642
0.02501451 -0.010494383 0.54934824
0.0077615753 -0.016917773 0.55386847
0.0096122064 -0.01843971 0.5555625
0.0062876306 -0.018583555 0.55429018
0.0085260905 -0.020238522 0.55641735
0.048817351 0.020337295 0.52227521
0.053300783 0.01952753 0.52324337
0.055885624 0.018068874 0.52481699
0.05689219 0.015610315 0.52766484
0.04195258 0.020575127 0.52033842
0.045477383 0.018787682 0.52139598
0.049804535 0.015577446 0.52319151
0.053123556 0.013181122 0.5254541
0.056483008 0.011644594 0.52944249
0.058251247 0.0096068112 0.53217852
0.035195321 0.019243944 0.51965731
0.038615286 0.01785454 0.52034372
0.042397637 0.014605839 0.52196622
0.046401709 0.011798464 0.52392405
0.049857128 0.0094108433 0.52631402
0.053312056 0.0075328695 0.52997547
0.056634746 0.0060452167 0.53339642
0.058388431 0.0040493403 0.53645718
0.03309324 0.017390925 0.52081347
0.035697617 0.014211716 0.52172363
0.038676545 0.011598226 0.52245879
0.0454362 0.0080233887 0.52594525
0.046918515 0.0081826355 0.52607095
0.050917059 0.0037624743 0.53110594
0.053572994 0.0025872365 0.53468251
0.056435309 0.0020921063 0.53779101
0.024842069 0.015455775 0.52270979
0.028201573 0.014803083 0.52345175
0.031804934 0.012181338 0.52475393
0.035321675 0.0086510843 0.52708513
0.036838174 0.0054458948 0.52699268
0.043191411 0.001101803 0.53177512
0.046056978 0.0015606675 0.53458327
0.049810443 0.00023948029 0.5378052
0.052597236 -0.00099031441 0.54087567
0.053707186 -0.0034384876 0.54367292
0.023893949 0.014768209 0.52336425
0.025040993 0.013166859 0.52441633
0.034780219 0.0062171798 0.52945256
0.034320403 0.003989609 0.53004307
0.040337626 1.8291175e-06 0.53387702
0.042462207 0.0010617264 0.53499627
0.051336609 -0.0037379488 0.54340267
0.029869488 0.0017459672 0.53166455
0.03161981 0.0029094424 0.53199726
0.037852444 -0.0012922119 0.53766149
0.038016934 -0.0035010446 0.53728861
0.024137743 -4.5042485e-05 0.5328052
0.035738811 -0.0073541552 0.54136908
0.021631984 -0.0022741463 0.53360105
0.033663422 -0.0099414829 0.54259205
0.01825412 -0.0055590384 0.53670484
0.028948722 -0.012591951 0.54470134
0.015773792 -0.0088029094 0.5393455
0.016489565 -0.011896038 0.54211241
0.021578666 -0.014983445 0.54558051
0.025275761 -0.015060756 0.54596573
0.017625704 -0.013585396 0.5429455
0.019422386 -0.014592908 0.54444569
0.04485837 0.0098889936 0.52399522
0.048588954 0.0074035311 0.52677971
0.040167838 0.0097156651 0.52333319
0.042676203 0.0081524504 0.52489352
0.046782132 0.0054493994 0.52789277
0.048927061 0.0037009744 0.52995276
0.038275991 0.0078285309 0.52467012
0.039847195 0.0048689023 0.52736193
0.042871248 0.0029624877 0.52949882
0.046809334 0.0022160392 0.53088731
0.036200639 0.0014977828 0.52912188
0.039072491 -0.00073417276 0.53135699
0.029980818 -0.0010598134 0.52884096
0.033278637 -0.0016845558 0.52866399
0.037748087 -0.0042774491 0.53195423
0.038046136 -0.0064209998 0.53477257
0.022509951 -0.004209701 0.52772391
0.024581255 -0.0030742399 0.52933758
0.036466546 -0.010489825 0.53791666
0.036948867 -0.012781471 0.53911942
0.022109713 -0.0040051341 0.5285331
0.022077341 -0.0051047411 0.53076345
0.034109492 -0.012916783 0.53965503
0.03654274 -0.013104709 0.53953755
0.01920867 -0.0092260446 0.53348792
0.029372064 -0.015616335 0.54094487
0.016686242 -0.012104878 0.53580076
0.017780203 -0.015325811 0.53856993
0.021744587 -0.017833859 0.54129738
0.025839552 -0.018000972 0.54211873
0.01764999 -0.014668483 0.54116368
0.01941577 -0.015887998 0.54236281
0.03270071 -0.0059607774 0.52774614
0.035597861 -0.0078178719 0.52993137
0.0267828 -0.0070727915 0.5269925
0.030278156 -0.0089812595 0.52690214
0.034430742 -0.011494027 0.5299353
0.035622261 -0.012677141 0.53335023
0.023402689 -0.0095035974 0.52780807
0.033503726 -0.014987778 0.53081977
0.033498622 -0.016143851 0.53524691
0.020597871 -0.012577221 0.5303126
0.020681776 -0.015931275 0.53058457
0.026941616 -0.020254087 0.53551883
0.029579611 -0.018577192 0.53692567
0.018447801 -0.014370892 0.53308678
0.019834585 -0.017335474 0.53406316
0.023354771 -0.019705407 0.53669244
0.026556835 -0.019490849 0.53858507
0.030110745 -0.012398258 0.52713692
0.032036096 -0.013196027 0.5283699
0.024926253 -0.01205961 0.52654785
0.026979111 -0.016273007 0.52694809
0.029431511 -0.018018339 0.52859581
0.031990208 -0.017926242 0.5321722
0.022858702 -0.014008775 0.52764469
0.024505116 -0.018686645 0.52838188
0.026822673 -0.020631202 0.53035009
0.030015348 -0.019487746 0.5333938
0.022348775 -0.018910643 0.53193551
0.024429021 -0.020182874 0.53312081
0.041924544 -0.014128752 0.51826382
0.043207902 -0.014835238 0.51878738
0.040350303 -0.015107423 0.51875675
0.027504932 -0.019799273 0.52541751
0.028382204 -0.020537384 0.52577215
0.025499972 -0.021336652 0.52563977
0.027240813 -0.022612862 0.52711374
0.023930123 -0.023114666 0.52783865
0.024649361 -0.0235213 0.52824438
0.045613069 -0.012960387 0.51528484
0.046567593 -0.013570316 0.5157944
0.042360991 -0.014840238 0.51587653
0.044402704 -0.01549384 0.51753914
0.036072589 -0.017322078 0.51550639
0.038844451 -0.017576929 0.51754361
0.041909069 -0.017730314 0.51845986
0.033414334 -0.019807708 0.51570368
0.036055006 -0.020479854 0.51738495
0.02864014 -0.022804864 0.51902819
0.029737016 -0.024105493 0.52056575
0.025712041 -0.024597585 0.52135986
0.027677383 -0.025640585 0.52286124
0.035870478 -0.019629076 0.51339626
0.038269781 -0.020279791 0.51448911
0.032754544 -0.022028629 0.51362485
0.035258211 -0.02325514 0.51537979
0.029254973 -0.025201105 0.51525152
0.031113824 -0.025405966 0.51741529
0.027246688 -0.026717931 0.51801497
0.028591357 -0.026816417 0.51915169
