# .PCD v0.7 - Point Cloud Data file format
VERSION 0.7
FIELDS x y z
SIZE 4 4 4
TYPE F F F
COUNT 1 1 1
WIDTH 1294
HEIGHT 1
VIEWPOINT 0 0 0 1 0 0 0
POINTS 1294
DATA ascii
0.33407056 -0.17257914 0.75651389
0.33667201 -0.17304695 0.75660223
0.34143108 -0.17393667 0.75785995
0.34618533 -0.17478028 0.75910705
0.35095271 -0.17551149 0.76047438
0.35571206 -0.17632163 0.76175541
0.36041856 -0.17712292 0.76305676
0.36537009 -0.17812955 0.7643255
0.37013549 -0.1787931 0.76571232
0.37482208 -0.17974687 0.76693481
0.37938964 -0.18055847 0.76814526
0.38244465 -0.18110819 0.76917613
0.33424628 -0.1680093 0.75895733
0.33684292 -0.16824864 0.75931531
0.34156758 -0.16918834 0.7605381
0.34623203 -0.17010164 0.76175362
0.35103542 -0.17087962 0.7630986
0.35585451 -0.17182049 0.76435596
0.36054429 -0.17286517 0.76550549
0.36536911 -0.17355365 0.7669099
0.37015793 -0.17431043 0.76826161
0.37484837 -0.17533712 0.7694217
0.37955672 -0.176126 0.77072501
0.38250536 -0.177045 0.77168298
0.33431199 -0.16405508 0.76139313
0.33691356 -0.16406614 0.76174277
0.34155774 -0.16480361 0.76305169
0.34632948 -0.16575441 0.76428562
0.3512103 -0.16673188 0.76554501
0.35589293 -0.16756147 0.76681536
0.36051357 -0.16839723 0.76805902
0.36541757 -0.16925688 0.7693947
0.37015566 -0.17018563 0.77062875
0.3748489 -0.17095353 0.7719385
0.37972626 -0.17200473 0.7731542
0.38264531 -0.17242894 0.77430081
0.33445638 -0.15964697 0.7638436
0.33692113 -0.15986043 0.76416004
0.34162602 -0.16044351 0.76558018
0.34630004 -0.16135307 0.76680142
0.35131869 -0.16256902 0.76797527
0.35605711 -0.16312751 0.76942205
0.36065754 -0.16407484 0.77059418
0.36555779 -0.1649991 0.7718913
0.37024778 -0.16588379 0.77313274
0.37488109 -0.16652325 0.77449387
0.37983894 -0.16760612 0.77572143
0.38284668 -0.16828594 0.77681679
0.33454433 -0.15507129 0.76661801
0.33707371 -0.15551713 0.7667104
0.34198934 -0.15620318 0.76815003
0.34670818 -0.15710625 0.76939172
0.35129777 -0.15803686 0.77056932
0.35605469 -0.15880147 0.77190471
0.36069652 -0.15977332 0.77307814
0.36556423 -0.16073953 0.77433908
0.37014645 -0.16139799 0.77567023
0.37511641 -0.16236432 0.77696925
0.38011158 -0.16326803 0.77831358
0.38290954 -0.16368958 0.7793147
0.33465624 -0.15123212 0.76880372
0.33730653 -0.15114284 0.76930845
0.34197903 -0.15200591 0.77055579
0.3466759 -0.15274239 0.77188492
0.35154682 -0.15352511 0.77325237
0.35609654 -0.15445574 0.77441514
0.36086273 -0.15554607 0.77556694
0.36575967 -0.15623289 0.77699918
0.37055171 -0.15718216 0.77824163
0.37526727 -0.15818189 0.77942657
0.37972763 -0.15881769 0.78072524
0.38286257 -0.15919203 0.78189874
0.33478412 -0.1467011 0.77139902
0.33724007 -0.14689943 0.77171975
0.34191158 -0.14753953 0.77309477
0.34666067 -0.14845413 0.77434105
0.35154113 -0.14918099 0.7757442
0.35637391 -0.15037905 0.77685899
0.36101514 -0.15091491 0.77828252
0.3660104 -0.15192786 0.7795642
0.37075669 -0.15293485 0.78075641
0.37549531 -0.15375103 0.78205538
0.38008717 -0.15468022 0.78323466
0.38315126 -0.15497854 0.78442037
0.33486313 -0.14196013 0.77431875
0.33737257 -0.14255294 0.77426445
0.34229952 -0.14310451 0.77578557
0.34693205 -0.14403588 0.77697873
0.35169518 -0.14499515 0.77820468
0.35633358 -0.14591044 0.77940935
0.36123946 -0.14673212 0.78076744
0.36603338 -0.14761899 0.78204644
0.37073082 -0.14849411 0.78329617
0.37561846 -0.14952007 0.78453022
0.38038656 -0.15037037 0.78582054
0.383295 -0.15107867 0.78690791
0.33497134 -0.13763502 0.7768476
0.33746397 -0.13806006 0.77687788
0.3422558 -0.13900529 0.77812254
0.34710559 -0.13999766 0.77936178
0.35184029 -0.14073314 0.78070557
0.35664448 -0.14164466 0.7819742
0.36131728 -0.14253862 0.78320396
0.36628661 -0.1433872 0.78457028
0.37090886 -0.1441859 0.78583586
0.37553617 -0.14511159 0.7870304
0.38031647 -0.14597726 0.78831643
0.38332143 -0.14655469 0.78935277
0.33513874 -0.1332798 0.77917659
0.33753854 -0.13384688 0.77932441
0.34236932 -0.13462678 0.78067851
0.34702802 -0.13551286 0.7819075
0.35189533 -0.13636488 0.78323388
0.35655245 -0.13743989 0.78435379
0.36134234 -0.13828063 0.78565776
0.36619407 -0.13905445 0.78702319
0.37085465 -0.13986118 0.78829843
0.37561452 -0.14075649 0.78955984
0.38057429 -0.14165804 0.79089224
0.38349444 -0.14215124 0.79206443
0.33515748 -0.12927017 0.78182495
0.33770818 -0.12955329 0.7818526
0.34246427 -0.13019818 0.78325635
0.34710351 -0.1311264 0.78445387
0.35188445 -0.13203833 0.78571361
0.35691488 -0.13310638 0.78697681
0.36143515 -0.13399717 0.78815144
0.36626253 -0.1345017 0.78966236
0.37100399 -0.13555148 0.79082823
0.37574595 -0.13628495 0.79217589
0.38049302 -0.13730986 0.79335815
0.38355112 -0.13768354 0.79464906
0.33523601 -0.12497195 0.78444618
0.33758748 -0.12518376 0.78431606
0.34254891 -0.12590224 0.7857542
0.34710827 -0.12677997 0.78695089
0.35197055 -0.12762375 0.78828013
0.35691267 -0.12875995 0.78947121
0.36167982 -0.12944426 0.79085648
0.36643955 -0.13018391 0.79220718
0.37109742 -0.13129091 0.79330903
0.37583163 -0.13209191 0.79461503
0.38061705 -0.1330218 0.79586613
0.38363069 -0.13386428 0.79689413
0.33542424 -0.12037624 0.78686064
0.33779716 -0.12096642 0.7868154
0.34268248 -0.12173029 0.78819907
0.34753406 -0.12270533 0.78944892
0.35230127 -0.12344754 0.79080099
0.35704207 -0.1244102 0.79201663
0.36163926 -0.12535125 0.79319108
0.36644006 -0.12601343 0.79460162
0.37143418 -0.12682319 0.79599953
0.3759948 -0.12791631 0.79707307
0.38091195 -0.12867776 0.79846996
0.38367927 -0.12936717 0.79938853
0.33551377 -0.11637791 0.78923762
0.33825165 -0.11653154 0.78953093
0.34300065 -0.11747399 0.79076123
0.34745967 -0.11813992 0.79204214
0.35216299 -0.11906216 0.79326695
0.35702112 -0.11996047 0.79456335
0.36191306 -0.12082923 0.79588926
0.36668301 -0.12185072 0.79708201
0.37144509 -0.12252169 0.798473
0.37621427 -0.1235697 0.79965025
0.38084382 -0.12418706 0.80102265
0.38379681 -0.12517431 0.80186713
0.3356111 -0.1120645 0.79179919
0.33789301 -0.11225129 0.79185438
0.34281424 -0.11308284 0.79321259
0.34758368 -0.11386736 0.79454118
0.35245991 -0.11474673 0.79585516
0.35700923 -0.11568832 0.79701149
0.36187589 -0.11657371 0.79831845
0.36660546 -0.11734562 0.7996394
0.3713671 -0.11835666 0.80083501
0.37609679 -0.11905796 0.80219656
0.38101193 -0.119954 0.80351549
0.38396874 -0.12051041 0.80460125
0.33578607 -0.10748173 0.79425418
0.33841971 -0.10803887 0.79446918
0.34303969 -0.10866533 0.79583275
0.34788185 -0.10959971 0.79710245
0.35256183 -0.11025409 0.79847234
0.35714966 -0.11151106 0.79946202
0.36187127 -0.11242718 0.80069721
0.3666341 -0.11302312 0.80213159
0.37167189 -0.11393192 0.80348891
0.37621865 -0.11481524 0.80467772
0.38103256 -0.11543303 0.80611861
0.38406241 -0.11642809 0.80689007
0.33590761 -0.10330398 0.79663372
0.33855885 -0.10362653 0.79705411
0.34308144 -0.1045847 0.79819095
0.34786505 -0.10519663 0.79962391
0.35265565 -0.10618109 0.80084562
0.35764089 -0.10720752 0.8021158
0.36234024 -0.10804106 0.80339015
0.36707249 -0.10876075 0.80474204
0.37172687 -0.10964396 0.80597109
0.37676725 -0.11044738 0.80738991
0.38104296 -0.11130502 0.80849236
0.38415834 -0.1121723 0.80944502
0.33594063 -0.099517338 0.79907769
0.33864194 -0.099302776 0.79956734
0.34335107 -0.10013378 0.80084676
0.34826928 -0.10102388 0.80217022
0.35289222 -0.10172097 0.80349433
0.35757244 -0.10258339 0.80474496
0.36255327 -0.10364474 0.8059935
0.36710751 -0.10436844 0.80727673
0.3716597 -0.10524707 0.80847025
0.3764427 -0.1064157 0.80958337
0.38137928 -0.10707596 0.81104565
0.38423643 -0.10783161 0.81198126
0.3360821 -0.09457016 0.80190444
0.33861849 -0.094937533 0.8020646
0.34336206 -0.095682375 0.80340636
0.34808752 -0.096839331 0.80450475
0.35287145 -0.097472809 0.80592543
0.35768461 -0.098513253 0.80712342
0.36239037 -0.099216513 0.8084749
0.36707181 -0.10011581 0.80970478
0.37190267 -0.10107772 0.81095445
0.37673432 -0.10198459 0.81223601
0.38137057 -0.10278933 0.81350332
0.38449484 -0.10379197 0.81443506
0.3361477 -0.09046673 0.80444187
0.33866543 -0.090739541 0.80449218
0.34331396 -0.091431655 0.80582869
0.34806749 -0.092441827 0.8070218
0.35305831 -0.093330227 0.80837333
0.35761794 -0.094027959 0.80967349
0.36253101 -0.094768107 0.81108111
0.36734742 -0.095855698 0.81225324
0.37190896 -0.096760005 0.81343555
0.37678838 -0.097533815 0.81481129
0.38138369 -0.098335065 0.81606531
0.38446283 -0.099256605 0.81696367
0.33625862 -0.08611466 0.80697894
0.33880556 -0.086201228 0.80714983
0.34365886 -0.087234899 0.80836666
0.34851208 -0.087930232 0.80977768
0.35301396 -0.089061849 0.81080723
0.35810101 -0.089785583 0.81228918
0.36270562 -0.090531267 0.81357861
0.36750084 -0.091675535 0.81471026
0.37213042 -0.092373081 0.81603664
0.37696874 -0.093231775 0.8173483
0.38154817 -0.094048291 0.81858766
0.38460025 -0.094995208 0.81958771
0.33636862 -0.081783772 0.80950522
0.33906612 -0.082075797 0.80961537
0.34353209 -0.082774356 0.81088012
0.34845498 -0.083786257 0.8121354
0.35325187 -0.084682457 0.8134101
0.35803077 -0.085363656 0.81480157
0.36269686 -0.086319849 0.81599301
0.3674053 -0.087148853 0.81727332
0.37235814 -0.088011034 0.81862575
0.37696126 -0.088695221 0.81994992
0.38174498 -0.089816295 0.82109064
0.38475582 -0.090483338 0.82212448
0.33651358 -0.077133164 0.81211799
0.33902037 -0.077636577 0.81214678
0.34371814 -0.078443393 0.81343585
0.34830719 -0.079265602 0.81467551
0.35331678 -0.080180936 0.81601858
0.35801131 -0.080887087 0.81736422
0.36270598 -0.081851445 0.81856167
0.36751789 -0.082889602 0.8197605
0.37224391 -0.083571471 0.82113183
0.37707031 -0.084558859 0.82236522
0.38191664 -0.085594714 0.82357818
0.38481936 -0.086156338 0.82461625
0.33658224 -0.073532 0.81430358
0.33913741 -0.073272415 0.81469589
0.34385675 -0.074274726 0.81588078
0.34852874 -0.074865811 0.81728405
0.35348019 -0.076043978 0.8184545
0.35826725 -0.076686144 0.81987143
0.36298487 -0.077749208 0.82102078
0.36760697 -0.078494512 0.82231694
0.37241918 -0.07938993 0.82359779
0.37709209 -0.080271445 0.8248347
0.38205913 -0.08120919 0.82614905
0.38505155 -0.08204487 0.82704878
0.33676189 -0.068161964 0.81727469
0.33947253 -0.069210514 0.81715274
0.34410506 -0.070010521 0.81842136
0.3486805 -0.070665017 0.81975228
0.35360196 -0.071703479 0.82099175
0.35831875 -0.072542362 0.8222695
0.36295044 -0.073272757 0.82357782
0.36773688 -0.074297026 0.8247751
0.37242994 -0.074921764 0.82616693
0.37743235 -0.075840063 0.82750565
0.3818413 -0.076719642 0.82864517
0.38499409 -0.077341989 0.82981312
0.33684963 -0.064327046 0.81954777
0.33950812 -0.064836204 0.81967729
0.34402737 -0.065533757 0.82096249
0.34892529 -0.066594176 0.82218057
0.35380644 -0.067428663 0.82352215
0.35861516 -0.068206102 0.82486945
0.36325371 -0.068951041 0.82617199
0.36797121 -0.069974996 0.8273437
0.37267876 -0.070660278 0.8287062
0.37744686 -0.071696952 0.82988954
0.38236102 -0.072541781 0.83123749
0.38522106 -0.073466174 0.8320505
0.33701265 -0.060003236 0.8218717
0.33959413 -0.060423002 0.82224292
0.34422535 -0.061196417 0.82352632
0.34906316 -0.062163845 0.8247754
0.35380518 -0.062892973 0.82612556
0.35859245 -0.063965648 0.82729542
0.36332822 -0.064601898 0.82869655
0.36819154 -0.065640077 0.82991457
0.37279668 -0.066537559 0.83111697
0.37749237 -0.067198209 0.83248919
0.38231575 -0.06832733 0.8336401
0.385335 -0.068549305 0.83501524
0.3370581 -0.055759773 0.824579
0.33946493 -0.055910379 0.82478535
0.34442854 -0.057041302 0.82598752
0.34909755 -0.057737783 0.82732922
0.35389066 -0.058552071 0.82864952
0.35857686 -0.059594035 0.82979929
0.36338097 -0.060457677 0.8310954
0.36810908 -0.061262459 0.83239692
0.37303555 -0.062026113 0.83379608
0.37773001 -0.062881276 0.83505613
0.38229772 -0.063697577 0.83629125
0.38541481 -0.064751402 0.83709621
0.33716634 -0.051756069 0.82688999
0.33979088 -0.051685855 0.8273322
0.34471864 -0.052606106 0.82864189
0.34925801 -0.053439945 0.8298564
0.35388744 -0.054352313 0.83105934
0.35870174 -0.055168435 0.83238655
0.3633554 -0.056240931 0.83350664
0.36821681 -0.0570319 0.83486581
0.37298062 -0.057760462 0.83622444
0.37782472 -0.058629498 0.83753234
0.38241893 -0.059577912 0.83870149
0.38544893 -0.060475677 0.83960098
0.33733779 -0.04755275 0.82910085
0.34010404 -0.047507361 0.82984781
0.34446901 -0.048422903 0.83095032
0.34915203 -0.049264029 0.83221418
0.35386273 -0.050075531 0.83350539
0.35875803 -0.050934851 0.83483797
0.36358351 -0.05185695 0.83610851
0.36825764 -0.052621156 0.83741319
0.37294483 -0.05348669 0.83866459
0.3778275 -0.05434683 0.83999205
0.38271087 -0.055270642 0.84128314
0.38565886 -0.055665046 0.84255314
0.33737415 -0.043378532 0.83179516
0.3399432 -0.042945147 0.83241981
0.34464166 -0.044192404 0.8334434
0.34953463 -0.044818074 0.83490926
0.35429773 -0.045812398 0.83611506
0.35912409 -0.046719819 0.83739436
0.3637414 -0.047398016 0.83872724
0.36838683 -0.048476592 0.83984077
0.37321755 -0.049306631 0.84116608
0.377976 -0.050182253 0.84243822
0.38264099 -0.05090408 0.84379613
0.3856895 -0.051751569 0.84463215
0.33932221 -0.041087583 0.83378065
0.34478283 -0.042161778 0.83538437
0.34928158 -0.042931378 0.83650792
0.35413963 -0.043797657 0.83778149
0.35884687 -0.044763252 0.83923185
0.36334601 -0.045496866 0.84029365
0.36831492 -0.046365753 0.84156692
0.37279493 -0.047248974 0.84288597
0.37793833 -0.048233122 0.84434921
0.38211536 -0.048891112 0.84529543
0.385481 -0.049292266 0.84583676
0.33313662 -0.17396429 0.75905329
0.335511 -0.17642052 0.7582525
0.34016278 -0.17739326 0.75971746
0.34496605 -0.17818888 0.76087236
0.34973231 -0.17909659 0.76222098
0.35461646 -0.17980509 0.76322305
0.35939503 -0.18073966 0.76461715
0.36418772 -0.18177325 0.76618028
0.36864382 -0.18249263 0.7672196
0.37345451 -0.18347763 0.76869869
0.37835965 -0.18429157 0.76988059
0.38167578 -0.18277672 0.77191734
0.33329654 -0.1696527 0.76138049
0.38178059 -0.17822281 0.77468473
0.33340016 -0.16522017 0.76399934
0.38191995 -0.17409773 0.77696198
0.33350918 -0.16091722 0.76651031
0.3819775 -0.16988079 0.77960622
0.33365259 -0.15649439 0.76897442
0.38214999 -0.16549116 0.78193963
0.33365947 -0.15250874 0.77165061
0.38222256 -0.16102064 0.78469992
0.33380213 -0.14780822 0.77430588
0.38238415 -0.1566669 0.78704947
0.33393165 -0.1437737 0.77655846
0.38242128 -0.15272447 0.7895838
0.33412153 -0.13925165 0.77891684
0.38251421 -0.14825769 0.79226565
0.33420256 -0.13487335 0.78158307
0.38260195 -0.14412691 0.79473913
0.33420077 -0.13070819 0.78441322
0.38272485 -0.13970578 0.7972784
0.33434615 -0.12654349 0.78669506
0.38285631 -0.1351129 0.79990232
0.33445978 -0.12209422 0.78928804
0.38298124 -0.13101447 0.80221534
0.33455372 -0.11783903 0.79182273
0.38313249 -0.1266904 0.80458337
0.33470541 -0.11341564 0.79425639
0.38326588 -0.12232557 0.80704546
0.33485267 -0.10900307 0.79669929
0.38336039 -0.11811326 0.80954903
0.33491743 -0.10475665 0.79933673
0.38345644 -0.11367206 0.81220198
0.33502984 -0.10039695 0.80187356
0.38354924 -0.10939018 0.81475896
0.33508378 -0.096242979 0.80448854
0.38368621 -0.1049121 0.81728458
0.33523685 -0.091918617 0.80685002
0.38377902 -0.10058097 0.819875
0.33538279 -0.087450907 0.80933511
0.38382122 -0.096446946 0.82252026
0.33540052 -0.083318532 0.81207043
0.38400021 -0.092062749 0.82482576
0.33557931 -0.078848213 0.81443495
0.38415337 -0.087609798 0.82727391
0.33563781 -0.074718475 0.8170166
0.38418934 -0.083410904 0.82998639
0.33576608 -0.070524901 0.81938177
0.38431028 -0.079066411 0.83248109
0.33588511 -0.065948755 0.82204056
0.38447854 -0.074608371 0.8348766
0.33605769 -0.061532795 0.82439142
0.38448596 -0.070458606 0.83766204
0.33619985 -0.057156473 0.8268286
0.38464519 -0.066163883 0.83998036
0.33623305 -0.053105175 0.82945138
0.38475388 -0.061856776 0.84249532
0.33638591 -0.048795134 0.83180392
0.38481265 -0.057530373 0.84520936
0.33642283 -0.044419974 0.83463228
0.34279659 -0.04244709 0.83595955
0.35926324 -0.047034815 0.84310651
0.36428499 -0.047760993 0.8441329
0.37315515 -0.048257247 0.84459817
0.37670857 -0.048469186 0.84480709
0.38096988 -0.050965607 0.84890014
0.38503987 -0.052879095 0.84751618
0.3389295 -0.042540103 0.8362869
0.34362304 -0.043639511 0.83796716
0.34862891 -0.044483155 0.83919549
0.35329491 -0.045222253 0.84025949
0.35760748 -0.046072736 0.84152973
0.36243612 -0.046907723 0.84275091
0.36719397 -0.04791677 0.84427363
0.37220159 -0.048685074 0.84537274
0.37681472 -0.049675539 0.84686983
0.38199168 -0.050396949 0.84788132
0.38462573 -0.050970003 0.84874898
0.33166054 -0.17622006 0.76302153
0.33418402 -0.17871183 0.76223671
0.33870465 -0.17972347 0.76377404
0.34347567 -0.18058421 0.76504195
0.34828877 -0.18136902 0.76617789
0.35308921 -0.18235448 0.76765817
0.35801834 -0.18321629 0.76892108
0.36253515 -0.18401992 0.77010214
0.36742365 -0.18494855 0.77148128
0.37190646 -0.18591034 0.77293479
0.37680587 -0.18665522 0.77399862
0.38013726 -0.18513301 0.77599674
0.3317132 -0.17199484 0.76568973
0.38033071 -0.1806815 0.77841777
0.33192742 -0.16754134 0.76791084
0.38037264 -0.17651515 0.78108597
0.3319298 -0.16319065 0.77085137
0.38051403 -0.17206733 0.78357452
0.33206305 -0.15887639 0.77327973
0.38064957 -0.16768095 0.78604329
0.3321051 -0.15478097 0.77589941
0.38067383 -0.16370679 0.788647
0.33225343 -0.15042168 0.77830219
0.38085037 -0.15921956 0.7910313
0.33237582 -0.1459921 0.78084904
0.3809067 -0.15497443 0.79369944
0.33255062 -0.14165115 0.78314078
0.3809576 -0.15081519 0.79632926
0.33264756 -0.1375508 0.78555942
0.38111758 -0.1463705 0.79874653
0.33263075 -0.13343211 0.78841406
0.38117978 -0.14221138 0.80133438
0.33281371 -0.12882864 0.79085332
0.38133946 -0.13769837 0.80379897
0.33292592 -0.12445007 0.79340369
0.38143387 -0.13331226 0.80642068
0.33305663 -0.12029404 0.79573423
0.38157636 -0.12907855 0.80875999
0.33315134 -0.11580193 0.79842669
0.38163462 -0.12478616 0.81145281
0.33328226 -0.1115092 0.8008492
0.38177341 -0.12037267 0.81392777
0.33343518 -0.10706098 0.80329502
0.38189033 -0.11605057 0.81642228
0.33350635 -0.10294125 0.80582279
0.3820484 -0.11170107 0.81878221
0.33353466 -0.098777011 0.80854028
0.38207805 -0.10740907 0.8215813
0.33370376 -0.094247416 0.81098104
0.38224643 -0.10302155 0.82392848
0.33384216 -0.090099335 0.81327766
0.38240004 -0.098470233 0.82644171
0.33387229 -0.085721433 0.81613314
0.38243806 -0.094403036 0.82905722
0.33405241 -0.081296831 0.81846178
0.38254327 -0.090108007 0.83157706
0.33408722 -0.077108487 0.8211714
0.38259971 -0.08593154 0.834198
0.33423036 -0.072710693 0.82361954
0.38278562 -0.081360288 0.83660454
0.33433115 -0.068503387 0.8260963
0.38291895 -0.077007808 0.83905846
0.33443487 -0.06410113 0.82869434
0.38304064 -0.072807305 0.84145284
0.33459318 -0.059621602 0.83114135
0.383086 -0.06848745 0.84421229
0.33471179 -0.055177853 0.8337121
0.38318846 -0.064241484 0.84670901
0.33475041 -0.051108778 0.83632666
0.38331759 -0.059742227 0.84927809
0.33494201 -0.046584532 0.83868009
0.35955122 -0.049153894 0.8467254
0.36686113 -0.050600827 0.84888762
0.37024999 -0.051322088 0.84997648
0.37583834 -0.051001236 0.84918404
0.38056117 -0.051829249 0.85039794
0.3834548 -0.055455223 0.85167331
0.33768642 -0.045077562 0.84068918
0.3424373 -0.045975745 0.84202212
0.34705383 -0.046729267 0.84311301
0.35144076 -0.047661647 0.84452033
0.35637021 -0.048508525 0.84575766
0.36141554 -0.049314529 0.84691978
0.36579302 -0.050114945 0.84810138
0.37069741 -0.05097428 0.849361
0.37538391 -0.052001625 0.85091811
0.37998071 -0.052965343 0.85237002
0.38306335 -0.053146362 0.85254645
0.33005375 -0.17875455 0.76728773
0.33266944 -0.18120912 0.76658201
0.33705515 -0.1820555 0.76784199
0.34200162 -0.18293022 0.76912624
0.34666672 -0.18380016 0.77041453
0.35130432 -0.1846976 0.77175111
0.35604978 -0.18566404 0.77320123
0.36078346 -0.18647762 0.77438986
0.36562854 -0.18730484 0.7755971
0.3703579 -0.1881029 0.77675939
0.3752687 -0.18899861 0.77808118
0.37862769 -0.18744692 0.78005743
0.33017534 -0.17440772 0.76978165
0.37882471 -0.18295388 0.7824862
0.33036923 -0.1699044 0.77211219
0.37887102 -0.17865366 0.78522873
0.33038017 -0.16578928 0.77486122
0.37900627 -0.17441571 0.78759801
0.3304866 -0.16148315 0.77738386
0.37913495 -0.17010674 0.79003978
0.3305909 -0.15705326 0.77999848
0.37923312 -0.16579671 0.79259598
0.33074361 -0.15263438 0.78242528
0.37932992 -0.16141041 0.79520899
0.33077741 -0.14854494 0.78507161
0.37946168 -0.15710509 0.79763681
0.33096471 -0.14405118 0.78742039
0.37959895 -0.15272786 0.80009282
0.33108065 -0.13987456 0.78981984
0.37971094 -0.14847443 0.80255914
0.33111215 -0.13556764 0.79262233
0.37976235 -0.1443231 0.80518186
0.3312926 -0.13110882 0.79497284
0.37987259 -0.13986814 0.80779123
0.33138916 -0.12690148 0.79746538
0.37994015 -0.13570526 0.81036156
0.33148751 -0.12252341 0.80006695
0.38005596 -0.13128382 0.81292766
0.33162379 -0.11831007 0.80241561
0.3800897 -0.12722206 0.81555539
0.3317779 -0.1136744 0.80498409
0.38025814 -0.12284078 0.81789821
0.33180779 -0.10940007 0.80777037
0.38036895 -0.11844744 0.82046366
0.33190209 -0.10532613 0.8101809
0.38048357 -0.11401997 0.82303828
0.33206087 -0.10078984 0.81266475
0.38058391 -0.10977705 0.82554078
0.33220065 -0.096615687 0.81497383
0.38069856 -0.10539874 0.82808179
0.33222595 -0.09228462 0.8178156
0.38080764 -0.10122863 0.83050245
0.33239484 -0.08801771 0.82007909
0.38093063 -0.096861094 0.83300519
0.33246976 -0.083825216 0.82264221
0.38095576 -0.092633501 0.83577746
0.33261174 -0.07932096 0.82516676
0.38113397 -0.088107198 0.83818215
0.33268726 -0.075024121 0.82779837
0.38128281 -0.083902247 0.84047842
0.33281377 -0.070603117 0.83032423
0.38133562 -0.079594105 0.84320217
0.33292097 -0.066365242 0.83279783
0.38141888 -0.075345397 0.84577221
0.33308807 -0.061931804 0.83518088
0.38156235 -0.07092423 0.84823495
0.33317003 -0.057657525 0.8377732
0.38165349 -0.066662841 0.85078442
0.3332321 -0.053348511 0.8404631
0.38176376 -0.062297687 0.85333288
0.33331251 -0.049065992 0.84306675
0.35736796 -0.050883651 0.84978449
0.35940635 -0.051484466 0.85072559
0.3743431 -0.054725587 0.85563129
0.37964499 -0.056137815 0.85782123
0.38189864 -0.057996809 0.85572714
0.33590955 -0.04738842 0.84472644
0.34034577 -0.048154861 0.84584725
0.34533978 -0.049083889 0.84722257
0.34998712 -0.050025001 0.84863353
0.35461825 -0.050920546 0.84996706
0.35981047 -0.051561758 0.85084045
0.36444896 -0.05258432 0.85239148
0.36909255 -0.053424239 0.85362923
0.3736524 -0.05426456 0.85487121
0.3785215 -0.055104569 0.85609937
0.38139981 -0.055614442 0.85684812
0.32847115 -0.18106084 0.77161849
0.33087426 -0.18354625 0.77066505
0.33575156 -0.18442884 0.77196574
0.34051788 -0.18533048 0.77330399
0.34529141 -0.18625045 0.77467322
0.34987518 -0.18705922 0.77586019
0.3547073 -0.18800516 0.77727145
0.35942093 -0.18883753 0.77849317
0.36419472 -0.18970065 0.77976507
0.36896896 -0.19062805 0.781147
0.37379655 -0.19137767 0.78222203
0.37694213 -0.19024092 0.78410631
0.32864541 -0.17664938 0.77395999
0.3772018 -0.18557326 0.78675473
0.32879478 -0.17245407 0.77624768
0.37727022 -0.18124762 0.78943229
0.32886761 -0.16810992 0.77892137
0.37745798 -0.17680351 0.79174572
0.32896227 -0.1638412 0.78146261
0.37753803 -0.17247124 0.79438436
0.32906988 -0.15954331 0.7839753
0.37768224 -0.16814804 0.79677796
0.3291586 -0.1551578 0.78661782
0.37779835 -0.1636408 0.79940099
0.32927364 -0.15087162 0.78909504
0.37792799 -0.15939517 0.80179626
0.32940161 -0.1464467 0.79161799
0.3779428 -0.15534876 0.80448413
0.3294799 -0.14225873 0.79416549
0.37810904 -0.1509537 0.80684447
0.32958686 -0.13806966 0.7966069
0.37823945 -0.14642154 0.80943114
0.32981828 -0.13356237 0.79880047
0.37830669 -0.14218011 0.81205595
0.32990879 -0.1290862 0.80149782
0.37839541 -0.13800335 0.81455696
0.32993525 -0.12499401 0.80417329
0.37848827 -0.13372882 0.81710881
0.33006778 -0.12054382 0.80669653
0.37864298 -0.12930539 0.81953126
0.33020929 -0.11618195 0.80912638
0.37874341 -0.12507907 0.82202226
0.33038905 -0.11171537 0.81148475
0.37885714 -0.12075776 0.82452816
0.33040738 -0.10748752 0.8142826
0.37895387 -0.11652869 0.82703465
0.33052838 -0.10316148 0.81676453
0.37903151 -0.11212198 0.82973284
0.33073223 -0.098597661 0.81909919
0.37917253 -0.10782629 0.83211964
0.33073828 -0.094550639 0.82182014
0.37925309 -0.10343886 0.83479398
0.33083007 -0.090381049 0.82430482
0.3793934 -0.099059686 0.83723992
0.33095771 -0.085953772 0.82683069
0.37949505 -0.094986632 0.83962256
0.33107394 -0.081560336 0.82937604
0.37952808 -0.090671033 0.84242511
0.33116266 -0.077387765 0.83187425
0.37965277 -0.086343981 0.84489399
0.33133146 -0.073048815 0.83418697
0.37981555 -0.081807524 0.847363
0.33140263 -0.068708196 0.83686441
0.37982258 -0.077847905 0.850021
0.33148202 -0.064427957 0.83947027
0.38001764 -0.073435247 0.85228586
0.33163479 -0.060068458 0.84185672
0.38018796 -0.068996228 0.85466081
0.33170757 -0.055811614 0.84447134
0.3802112 -0.064958364 0.85731149
0.33182523 -0.05148001 0.84696954
0.3452653 -0.052495226 0.85307169
0.35048777 -0.052357525 0.85260892
0.35288927 -0.053468958 0.85440934
0.36688972 -0.056063682 0.858248
0.37259483 -0.056235895 0.85829538
0.37793368 -0.057504982 0.86023843
0.38031724 -0.060266808 0.85996544
0.33451557 -0.049810797 0.84893817
0.33904198 -0.050627664 0.85014147
0.34372315 -0.051391408 0.85124707
0.34833705 -0.052385107 0.85274959
0.35313535 -0.053153068 0.85385728
0.35813725 -0.053971082 0.85504198
0.36278418 -0.05495353 0.85652387
0.36755538 -0.055854559 0.85786074
0.372428 -0.056682467 0.85906792
0.37684661 -0.057541102 0.86034751
0.37988189 -0.0580419 0.86107397
0.32698777 -0.18337122 0.77557695
0.32933134 -0.18593328 0.77482265
0.33429348 -0.18681785 0.77612311
0.33887082 -0.18770088 0.77743757
0.34355652 -0.1886014 0.77877736
0.34821671 -0.18939544 0.77993578
0.35326254 -0.19019511 0.78108704
0.35794249 -0.19122058 0.78264117
0.36254495 -0.19205943 0.78387886
0.36743888 -0.19308162 0.78541809
0.37199077 -0.193914 0.7866469
0.37537983 -0.19286679 0.78797305
0.32713473 -0.17909168 0.77793074
0.37563175 -0.18801908 0.79094428
0.32727742 -0.17475258 0.78034073
0.37571967 -0.18356907 0.79363352
0.32733244 -0.17044713 0.78305453
0.37588859 -0.17927122 0.79591787
0.3274461 -0.16613229 0.78555626
0.37595779 -0.17485815 0.7986517
0.32750347 -0.16180018 0.78827924
0.37605569 -0.17057805 0.80118853
0.32762641 -0.15757117 0.79068828
0.3762131 -0.16622446 0.80355358
0.32779729 -0.15330003 0.79294723
0.37637734 -0.16188389 0.80588436
0.32786992 -0.14879562 0.79573023
0.37636149 -0.15784115 0.80868405
0.32796586 -0.14450195 0.79828364
0.37660691 -0.15323146 0.81089485
0.32805321 -0.14028178 0.80081922
0.37670353 -0.14890113 0.8134706
0.32827392 -0.13581851 0.8030228
0.37677178 -0.14473289 0.81604207
0.32835764 -0.13149558 0.80564153
0.37687972 -0.14030187 0.81864381
0.32845938 -0.12722585 0.80815703
0.37697345 -0.13605613 0.82117295
0.32861322 -0.12293985 0.81048959
0.3770586 -0.1318249 0.82372415
0.32867315 -0.11857273 0.81322682
0.37719208 -0.12741596 0.82621586
0.32882106 -0.11428522 0.81558251
0.37723303 -0.12315323 0.82895297
0.32891211 -0.1098255 0.81826663
0.37740108 -0.11871371 0.83133662
0.32906821 -0.10546194 0.82064331
0.37752816 -0.11440822 0.83378208
0.32911053 -0.10120375 0.8233723
0.37762764 -0.11005256 0.83636427
0.32920521 -0.097026989 0.82585108
0.37772453 -0.10572458 0.83893734
0.32929456 -0.092758313 0.82841212
0.37784684 -0.10138376 0.84142447
0.32944807 -0.088596053 0.83066189
0.37796718 -0.097138606 0.84385407
0.32952097 -0.084024265 0.83348972
0.378025 -0.092884518 0.84652257
0.32963073 -0.079722978 0.83599669
0.3781932 -0.08836744 0.84895819
0.32972571 -0.075389847 0.83858037
0.37826011 -0.084311172 0.85145885
0.32983822 -0.071086206 0.84107888
0.37834144 -0.079908393 0.85414058
0.32999864 -0.06664864 0.84348959
0.37845209 -0.075657941 0.85660988
0.33008927 -0.062423691 0.84601611
0.37866879 -0.07113108 0.85887158
0.33018672 -0.058190286 0.84852302
0.37873662 -0.067037895 0.86139363
0.33030111 -0.053892121 0.85101068
0.33476675 -0.053643435 0.85549515
0.34231171 -0.053489342 0.85490352
0.34802392 -0.053567097 0.85478878
0.37024534 -0.059778601 0.86446846
0.37399152 -0.059996009 0.86467838
0.37881634 -0.062667608 0.86405939
0.33273941 -0.052147314 0.85301936
0.33762205 -0.053059921 0.85437131
0.34224093 -0.053988293 0.85576165
0.34698662 -0.054846719 0.85702664
0.35168153 -0.055528522 0.85799122
0.35642031 -0.056401208 0.85928094
0.36121407 -0.057329312 0.86066329
0.36604527 -0.058185831 0.86192137
0.37104711 -0.058982998 0.86307037
0.37570396 -0.059948131 0.8645221
0.37838393 -0.060282677 0.86497897
0.32552582 -0.18581825 0.77936292
0.32789981 -0.18834488 0.77901757
0.33262846 -0.18925102 0.78036505
0.33749643 -0.1899652 0.78137755
0.34222111 -0.190927 0.78282064
0.34695479 -0.19183044 0.78416336
0.35162601 -0.19258909 0.78526062
0.35640818 -0.19353697 0.78667736
0.36127329 -0.19433804 0.78783888
0.3656567 -0.19525331 0.78921705
0.37050009 -0.1961468 0.79053795
0.37386441 -0.1951469 0.79206687
0.32554698 -0.18151963 0.78219819
0.37409225 -0.19019264 0.79520446
0.32571587 -0.17719901 0.78449816
0.37426007 -0.18577209 0.79757613
0.32578868 -0.17279816 0.78721029
0.37433076 -0.1815827 0.80015284
0.32594573 -0.16841564 0.7895962
0.37439847 -0.1774461 0.80270493
0.32603702 -0.16415557 0.79214418
0.37458569 -0.17295717 0.80505055
0.32611814 -0.15982093 0.79478055
0.37467298 -0.16849394 0.80775112
0.32628119 -0.15533742 0.79721266
0.37486145 -0.16403866 0.81006944
0.32640535 -0.15111507 0.79961252
0.37482193 -0.16021006 0.81281209
0.32646486 -0.14699577 0.80218339
0.37495998 -0.15593803 0.81519389
0.32660854 -0.14261824 0.8046158
0.37508506 -0.15149054 0.81774306
0.32670757 -0.13812143 0.80729544
0.37526447 -0.1468603 0.82021362
0.32678896 -0.1340189 0.80977327
0.37524998 -0.14281088 0.82301265
0.32694125 -0.12957385 0.81221944
0.3754389 -0.13843678 0.82527435
0.32703811 -0.1252259 0.81480616
0.37553841 -0.13405257 0.82787579
0.32718685 -0.12080751 0.81724745
0.37561497 -0.129884 0.83041644
0.32732326 -0.11650392 0.81965685
0.37575275 -0.12557156 0.83282673
0.32731026 -0.11223606 0.8225984
0.3758294 -0.12117869 0.83551925
0.32748124 -0.10803887 0.82480687
0.37596643 -0.11692187 0.83789456
0.32752278 -0.1038087 0.82751977
0.37608424 -0.11252335 0.84043753
0.32759705 -0.099395148 0.83023512
0.3761701 -0.10812202 0.8431015
0.32777521 -0.095173351 0.83243358
0.37634087 -0.10398145 0.84527236
0.32787976 -0.090664186 0.83510095
0.37637892 -0.09967532 0.84804964
0.32798868 -0.086254425 0.83768469
0.37651402 -0.09537407 0.85046244
0.32807136 -0.082033873 0.84023792
0.37668696 -0.090923607 0.8528353
0.32822061 -0.077719606 0.84260666
0.37676826 -0.08657553 0.85548007
0.32831767 -0.073453151 0.84513736
0.37682295 -0.082300857 0.85817409
0.32840022 -0.069214731 0.8477031
0.37694508 -0.077907361 0.86069769
0.32857469 -0.064799115 0.85004675
0.37708622 -0.073670544 0.86304414
0.32867175 -0.060378969 0.85268164
0.37720084 -0.069271341 0.86559939
0.32871851 -0.056152984 0.85537225
0.33041403 -0.054742858 0.8575682
0.33543724 -0.055109769 0.85797888
0.36816266 -0.062241897 0.8687802
0.37422815 -0.061195806 0.86672419
0.37725306 -0.065117657 0.86822075
0.33135051 -0.054410771 0.85695851
0.33611378 -0.055340692 0.85834527
0.34052834 -0.056152716 0.85954511
0.34530628 -0.057064533 0.86090028
0.3501308 -0.057987124 0.8622719
0.35484532 -0.058836073 0.86352205
0.35971245 -0.059713185 0.8648138
0.36436433 -0.060470685 0.86590999
0.36926687 -0.061421677 0.8673268
0.37397969 -0.06240426 0.86880612
0.37671629 -0.062848076 0.86944765
0.3239485 -0.18809496 0.78369415
0.3258225 -0.19001833 0.78559864
0.33048984 -0.19087034 0.78688103
0.33532137 -0.19180149 0.78799927
0.33998427 -0.19254838 0.78920352
0.3449572 -0.19354448 0.79041278
0.34971717 -0.19442743 0.79162377
0.35431594 -0.19531137 0.79280174
0.35911104 -0.19622923 0.79366755
0.36398596 -0.19716737 0.79497474
0.36874667 -0.19795215 0.79621404
0.37192118 -0.1978444 0.7968356
0.32400429 -0.18376935 0.78641868
0.32579905 -0.18542483 0.78896379
0.33039179 -0.18630978 0.79016882
0.3351593 -0.18721157 0.79142934
0.33994165 -0.18799646 0.79276252
0.34468159 -0.18896526 0.79397434
0.34941381 -0.18969052 0.79532307
0.35434112 -0.19063197 0.79662043
0.35896569 -0.19132932 0.79794502
0.3637245 -0.19229221 0.79916728
0.3686403 -0.19318542 0.80048805
0.37215021 -0.19298914 0.79984695
0.32416719 -0.17949004 0.78871286
0.32594508 -0.18115839 0.79146755
0.33058694 -0.18190295 0.79277152
0.33516726 -0.1827895 0.793971
0.34005859 -0.18374148 0.79524893
0.34467238 -0.1846741 0.7964344
0.34959486 -0.1853869 0.79786128
0.35434112 -0.18632884 0.7990908
0.35914028 -0.18691583 0.8005439
0.36385441 -0.18803886 0.80165756
0.36870927 -0.18887827 0.80298644
0.37225822 -0.18862461 0.802472
0.32428661 -0.1752478 0.79114401
0.32599366 -0.17665216 0.79407263
0.33035919 -0.17765261 0.79512662
0.3352949 -0.17841879 0.79652774
0.34015536 -0.17933586 0.79781419
0.34502968 -0.18028033 0.79909009
0.34968501 -0.18106373 0.80037677
0.35455605 -0.18220496 0.80153847
0.35916874 -0.1828226 0.80290443
0.36397365 -0.18373011 0.80417562
0.36869451 -0.18456265 0.80545855
0.3722558 -0.18440017 0.80511826
0.32439423 -0.170706 0.79382211
0.3258 -0.17235567 0.79646701
0.33054101 -0.17341736 0.79762584
0.33547634 -0.17413372 0.79905546
0.34026462 -0.17501929 0.80033302
0.34503794 -0.17588814 0.8016147
0.34983522 -0.17678645 0.80288833
0.35454598 -0.1778802 0.80401754
0.35936287 -0.17871985 0.80533218
0.36414433 -0.17933269 0.80676377
0.36876497 -0.18013865 0.80802459
0.37233037 -0.18023959 0.80762804
0.32449779 -0.16649 0.79629433
0.32592499 -0.16819139 0.79890424
0.33069944 -0.16906939 0.80018109
0.33544105 -0.16985776 0.80149704
0.34015101 -0.17061692 0.802818
0.34510425 -0.17152208 0.80414593
0.34991661 -0.1725819 0.80533248
0.35485518 -0.17333961 0.80673957
0.35956427 -0.17424265 0.80797756
0.3642664 -0.17484292 0.80938685
0.36893034 -0.17594685 0.81049269
0.37246302 -0.17582807 0.81025183
0.32465717 -0.16203894 0.79871815
0.32609293 -0.163754 0.80151439
0.33092907 -0.16484863 0.80268979
0.33562389 -0.16557662 0.80402303
0.34042215 -0.16635734 0.80536455
0.34544316 -0.16724972 0.80672503
0.3500582 -0.1682138 0.80789298
0.35489085 -0.16908097 0.80919766
0.35956189 -0.16985589 0.81049508
0.36441866 -0.17060465 0.81187677
0.36885953 -0.17152363 0.81300563
0.37258047 -0.17135978 0.81271392
0.32470909 -0.15794072 0.80130291
0.32620946 -0.15941456 0.80404902
0.33107486 -0.16053316 0.80522162
0.33578983 -0.16125001 0.80656874
0.3404783 -0.16213167 0.80781138
0.34541157 -0.16304502 0.80912715
0.35022053 -0.16388726 0.81043732
0.35498786 -0.16476594 0.81171107
0.35973948 -0.16571856 0.81293654
0.36446747 -0.16639286 0.81431293
0.36916405 -0.16739015 0.81549221
0.37274012 -0.16712573 0.81509781
0.32492009 -0.15335695 0.80362451
0.32623997 -0.15521024 0.80647409
0.33112156 -0.15615514 0.80775243
0.33583412 -0.15686247 0.80910414
0.34083328 -0.1577336 0.81046867
0.34547013 -0.15852198 0.81174558
0.35016581 -0.15961269 0.81287092
0.35524788 -0.16023242 0.81441069
0.35982341 -0.16132921 0.81548768
0.36458459 -0.1620882 0.81682789
0.36930424 -0.16295621 0.81808996
0.37286788 -0.16271934 0.81767315
0.32501361 -0.14910871 0.8061561
0.32651451 -0.15093812 0.80902904
0.33127132 -0.15169936 0.81036627
0.33608717 -0.15284598 0.8115043
0.3408179 -0.1533446 0.81298262
0.34554598 -0.15425488 0.81422359
0.35056674 -0.15530851 0.81549144
0.35530168 -0.15610042 0.81680286
0.3598358 -0.15686797 0.81805348
0.36451012 -0.15778707 0.8192693
0.36943886 -0.15868746 0.82059079
0.37286025 -0.15863645 0.82029241
0.3250474 -0.14501286 0.80880678
0.32659644 -0.14656691 0.81156909
0.33147103 -0.14747587 0.81286544
0.33617747 -0.14844766 0.81406301
0.34097087 -0.1491182 0.81546599
0.34564731 -0.15005496 0.8166725
0.35056132 -0.15075307 0.81810462
0.35540062 -0.15170886 0.81936097
0.36003986 -0.15264349 0.82055479
0.36464205 -0.15358201 0.82173258
0.36952531 -0.15447098 0.8230437
0.37310773 -0.15400709 0.82264012
0.32513526 -0.14071579 0.81139249
0.32686496 -0.14232096 0.81410676
0.33155113 -0.14299858 0.81546569
0.33630213 -0.14399384 0.81666642
0.34111798 -0.1447171 0.81804746
0.34587264 -0.14561924 0.81930304
0.35053632 -0.14648576 0.82054508
0.35519564 -0.14741242 0.82175106
0.35998937 -0.14822043 0.82307518
0.36472768 -0.14910233 0.82433629
0.36954078 -0.14986253 0.8256951
0.37316272 -0.15006113 0.82510471
0.32522896 -0.13635251 0.81400138
0.32698077 -0.13794973 0.81665945
0.33173722 -0.13892752 0.81787223
0.33636415 -0.1397185 0.81914395
0.34110874 -0.14059047 0.82041311
0.3460342 -0.14136405 0.82180613
0.35083658 -0.1422644 0.82308054
0.35530752 -0.14319713 0.82421267
0.36025709 -0.14392963 0.82563835
0.36477169 -0.14489028 0.82677078
0.36965635 -0.14584948 0.82804203
0.37330079 -0.14537817 0.82769477
0.32538208 -0.13191274 0.81644088
0.32717323 -0.13343754 0.81932163
0.33152717 -0.13450089 0.82033515
0.3363387 -0.13524124 0.8217048
0.34116185 -0.13629434 0.82289928
0.3461158 -0.13714281 0.82425994
0.35080349 -0.13790017 0.82557362
0.35565966 -0.13884695 0.82684141
0.36008736 -0.13963157 0.82804251
0.36511719 -0.14056283 0.82938397
0.36991587 -0.14128084 0.83076167
0.37337354 -0.14118411 0.83040833
0.32552263 -0.12752935 0.8188889
0.32689366 -0.12919451 0.82165325
0.33180845 -0.13010773 0.82296216
0.33651868 -0.13089572 0.82426667
0.34129271 -0.13193044 0.82545334
0.34617567 -0.1326129 0.82688284
0.35094744 -0.13352089 0.82814145
0.35560322 -0.1345361 0.82929516
0.36034667 -0.13531284 0.83061856
0.36523297 -0.13609718 0.83199084
0.37000242 -0.13706198 0.83321595
0.37355259 -0.13684517 0.83268738
0.32562742 -0.12319304 0.82143819
0.32729837 -0.12502196 0.82419956
0.33205342 -0.12582754 0.82551074
0.33686945 -0.12676005 0.82677174
0.3415648 -0.12754056 0.82807499
0.34630617 -0.12847462 0.82930726
0.35106963 -0.12935545 0.83057833
0.35572538 -0.12996581 0.83196449
0.36052382 -0.1309081 0.83321333
0.36532083 -0.13194165 0.83440924
0.37012404 -0.13263498 0.83580279
0.37346137 -0.13273895 0.83548111
0.32565591 -0.11914348 0.82407737
0.32746333 -0.12079766 0.82668626
0.33204517 -0.12161721 0.82792473
0.33695963 -0.12237527 0.82932264
0.34175566 -0.12320261 0.83063656
0.34649408 -0.12416005 0.83185428
0.35113791 -0.12499483 0.83310717
0.35588866 -0.12595412 0.83432847
0.36052579 -0.12645808 0.83576876
0.36548901 -0.12754181 0.83699787
0.37020564 -0.12841186 0.83825767
0.37358859 -0.12842077 0.83789247
0.32579282 -0.1149097 0.82643747
0.32739845 -0.11627959 0.82925582
0.33214292 -0.11705113 0.83058256
0.33695418 -0.11806925 0.83179265
0.34185326 -0.1190225 0.83307272
0.34651035 -0.1197876 0.83437055
0.35130805 -0.1207078 0.83563179
0.355986 -0.12149458 0.83692497
0.36081615 -0.12238799 0.83821368
0.36542609 -0.12317721 0.8394801
0.37032714 -0.12420811 0.8407163
0.37378538 -0.12401909 0.84032285
0.32595167 -0.11044686 0.82887125
0.3275598 -0.11197119 0.83178937
0.33239359 -0.11279428 0.83311987
0.33724508 -0.11364269 0.83444238
0.34189039 -0.11450895 0.83567774
0.34662044 -0.11547287 0.83688861
0.35151839 -0.11652432 0.83811194
0.35611209 -0.11725509 0.83940583
0.36092335 -0.11807967 0.84072703
0.3655774 -0.11875805 0.8420735
0.37036195 -0.11979108 0.84326506
0.3738941 -0.11959364 0.84283155
0.32605666 -0.10606633 0.83144981
0.3276794 -0.10737367 0.83447337
0.33250055 -0.10859828 0.83556861
0.33723193 -0.10937218 0.83688909
0.34197131 -0.11025472 0.8381502
0.34669888 -0.11113579 0.83940774
0.35144901 -0.11193731 0.8407194
0.35631475 -0.1129106 0.84197551
0.3609826 -0.11380667 0.84320217
0.36580542 -0.11461674 0.84453601
0.37044409 -0.11554893 0.84573108
0.37402025 -0.11509899 0.84549868
0.32610446 -0.10185406 0.83412719
0.32779753 -0.10325792 0.83688027
0.33239973 -0.10411756 0.83810335
0.33732849 -0.10506351 0.83939868
0.34197074 -0.10590423 0.84064758
0.34679496 -0.10680185 0.84193164
0.35159564 -0.10772506 0.84319228
0.35634625 -0.10865953 0.84442776
0.36087951 -0.10950004 0.84563613
0.36592054 -0.11022077 0.84710264
0.37051341 -0.1111173 0.84830105
0.37414688 -0.11091992 0.84789079
0.32626528 -0.097521134 0.8364656
0.32788363 -0.098995626 0.83935928
0.33250505 -0.099843748 0.84059614
0.3371385 -0.10070007 0.84183282
0.34204474 -0.10158449 0.84315509
0.34712192 -0.10254565 0.84449708
0.35172635 -0.1034641 0.84568721
0.35657161 -0.10434538 0.84698856
0.36127874 -0.10507518 0.84832531
0.36602256 -0.10589228 0.84962565
0.37075955 -0.10688585 0.85082209
0.37433252 -0.10643002 0.85038149
0.32627553 -0.093239985 0.83932966
0.32809421 -0.094580896 0.84197229
0.33274311 -0.095541127 0.84315503
0.3375105 -0.096429415 0.84442329
0.34213835 -0.097253941 0.84567612
0.34695271 -0.098164476 0.8469491
0.35169062 -0.098963447 0.84825766
0.35666946 -0.099876307 0.84959066
0.36120746 -0.10058551 0.85087621
0.36601937 -0.10160317 0.85208678
0.37085947 -0.10258094 0.85333079
0.37431884 -0.10234142 0.85293639
0.32648057 -0.088856548 0.84153748
0.32798967 -0.090269841 0.84440821
0.33266085 -0.091127314 0.8456583
0.33739254 -0.092126563 0.8468495
0.34209102 -0.093026191 0.84808558
0.34709543 -0.093795247 0.84951067
0.35195157 -0.09471707 0.85079277
0.35679093 -0.09560173 0.85208994
0.36150041 -0.096460588 0.8533535
0.36616385 -0.097271532 0.85462737
0.37065369 -0.098244295 0.85574365
0.37441331 -0.09801767 0.85561621
0.32658938 -0.084496044 0.84408826
0.32806832 -0.085951768 0.8469165
0.33290327 -0.086955346 0.84814382
0.33761013 -0.087705567 0.84946871
0.34236655 -0.088723309 0.8506586
0.34724385 -0.08941482 0.85208082
0.352011 -0.090396821 0.85329515
0.3568075 -0.091265328 0.85458565
0.36160257 -0.09220884 0.85583252
0.36649543 -0.093011178 0.85719693
0.37101093 -0.093937859 0.85834914
0.37472251 -0.093470298 0.85780734
0.3266995 -0.080207892 0.84658504
0.3285329 -0.081792079 0.84947783
0.3331075 -0.082697064 0.85066462
0.33792213 -0.083566472 0.85196131
0.34262896 -0.084528871 0.85316443
0.34721836 -0.085223868 0.85447729
0.35212421 -0.086159088 0.85577023
0.356947 -0.087144725 0.85700321
0.36150977 -0.087798387 0.85832989
0.36626929 -0.088644475 0.85961944
0.37110707 -0.089463629 0.86095363
0.37467605 -0.08946161 0.86050361
0.32682243 -0.075856172 0.84907722
0.32854319 -0.077374473 0.85201776
0.33311853 -0.07836578 0.85315526
0.33787191 -0.079222642 0.85443634
0.34269807 -0.079916105 0.85583836
0.34748998 -0.081008382 0.85699862
0.35213307 -0.081899725 0.85821879
0.3570213 -0.082505606 0.85969424
0.36169463 -0.083628051 0.86079299
0.36642897 -0.084393233 0.86211956
0.37111428 -0.085243799 0.86337888
0.37481937 -0.085003562 0.86289483
0.32684892 -0.071441822 0.85197097
0.32864991 -0.07309819 0.85451251
0.33333504 -0.074154869 0.85565346
0.33808193 -0.074968293 0.85695702
0.34270492 -0.075644121 0.85829341
0.34754294 -0.076582998 0.85955894
0.35222554 -0.077476375 0.86079264
0.3570357 -0.07836365 0.86207741
0.36181358 -0.079262927 0.8633433
0.36662617 -0.080188937 0.86460674
0.37122142 -0.080946676 0.86588573
0.37485927 -0.0807212 0.86566275
0.32706305 -0.066975869 0.85420096
0.32875398 -0.068881549 0.8569721
0.33338711 -0.069737472 0.85820884
0.33809224 -0.070539787 0.85950321
0.3429023 -0.071311489 0.86085433
0.34760651 -0.072211087 0.86209249
0.35247758 -0.073141247 0.86337543
0.35728115 -0.074039951 0.8646512
0.36200783 -0.074854031 0.86594683
0.36686608 -0.07566642 0.86729258
0.37135184 -0.076597214 0.86843139
0.37504828 -0.076448262 0.86795688
0.32714742 -0.062798604 0.8567186
0.32878548 -0.064494625 0.85950232
0.33346266 -0.065399483 0.86072743
0.33817872 -0.066009074 0.86213648
0.34310016 -0.067114212 0.86333776
0.34765697 -0.067844771 0.864618
0.35269314 -0.068846136 0.86592162
0.3574113 -0.069591284 0.86725366
0.36192545 -0.070549212 0.86838746
0.36674744 -0.071146891 0.86984295
0.37141934 -0.072167948 0.87099934
0.3751187 -0.072267108 0.87062407
0.32718411 -0.058543637 0.85946631
0.32887343 -0.060013801 0.86193395
0.333579 -0.060935766 0.86313426
0.33821183 -0.061817586 0.86455512
0.34300089 -0.062825844 0.86576259
0.34814382 -0.063729197 0.86716229
0.35256684 -0.064476356 0.86838311
0.3574357 -0.06552133 0.86959928
0.36216611 -0.066310927 0.87091041
0.36682713 -0.066904373 0.87223119
0.37167737 -0.067875877 0.87347025
0.3753072 -0.067662075 0.87296206
0.32979307 -0.056883454 0.86126351
0.33447093 -0.057611749 0.86230844
0.33910289 -0.058566213 0.86374307
0.34403551 -0.059600875 0.86530197
0.34877318 -0.060376927 0.86642611
0.35350817 -0.061248332 0.86771393
0.35839736 -0.062081605 0.86892962
0.36314535 -0.06291467 0.87015116
0.36783394 -0.063782439 0.87143469
0.37250888 -0.064675838 0.87276256
0.37520823 -0.065485433 0.87403268
