# .PCD v0.7 - Point Cloud Data file format
VERSION 0.7
FIELDS x y z
SIZE 4 4 4
TYPE F F F
COUNT 1 1 1
WIDTH 1190
HEIGHT 1
VIEWPOINT 0 0 0 1 0 0 0
POINTS 1190
DATA ascii
0.070688203 0.18958402 0.47297102
0.091010049 0.17343192 0.49401653
0.061752249 0.19403595 0.47060546
0.061990269 0.19347614 0.47166079
0.069114864 0.18988456 0.4741284
0.090103231 0.17303143 0.496086
0.092543021 0.16946632 0.50238138
0.093292676 0.16900587 0.50323486
0.061070427 0.1921334 0.47695756
0.062682435 0.19040017 0.47921386
0.066156775 0.18815652 0.48258033
0.08202 0.17538571 0.49905747
0.085632831 0.17215952 0.50313371
0.088359341 0.17084876 0.5037334
0.092309758 0.16920644 0.50375485
0.060005654 0.19206052 0.47821793
0.062378332 0.19003439 0.48045027
0.064571828 0.18826902 0.48354882
0.08096613 0.17532125 0.50038815
0.083735034 0.17283237 0.50296068
0.085875645 0.17140394 0.50511813
0.083737716 0.18471754 0.45824146
0.08592435 0.18351661 0.46022734
0.10130135 0.17099418 0.47639543
0.10274781 0.16949657 0.47809792
0.081405759 0.18697663 0.46018884
0.084897339 0.18481386 0.46268263
0.085311338 0.18221942 0.4651536
0.096591264 0.17284703 0.47678685
0.099738918 0.17258407 0.47801855
0.1022014 0.17032072 0.48149431
0.074348234 0.18738383 0.46241206
0.077285528 0.18789047 0.46285209
0.080825798 0.18509075 0.46716672
0.082546219 0.18233161 0.46742815
0.094633684 0.17268142 0.47866586
0.095919333 0.17312193 0.48207501
0.099644661 0.1700677 0.4858788
0.09842553 0.16759525 0.4879514
0.072312102 0.18827972 0.46422797
0.074603423 0.18855289 0.46734706
0.077460289 0.18395874 0.4701432
0.092171326 0.1723747 0.48495775
0.096283183 0.1713731 0.48909467
0.097087786 0.16827051 0.49058279
0.067764528 0.18970361 0.4677994
0.071412936 0.18958141 0.47074252
0.074269965 0.18413813 0.47445679
0.088044055 0.17313713 0.48864615
0.093133874 0.172326 0.49294668
0.094301164 0.1684314 0.49491143
0.061197963 0.19203459 0.46920109
0.063239768 0.1906037 0.47124022
0.066899031 0.18946862 0.47524345
0.071234725 0.18471387 0.47772741
0.085063994 0.17375439 0.49197644
0.089560904 0.17221639 0.49769142
0.091438159 0.16813976 0.49982613
0.09293367 0.16680802 0.50215524
0.060226914 0.19270429 0.47101894
0.060384728 0.1902329 0.47415042
0.063706242 0.18752171 0.47749278
0.066603445 0.18482536 0.48113373
0.081165142 0.1731708 0.49630523
0.084676489 0.17092723 0.49925065
0.088309288 0.16823885 0.50240529
0.091632687 0.16755864 0.50362515
0.058370464 0.19060469 0.47772107
0.061594572 0.18808398 0.48057336
0.063256346 0.18605745 0.48357916
0.079192899 0.17325881 0.50011975
0.082250722 0.17146324 0.50205308
0.084796995 0.16945651 0.5053041
0.082701549 0.18220417 0.45706099
0.084919266 0.18064833 0.45890597
0.10032517 0.16820173 0.47520983
0.1021218 0.16735631 0.47720352
0.07969778 0.1829637 0.45782286
0.085355237 0.1789021 0.46089473
0.084791154 0.17918766 0.46385819
0.095762335 0.17041892 0.47543991
0.097965047 0.16857225 0.47418636
0.10107867 0.16582611 0.47954538
0.073659822 0.18600829 0.46215105
0.075160369 0.18387996 0.46052414
0.078937724 0.17912599 0.46744362
0.081352621 0.17924818 0.4666349
0.093099356 0.17002368 0.47798446
0.091875151 0.16966149 0.4800742
0.098264262 0.16528437 0.4844954
0.097960755 0.16679567 0.48762143
0.070474073 0.18480612 0.46357626
0.071114361 0.18312381 0.46389699
0.076314345 0.18042287 0.46967074
0.089902773 0.169576 0.48362738
0.095079899 0.16484979 0.48796812
0.095252335 0.16522522 0.4895893
0.066629246 0.18604439 0.46651542
0.068509772 0.18244064 0.4684082
0.072233841 0.18107954 0.47191948
0.087632589 0.16893899 0.48734903
0.089850932 0.16538724 0.49040961
0.092976682 0.16512245 0.49325359
0.063421279 0.18700767 0.4695701
0.065337434 0.18399827 0.47240946
0.06825228 0.18189321 0.47556219
0.084250718 0.16920626 0.49184009
0.08697167 0.16680203 0.49463177
0.090446599 0.16567342 0.49709767
0.060900766 0.18677439 0.47364509
0.062743798 0.18516758 0.47422925
0.065619327 0.1827006 0.47845691
0.081696026 0.16991191 0.49513608
0.085097671 0.16735649 0.49778774
0.086308584 0.16648349 0.49976993
0.081910804 0.17940773 0.45683232
0.08314918 0.17858028 0.45782894
0.077522799 0.17887321 0.45695934
0.081630811 0.17565098 0.4593378
0.082001999 0.17582414 0.4628948
0.093713611 0.16676721 0.47531644
0.096165575 0.16428137 0.47469664
0.098506957 0.16195357 0.4785651
0.073821358 0.17895252 0.45990917
0.076431438 0.17540193 0.46463242
0.079792328 0.17468061 0.46477327
0.091028862 0.16579354 0.47653371
0.090508759 0.16381377 0.47913644
0.095940322 0.16153234 0.48235309
0.072002359 0.1797207 0.46393126
0.074738503 0.17722383 0.46573952
0.090339541 0.16470861 0.48224071
0.092617802 0.1632904 0.48515576
0.076278523 0.1741136 0.4570556
0.078792393 0.17212021 0.45818201
0.09414079 0.15975912 0.47435322
0.09581247 0.15929259 0.47726306
0.073795527 0.17408428 0.45893297
0.075879857 0.17192838 0.46215519
0.078456327 0.17228937 0.46325976
0.090478763 0.1629054 0.47559208
0.090312459 0.16061023 0.47710726
0.093575343 0.15840703 0.47935954
0.072062947 0.17127942 0.46156168
0.089099154 0.15817133 0.4792259
0.089733407 0.15702014 0.48011711
0.07447771 0.16959533 0.4565326
0.076238491 0.16803777 0.45703289
0.092081994 0.15547402 0.47347382
0.071521521 0.16938534 0.45716634
0.074838892 0.16678593 0.46013525
0.088626556 0.15581219 0.47430611
0.09164001 0.15350467 0.4776113
0.06875053 0.16916522 0.45993343
0.070711061 0.16765621 0.46212578
0.085864298 0.15490384 0.47830942
0.088568859 0.15351138 0.48049912
0.074287556 0.16404818 0.45603287
0.090006635 0.15210548 0.47236902
0.06945923 0.16526774 0.45522502
0.073353589 0.16262168 0.45758304
0.07303559 0.16098487 0.46035531
0.084403038 0.15175331 0.47206718
0.088066213 0.15100336 0.47252053
0.089916036 0.14879575 0.47639698
0.065607205 0.16559838 0.45870045
0.068875529 0.1635714 0.46273005
0.070970997 0.16091055 0.46240026
0.082072929 0.15195675 0.47444183
0.083058357 0.15241516 0.47776768
0.086846732 0.14884408 0.48034438
0.063525274 0.16361684 0.46083906
0.065536842 0.16219109 0.46290913
0.080997497 0.14977342 0.47918385
0.083366275 0.14835003 0.48134029
0.067469425 0.1612532 0.45323578
0.071891762 0.15872771 0.45521331
0.072229728 0.15694344 0.45894444
0.082922578 0.14857237 0.47011799
0.086699449 0.14684902 0.47080338
0.088499829 0.1442742 0.4750368
0.062859841 0.16207014 0.4559986
0.069750175 0.15691102 0.46223339
0.079704933 0.14909281 0.47266927
0.085882753 0.14373621 0.47978345
0.060537018 0.16090453 0.46027631
0.062813617 0.15904634 0.46371683
0.065505549 0.15625638 0.46473482
0.076778844 0.14816441 0.47615659
0.078220233 0.14688355 0.47992668
0.081403941 0.14428848 0.48187348
0.058772516 0.15821958 0.46303463
0.059580244 0.15763387 0.46362168
0.074260011 0.14604393 0.47823206
0.076163515 0.14460805 0.48092559
0.077969044 0.14320359 0.48252448
0.06577722 0.1567623 0.452187
0.069366753 0.15440857 0.45433247
0.070202611 0.15293375 0.4577843
0.08110863 0.14443995 0.46898782
0.084182799 0.14256534 0.4699755
0.086214073 0.14040813 0.47356105
0.061001293 0.15804884 0.45391375
0.06796141 0.15207089 0.46084112
0.07750389 0.14457783 0.470689
0.084446065 0.13889638 0.47797439
0.057640381 0.15773675 0.45768467
0.060757153 0.15663652 0.46432534
0.064490169 0.15228695 0.4639782
0.074256688 0.14459845 0.47417423
0.080632932 0.13960275 0.48166996
0.055643115 0.15659706 0.4621821
0.057729274 0.15443689 0.46543068
0.060669161 0.15244445 0.46592993
0.071930453 0.14365697 0.47773865
0.072558209 0.1425449 0.48098081
0.076137543 0.14004371 0.48336866
0.052850649 0.15472801 0.46486703
0.054159991 0.15377133 0.46656442
0.07061483 0.14089063 0.4835127
0.072349027 0.13921028 0.48494193
0.064095199 0.15339956 0.45257494
0.066491194 0.15153311 0.45449656
0.067871317 0.15040743 0.45707795
0.081570044 0.13943246 0.47043702
0.083707295 0.13815588 0.47270963
0.060503386 0.1528208 0.45387769
0.063414782 0.14938757 0.45609608
0.065727785 0.14918643 0.45920828
0.076781437 0.1407626 0.47027004
0.078606009 0.13742004 0.47189054
0.081557423 0.13639945 0.47537008
0.056487422 0.15281765 0.4560346
0.060653325 0.14803426 0.45818704
0.062493473 0.14860058 0.46238238
0.072886854 0.14017439 0.47302231
0.075514242 0.13605967 0.47397116
0.078576125 0.13517931 0.4788914
0.052626505 0.15326533 0.46003273
0.057124253 0.15043747 0.46607566
0.058075976 0.14825577 0.4650811
0.06930548 0.13935152 0.4771457
0.07006225 0.14074838 0.47903213
0.075122342 0.13541755 0.48297945
0.050155625 0.15224178 0.46409124
0.052268848 0.15045333 0.46762052
0.055055201 0.14797926 0.4672702
0.066900782 0.13883574 0.47958019
0.067330293 0.13884673 0.48314101
0.070765488 0.13591552 0.48518634
0.049261115 0.14936933 0.46716672
0.066415235 0.13635913 0.48502713
0.06724228 0.13573852 0.48569548
0.054958113 0.14795056 0.4569121
0.057662848 0.14635423 0.45887619
0.059141371 0.1444307 0.46128437
0.070462361 0.13525563 0.47278547
0.073011041 0.13411412 0.47485614
0.074640229 0.13224031 0.47750437
0.050897345 0.14863494 0.45858687
0.055865418 0.14679539 0.45963094
0.056769215 0.14438286 0.46414641
0.067582481 0.13586105 0.47517619
0.072066955 0.13373917 0.47646746
0.073089592 0.13117993 0.48092657
0.048547901 0.14821081 0.46265364
0.050347418 0.14590433 0.46651384
0.053951658 0.14446279 0.46635783
0.06502901 0.13564844 0.4782584
0.064910844 0.1337657 0.48180923
0.069102287 0.13189647 0.48363566
0.048845161 0.14823708 0.46679431
0.065247945 0.13510585 0.48382968
0.067072473 0.13428204 0.48536232
0.070036836 0.1390925 0.4446528
0.072627693 0.13783522 0.44612464
0.075913727 0.13531859 0.44889301
0.078950927 0.13321027 0.45196459
0.081126064 0.13085316 0.45590356
0.082050979 0.12845887 0.45751154
0.066356547 0.1396043 0.44532126
0.08104223 0.13011655 0.45761758
0.081809357 0.12823626 0.4612506
0.08187779 0.12618409 0.46434212
0.062952891 0.14031652 0.44595811
0.080652006 0.12656806 0.46432415
0.080903873 0.12562802 0.4658758
0.056364127 0.14129743 0.45198601
0.058962077 0.14114016 0.45328873
0.061397079 0.13851079 0.4563157
0.071350746 0.13065088 0.46698242
0.074523523 0.12835044 0.46936423
0.074825346 0.12646839 0.47130224
0.053890571 0.14324394 0.45419657
0.058213983 0.14307791 0.45568064
0.059845634 0.13864674 0.46008998
0.067808069 0.13215898 0.46861088
0.073664963 0.13044488 0.47179711
0.07363341 0.12736073 0.47488368
0.049511477 0.14404276 0.45698124
0.055853836 0.13935821 0.46336332
0.064860374 0.13191274 0.47228241
0.071072698 0.1267485 0.47900751
0.048371721 0.14381123 0.46031484
0.049788944 0.14173788 0.46305558
0.052304879 0.1396372 0.46451101
0.063202716 0.13104449 0.47612384
0.064969175 0.12962469 0.47909343
0.068099588 0.12790275 0.48077619
0.068207219 0.13618878 0.44225913
0.071878105 0.1346274 0.44407719
0.075417526 0.13201791 0.44685507
0.077963263 0.12996635 0.45030564
0.080797434 0.12716569 0.45375744
0.081536189 0.12516047 0.45613128
0.06238861 0.13842225 0.44410583
0.065665379 0.13743776 0.44394568
0.06833598 0.13435462 0.44582695
0.072559893 0.13089669 0.44901043
0.07538984 0.12875254 0.45203692
0.077402353 0.12710127 0.45693472
0.081159279 0.12522879 0.45985311
0.08094126 0.12306124 0.46319956
0.060092855 0.13923906 0.44580525
0.061676905 0.13672036 0.44816163
0.063535795 0.13376459 0.45112246
0.064503409 0.13123752 0.45295683
0.073306866 0.12597919 0.46079716
0.076624662 0.12519792 0.46350166
0.079681918 0.12298775 0.46613359
0.055451222 0.13868859 0.44897529
0.059423704 0.13850902 0.45025101
0.062539369 0.13562854 0.45464331
0.062593237 0.1326725 0.45680982
0.06798958 0.12850054 0.46214196
0.071099684 0.12861572 0.46356139
0.075544208 0.12533233 0.46702296
0.075793818 0.12282832 0.47024453
0.051905226 0.13887031 0.45123345
0.057954792 0.13401984 0.46021506
0.060243342 0.13341737 0.45903817
0.065820232 0.12868629 0.46491909
0.064640254 0.12847787 0.46720013
0.072875157 0.12199879 0.47325581
0.048563644 0.13932964 0.45597327
0.049286328 0.13660039 0.45887211
0.053961277 0.13500041 0.4614782
0.063281074 0.12750603 0.47087571
0.065024935 0.12382156 0.47526327
0.068753108 0.12321839 0.47697598
0.049736306 0.1378881 0.46162099
0.051540352 0.13724729 0.4630684
0.062615864 0.12739253 0.47464484
0.063881084 0.12644213 0.47641736
0.066875264 0.125185 0.4785012
0.066683941 0.13224505 0.44050291
0.070874251 0.13011724 0.44148704
0.074488088 0.12753303 0.44411749
0.077191308 0.12557304 0.44752422
0.079808213 0.1231643 0.45122522
0.080781095 0.12085368 0.45524004
0.061083075 0.13373272 0.44080895
0.063704014 0.13348255 0.44051653
0.066316932 0.13018201 0.44679964
0.069410294 0.12734538 0.44827816
0.072969526 0.12534101 0.45186788
0.073549487 0.12318062 0.45542791
0.080517881 0.1199145 0.45852691
0.079923972 0.1185327 0.46121007
0.057007756 0.13420925 0.44325602
0.063813195 0.13342521 0.44709522
0.064876325 0.1309 0.44920117
0.064809814 0.12856357 0.45226073
0.069324076 0.12488498 0.45724905
0.073353194 0.12420462 0.45806366
0.078300118 0.11810941 0.46435422
0.053133108 0.13538502 0.446475
0.062367715 0.1289179 0.45529634
0.066430286 0.12522943 0.46003592
0.075180829 0.11744516 0.46877462
0.049549371 0.13601062 0.45038953
0.056365766 0.12927392 0.45780629
0.057900555 0.12797497 0.45949745
0.061254453 0.12529047 0.462915
0.063471168 0.12361737 0.46538919
0.071570463 0.11790409 0.47244611
0.047403932 0.1350612 0.45395812
0.049132928 0.13293895 0.45689151
0.052924205 0.13103488 0.45981479
0.056005098 0.12845418 0.46291351
0.059591636 0.12587056 0.46541598
0.061920449 0.12314525 0.46961838
0.064345419 0.12054494 0.47299927
0.06821546 0.11937563 0.47432292
0.073873192 0.12294488 0.44218761
0.075566784 0.11987975 0.44402623
0.065103047 0.12766944 0.43873528
0.069309175 0.12548116 0.43961793
0.072680227 0.12354783 0.44198987
0.075960204 0.12155826 0.4455438
0.078721561 0.11767158 0.44928408
0.079783216 0.11618902 0.45355293
0.059414096 0.12970461 0.43956947
0.061731976 0.12876983 0.43881667
0.065891892 0.12647647 0.44724903
0.066889949 0.12321775 0.44831929
0.069767475 0.12117147 0.45141008
0.079547614 0.11537362 0.45667639
0.078637771 0.1140268 0.4590975
0.056132 0.13046373 0.44176775
0.064085118 0.12354042 0.45051169
0.067827165 0.12051766 0.45389083
0.076563492 0.11361438 0.46306393
0.051771738 0.13033184 0.44511795
0.059864327 0.12360095 0.45311362
0.064877778 0.12019399 0.45803234
0.063253373 0.11803856 0.45972896
0.073249906 0.11350778 0.46746457
0.048849247 0.13078728 0.4486931
0.048804376 0.12737393 0.45188254
0.055689204 0.12542148 0.45505366
0.057485715 0.12315644 0.45813125
0.059798341 0.12105461 0.46163678
0.062947854 0.11970396 0.46248186
0.066197023 0.11398533 0.46890616
0.069565699 0.11415942 0.47002149
0.047843099 0.13100155 0.45247027
0.049339801 0.12904654 0.45426303
0.05220899 0.12628618 0.45728138
0.054877762 0.12429334 0.45972922
0.0584407 0.12181786 0.46283031
0.060832206 0.11902371 0.46684346
0.064019412 0.11679395 0.4692083
0.066394106 0.11654003 0.47181913
0.069255009 0.11843522 0.43721929
0.07176958 0.11823995 0.43989572
0.073947117 0.11641606 0.44221273
0.075893834 0.11330716 0.44451842
0.063670665 0.12291586 0.43691984
0.067353129 0.12174264 0.43790126
0.07133016 0.11884946 0.4404678
0.074858584 0.11527012 0.44417632
0.077026628 0.11406356 0.44735608
0.078036077 0.11189757 0.45186302
0.057227835 0.12516564 0.43845224
0.059715383 0.12420955 0.43752006
0.077557959 0.11041997 0.45490617
0.076643899 0.11017686 0.45763832
0.054441355 0.1254389 0.4407244
0.06304913 0.11922511 0.45024016
0.065012999 0.11762904 0.45248717
0.07421615 0.10959861 0.46107572
0.051088221 0.12533841 0.44398913
0.049491592 0.12354673 0.44605023
0.059136208 0.1196621 0.45273098
0.062547036 0.1170653 0.45589843
0.070484474 0.10944188 0.46456337
0.048908222 0.12645279 0.44753212
0.048953075 0.12400997 0.44981232
0.051052272 0.12167194 0.45412111
0.054604791 0.11882949 0.45732796
0.056941759 0.11656048 0.46066326
0.060220301 0.11313961 0.46339673
0.064225316 0.11129345 0.4657594
0.067676768 0.11072364 0.46725807
0.050496191 0.12266415 0.45501089
0.053195216 0.12022209 0.45772937
0.056942917 0.11598369 0.46135718
0.059909552 0.11531328 0.46478915
0.062270928 0.11422076 0.46667051
0.064873151 0.11799935 0.4329043
0.067678809 0.11674492 0.43454403
0.071254559 0.11453895 0.43705979
0.074157372 0.11217405 0.4405328
0.076603398 0.10962901 0.44388118
0.078112878 0.10810569 0.4464547
0.062028103 0.11952126 0.43396512
0.065808661 0.11866082 0.4348737
0.074175224 0.1137373 0.44308665
0.076845795 0.1107156 0.44651049
0.077433273 0.10731146 0.44990185
0.056016523 0.12081032 0.43596989
0.057839308 0.12086134 0.43603018
0.075810887 0.10803237 0.45438352
0.07517314 0.10542487 0.45534578
0.052879166 0.12098935 0.43914482
0.072147988 0.10591342 0.45923811
0.050732352 0.12106928 0.44184402
0.049682911 0.11986285 0.44421607
0.066283822 0.10628687 0.46170256
0.069430515 0.10630876 0.46167406
0.049133115 0.11888193 0.4480412
0.050122678 0.1171893 0.45164132
0.052363306 0.11554791 0.45551622
0.056011885 0.11292 0.45930165
0.059437409 0.10952181 0.4613857
0.063275918 0.10815822 0.46260497
0.051695745 0.11323793 0.45633721
0.054438323 0.11155585 0.45914236
0.056412891 0.10960706 0.46082926
0.066406026 0.11319442 0.43376744
0.069098301 0.11012891 0.43599188
0.072195202 0.10780627 0.43883702
0.074730389 0.10642976 0.44246742
0.060029734 0.11527627 0.43369237
0.063381709 0.11239913 0.43407968
0.066217631 0.10937519 0.43527395
0.07150197 0.10513087 0.44068965
0.073514886 0.10451022 0.44407818
0.074347451 0.1034985 0.44823039
0.076145932 0.10350277 0.45189831
0.055099159 0.11761185 0.43487734
0.056496143 0.11495903 0.43539014
0.071954638 0.10183938 0.45090812
0.073820353 0.10252418 0.45424491
0.051933788 0.11793446 0.43836862
0.052282173 0.11452635 0.43844706
0.068117052 0.10140653 0.45517352
0.071054876 0.1025638 0.45684123
0.049871225 0.11770141 0.4403654
0.049341593 0.11515352 0.44265574
0.050264858 0.112019 0.44613355
0.060633413 0.1035734 0.45687711
0.064729206 0.10218625 0.45850024
0.068307862 0.10341404 0.46013555
0.047919579 0.11524101 0.44644064
0.04927893 0.11317508 0.44984996
0.051896662 0.11051647 0.4529005
0.055122711 0.10791124 0.45617673
0.058098435 0.10585469 0.45910555
0.061660413 0.10385117 0.46074459
0.050523188 0.11236881 0.45516092
0.05379568 0.10987962 0.45845735
0.056192346 0.10820104 0.46050739
0.014657605 0.10863992 0.48865524
0.01713407 0.10704364 0.49110618
0.012512535 0.10889551 0.49132365
0.014921371 0.10729221 0.49351013
0.010980263 0.10831682 0.49389166
0.012130667 0.10757238 0.49515572
0.067800447 0.10516436 0.43539584
0.069525957 0.10422605 0.43704307
0.058839466 0.11130609 0.43404794
0.061298072 0.10826959 0.43396512
0.065004177 0.10643476 0.43476576
0.069667891 0.10227934 0.43955338
0.070532821 0.10109329 0.44301516
0.071151897 0.10033147 0.44673848
0.055981502 0.11078708 0.43556628
0.056490321 0.10770528 0.43516004
0.068210751 0.098450288 0.44720349
0.069366649 0.099867955 0.44937864
0.052784599 0.1113904 0.4388651
0.05290933 0.10791187 0.43998423
0.0636985 0.099443689 0.4511157
0.066422798 0.10033821 0.45277184
0.050843507 0.11183036 0.44190961
0.0511133 0.10848726 0.44448742
0.052138656 0.10438743 0.44842055
0.054917615 0.10207891 0.45137608
0.060093939 0.10130955 0.45359629
0.06347122 0.10152886 0.45556539
0.05050737 0.10909478 0.44817355
0.051886518 0.10677258 0.45027995
0.054612197 0.10434225 0.45293486
0.057701908 0.10355612 0.45553276
0.029100204 0.11077829 0.4539822
0.029799437 0.11012433 0.45439783
0.047846224 0.095671594 0.47298059
0.048561085 0.095341973 0.47376874
0.027413201 0.11114676 0.45565593
0.028718485 0.10966896 0.45804778
0.041371476 0.098179825 0.47359771
0.044719808 0.096963853 0.47438458
0.046930864 0.095565133 0.4757871
0.025093053 0.11058705 0.45867112
0.026131559 0.10945174 0.46179351
0.027552137 0.10786378 0.46419355
0.038575515 0.099102259 0.47552684
0.040965978 0.097604737 0.47711793
0.043848749 0.095727488 0.47779217
0.023662388 0.10887582 0.46527028
0.025240861 0.10732359 0.46846408
0.025454618 0.10569984 0.47124958
0.031495914 0.10067018 0.47688732
0.03443791 0.10005233 0.47795129
0.037332941 0.098070055 0.47944784
0.02336072 0.10644761 0.47235161
0.024268985 0.10565645 0.47494933
0.028145066 0.1024147 0.47900981
0.030957848 0.10056372 0.47979796
0.019175177 0.10589231 0.47694248
0.021682013 0.10534161 0.47877374
0.024666619 0.10279706 0.48141724
0.025814924 0.10077141 0.48328334
0.01751532 0.10565485 0.47864532
0.017887611 0.10601884 0.48231715
0.020668097 0.10332191 0.48557404
0.023692941 0.10095952 0.48528239
0.0149347 0.10627507 0.48667714
0.017239105 0.10430721 0.48896348
0.012542434 0.10778072 0.49036524
0.014587246 0.10621155 0.49263513
0.010450855 0.1076419 0.49334061
0.011949398 0.10672361 0.49483359
0.065708116 0.10062552 0.43380594
0.067294605 0.099661604 0.43528715
0.059330553 0.10353577 0.43342757
0.063138567 0.10189505 0.433745
0.067307279 0.098219663 0.43826559
0.067794003 0.097268656 0.44178629
0.052505534 0.10388437 0.43425873
0.055567328 0.10423549 0.43434712
0.066532508 0.095847338 0.44558206
0.065351702 0.093815066 0.44750369
0.049940962 0.10447718 0.43660238
0.051984597 0.1053425 0.43901336
0.062568985 0.096837699 0.44989341
0.06329225 0.093826763 0.45037341
0.048433576 0.10421082 0.43899283
0.049528379 0.10359181 0.44263452
0.050548326 0.10341931 0.44653499
0.055529028 0.099575415 0.45167837
0.058048088 0.096761018 0.45156825
0.061005082 0.094151564 0.45183742
0.047182314 0.10176231 0.44492117
0.049595535 0.1013954 0.44834763
0.052721765 0.099205293 0.45142004
0.054565154 0.095865987 0.45264632
0.028329572 0.10863937 0.45108572
0.029934688 0.10778561 0.45398104
0.046859078 0.094228715 0.47129601
0.049293626 0.092001304 0.47255453
0.024869662 0.10967673 0.45387867
0.029650558 0.10668632 0.45706773
0.029642342 0.10454713 0.46004474
0.040562656 0.09601482 0.47099015
0.044130113 0.095384479 0.47162473
0.046901543 0.092165507 0.47633809
0.022181556 0.10833451 0.45794895
0.022882966 0.10903487 0.46121162
0.028343782 0.10431612 0.46402583
0.036568511 0.097660378 0.4725824
0.04058354 0.095007427 0.47914168
0.042276971 0.092275508 0.47856802
0.020542063 0.10657339 0.46037656
0.020885125 0.10660723 0.46394071
0.026396532 0.10460736 0.4677237
0.025686875 0.10295393 0.46987891
0.031014748 0.098833606 0.47497237
0.033809036 0.099305913 0.47517803
0.03662847 0.09439899 0.47994232
0.039200362 0.092086732 0.47933716
0.0201241 0.10490638 0.46704429
0.020583417 0.10445374 0.4709948
0.024260834 0.10163899 0.47457242
0.026387263 0.10022563 0.47640631
0.029743792 0.097131029 0.48065442
0.032916062 0.095172271 0.4803828
0.017833211 0.1037359 0.47524238
0.021883667 0.10043751 0.47821593
0.021727689 0.10023159 0.47869387
0.025504101 0.097751655 0.48305497
0.014297113 0.10342354 0.47850841
0.016908579 0.10204597 0.48185024
0.018613063 0.10033787 0.48381209
0.021818779 0.097652562 0.48608062
0.010868594 0.10308805 0.48184994
0.013480291 0.10285716 0.48518872
0.015450973 0.1004562 0.48712528
0.017899387 0.097712338 0.48945597
0.0089622997 0.10247181 0.48444918
0.0093044825 0.10181955 0.4881658
0.01214727 0.099969782 0.49118158
0.015252836 0.097665802 0.4915432
0.0061841607 0.10170998 0.49167138
0.0087308064 0.10039587 0.49428305
0.0033417866 0.10163347 0.49447989
0.0059076101 0.10034962 0.49719048
0.064002864 0.096267551 0.43189794
0.065762527 0.095025152 0.43380013
0.054407921 0.09963195 0.42931178
0.05798018 0.099004276 0.43135118
0.06118004 0.09814851 0.43208915
0.065937921 0.094466597 0.43680656
0.06626562 0.09237437 0.43998715
0.067238182 0.089674473 0.44271237
0.051998217 0.10110119 0.43139833
0.055607304 0.10165843 0.43240327
0.066364259 0.093199305 0.44328079
0.065876991 0.090146326 0.44556639
0.048256937 0.10204853 0.43509787
0.048552457 0.10284947 0.43844751
0.060789376 0.09310779 0.45074195
0.062689096 0.090381481 0.44979247
0.045373172 0.10085799 0.43818998
0.046116926 0.10131119 0.44112566
0.056994662 0.09261544 0.45240796
0.058859017 0.090146609 0.45193607
0.044371698 0.099279448 0.4438259
0.046399735 0.097786561 0.44813156
0.049751837 0.095289029 0.45152599
0.053589247 0.09224952 0.45310894
0.044237848 0.095414534 0.44875163
0.047228813 0.093564808 0.45160142
0.026409039 0.10415557 0.44381323
0.028776579 0.10379225 0.44528225
0.04799246 0.087168083 0.46619475
0.050579853 0.086319096 0.46788618
0.051471055 0.084238045 0.46948636
0.024194391 0.10494472 0.44599977
0.02721668 0.10552299 0.44775638
0.02910175 0.10230758 0.45191491
0.04532234 0.089467891 0.46804672
0.049542744 0.087651514 0.47080719
0.049873706 0.084590927 0.47225234
0.022657201 0.10562241 0.44894868
0.022833522 0.10490076 0.45254698
0.02634806 0.10177884 0.45570299
0.027776897 0.10178714 0.45880294
0.039031178 0.092750318 0.47036672
0.041231424 0.089865088 0.47091734
0.044713497 0.087647691 0.47491762
0.047666982 0.085555486 0.4744764
0.020649672 0.10535228 0.4566018
0.022935251 0.10160346 0.45811814
0.025823725 0.10072574 0.46216825
0.034983102 0.0932111 0.47211641
0.038320713 0.089320749 0.47399643
0.041208204 0.089053616 0.47766903
0.019871829 0.10502537 0.45956397
0.020038202 0.10297894 0.46252632
0.022324562 0.10034579 0.46552211
0.023835182 0.10024481 0.46930522
0.029862452 0.095820442 0.47441408
0.031716116 0.092948243 0.47507298
0.035093658 0.09103027 0.47800964
0.038737394 0.090509929 0.47885317
0.020165045 0.10078434 0.46995893
0.021229384 0.098588295 0.47247973
0.025176324 0.095670015 0.47639272
0.027618572 0.094487004 0.47839409
0.031823643 0.093311928 0.47932321
0.016232662 0.099368148 0.47350639
0.020268019 0.097091123 0.47628957
0.021058254 0.09646339 0.47720274
0.023815729 0.093080759 0.48132512
0.012680922 0.099442557 0.47707623
0.015546866 0.09696883 0.48073539
0.016725983 0.096172236 0.48160243
0.020403663 0.093248881 0.48489302
0.010408722 0.099316075 0.48002565
0.010456041 0.098527424 0.48249608
0.013010651 0.095997095 0.484523
0.016781177 0.09379673 0.4879199
0.0088199377 0.097777769 0.48559874
0.011670183 0.095151104 0.4888961
0.013320487 0.09259443 0.48921442
0.061849996 0.092305996 0.42987609
0.064369708 0.090382911 0.43223542
0.053390186 0.096485853 0.42817268
0.056330435 0.095105782 0.42843443
0.059787307 0.094267711 0.4294087
0.065378562 0.089704782 0.43500417
0.065672271 0.08758612 0.43812847
0.065908924 0.086502984 0.44129649
0.050416578 0.097186819 0.42934227
0.0657757 0.08843179 0.44204885
0.064720556 0.085937247 0.4440586
0.045692634 0.09826009 0.43200037
0.062204048 0.08498916 0.44846565
0.040414385 0.097268984 0.43353373
0.041951925 0.098311365 0.43635166
0.058016516 0.08556024 0.45264968
0.058492471 0.082517855 0.45309183
0.039822727 0.096348867 0.43976873
0.041296918 0.096863449 0.44339088
0.051754806 0.088828519 0.4538298
0.053644214 0.085613169 0.4538219
0.028418781 0.10019037 0.43883935
0.030524377 0.099805236 0.44039565
0.037792087 0.094718903 0.4422304
0.038504079 0.094776779 0.44569167
0.041714933 0.092644833 0.44979808
0.044540398 0.090636931 0.4526394
0.047771618 0.08747977 0.45522362
0.049883366 0.083973102 0.45798737
0.052166864 0.082137384 0.46283874
0.0529401 0.080142669 0.46452168
0.0258858 0.10242285 0.44118595
0.029688403 0.10156292 0.44321364
0.030597074 0.097678907 0.44611862
0.037092224 0.092385143 0.44849458
0.043853763 0.086743116 0.45571166
0.046978157 0.08478263 0.46298105
0.051614322 0.083955206 0.46538514
0.052214652 0.081402123 0.4682807
0.02323503 0.10278117 0.44413367
0.022888506 0.099902324 0.44718003
0.028917391 0.097832642 0.45061618
0.043356203 0.086299196 0.46514434
0.045783523 0.081690416 0.47046629
0.04975339 0.081842996 0.47130278
0.022121137 0.10344565 0.44785315
0.022947749 0.10039241 0.45073703
0.025252843 0.098441362 0.45294002
0.041023545 0.085709915 0.46919042
0.043273356 0.084558569 0.47186202
0.047112875 0.083743915 0.47352609
0.014305551 0.095309541 0.47276282
0.017019473 0.09308508 0.47363102
0.019602187 0.090881437 0.47667646
0.021508522 0.089609377 0.48025978
0.012914691 0.094720006 0.47451547
0.012126002 0.093669973 0.47777599
0.014519501 0.091192044 0.48106563
0.018254384 0.089536399 0.48261374
0.0089388229 0.096427098 0.47979105
0.0095271915 0.093144335 0.4806444
0.012876257 0.09113533 0.48380756
0.015071169 0.090446927 0.48655587
0.0060107075 0.093439773 0.48461738
0.0089331046 0.091445766 0.48822513
0.011582527 0.090700462 0.48964924
0.002549123 0.09260571 0.48791707
0.0053647012 0.0909357 0.4912473
-0.00085000694 0.092137471 0.49091446
0.0018802993 0.090246931 0.49400121
0.060576964 0.088285141 0.42809033
0.063321993 0.086215965 0.43065292
0.051687758 0.09277375 0.42728686
0.054348391 0.090861239 0.42702892
0.057891458 0.089000203 0.42789322
0.062969163 0.084682919 0.43295932
0.06366159 0.083325118 0.43663433
0.06342259 0.081903629 0.43957651
0.044304989 0.09378688 0.42614311
0.048332687 0.092895463 0.42756236
0.06261047 0.080355547 0.43886477
0.062999994 0.081314132 0.44261307
0.063533999 0.078367852 0.44593462
0.041362286 0.094858408 0.42790166
0.04461699 0.095604151 0.42965215
0.061905079 0.08176782 0.44772804
0.062185936 0.078346975 0.44907841
0.038423136 0.095346913 0.43187958
0.058753483 0.079316407 0.45248371
0.02974432 0.095798872 0.43331453
0.033896279 0.093873635 0.43537769
0.036786392 0.093285762 0.43809286
0.052336331 0.080820955 0.45405751
0.054211117 0.077813238 0.45589221
0.055539306 0.07531254 0.45947498
0.027364802 0.097711504 0.43554667
0.031739336 0.096662313 0.43829253
0.03379387 0.092819013 0.44131735
0.035894535 0.09323132 0.44415146
0.039690953 0.088222221 0.45061365
0.040251434 0.087276682 0.45103785
0.047382277 0.083800614 0.4559986
0.048856586 0.081010573 0.45681682
0.05304512 0.07944227 0.46008369
0.054335091 0.076293662 0.46310115
0.02447981 0.098151073 0.43901521
0.030018622 0.093343906 0.44455928
0.034152389 0.090619668 0.44692773
0.037326247 0.088123478 0.44960338
0.040639374 0.08559981 0.45315009
0.043663882 0.08350201 0.45678791
0.045493342 0.081166096 0.46043184
0.05128758 0.07712625 0.46639869
0.022812843 0.097349294 0.44220936
0.023530774 0.095778175 0.44533756
0.026233567 0.093875162 0.44826242
0.042112611 0.081031084 0.46441954
0.04499492 0.079004854 0.4673489
0.048185986 0.077454403 0.46789241
0.023431137 0.097033389 0.44925937
0.024391556 0.095735013 0.45031717
0.027634311 0.086525083 0.45955405
0.029080089 0.085417651 0.46120462
0.041196734 0.082177117 0.4674187
0.042609207 0.081765994 0.46893737
0.024191763 0.088238738 0.46190175
0.027034879 0.08588095 0.4648878
0.022798922 0.087802805 0.46399924
0.025235644 0.085799791 0.46619388
0.012619141 0.092178591 0.47266686
0.013703045 0.08957231 0.47323424
0.017183121 0.087220855 0.47690773
0.018718846 0.086848907 0.47913539
0.011765551 0.091675662 0.47334832
0.011313774 0.088643491 0.47602656
0.013972357 0.086359493 0.47891822
0.017256737 0.086691156 0.48062909
0.0094075724 0.086624302 0.4783313
0.011720762 0.085455179 0.48066068
0.00078608468 0.090708718 0.48764214
0.0030740872 0.088597201 0.49229047
-0.0017757416 0.090103649 0.49016848
0.0010589994 0.08865869 0.49347204
0.059755906 0.084651865 0.42767391
0.061261646 0.083401449 0.42915976
0.052678362 0.086898074 0.42660579
0.055979341 0.084045015 0.42805237
0.059426703 0.081191711 0.43122521
0.061251041 0.079947747 0.43557808
0.043836165 0.091803312 0.42582974
0.04601584 0.088968031 0.42594513
0.049455795 0.086205482 0.42669523
0.060074821 0.077815793 0.43782365
0.061296988 0.076860875 0.4416948
0.062773384 0.07714586 0.44484821
0.039966423 0.091067895 0.42718768
0.041755389 0.088557422 0.42688248
0.059345253 0.074740477 0.44494024
0.060118474 0.075182371 0.44788718
0.032467969 0.090654448 0.42834353
0.035517409 0.091550447 0.42825243
0.058415052 0.073462248 0.45186001
0.057031434 0.071392812 0.45380062
0.029087769 0.092981152 0.43089995
0.032936301 0.092711836 0.43254742
0.034911208 0.090942882 0.43853942
0.049891643 0.078977704 0.45404834
0.055237561 0.075244039 0.45526025
0.055789128 0.07203646 0.45784539
0.025248792 0.094335504 0.43299216
0.033018127 0.089960769 0.44033766
0.037828345 0.08196912 0.44931337
0.047446012 0.078321859 0.45535153
0.054020997 0.071732484 0.46231037
0.022258684 0.093942232 0.43686077
0.029109484 0.089152336 0.44432351
0.031727538 0.086408101 0.44580379
0.035425603 0.084057562 0.44887686
0.038202643 0.081779815 0.45194805
0.040803973 0.078977711 0.45551327
0.043236006 0.078117386 0.45843303
0.049864717 0.072124101 0.46543813
0.021128092 0.093403615 0.44043496
0.022267459 0.091672279 0.44291288
0.025244726 0.09009847 0.44510409
0.029224848 0.082324326 0.45423588
0.031307206 0.080917656 0.45624325
0.04214457 0.076812312 0.46247572
0.043988872 0.074469551 0.46508974
0.0466046 0.073161975 0.46645173
0.024247847 0.085263371 0.45536777
0.027625401 0.084223181 0.45595571
0.030526303 0.081801608 0.45952412
0.030242343 0.079060704 0.46197128
0.021559205 0.086206906 0.45764175
0.022966323 0.08707241 0.45958719
0.028246254 0.082513437 0.46454406
0.028664963 0.07925979 0.46514693
0.016626175 0.086160444 0.46044752
0.019692978 0.085333891 0.46400547
0.023165995 0.082608022 0.46737891
0.025710689 0.079237424 0.46947315
0.015498437 0.084306024 0.46256566
0.017890953 0.083160028 0.46617135
0.020417942 0.081042469 0.46837211
0.022926822 0.079254702 0.47014546
0.0096436962 0.08507248 0.47560579
0.012061074 0.083069183 0.47806996
0.0065650195 0.083988249 0.47795814
0.0088297501 0.082471646 0.48052078
0.0043105297 0.082742244 0.48023412
0.0062487833 0.081279814 0.48259211
0.053950012 0.079986468 0.4290877
0.05600661 0.078286432 0.430718
0.044498015 0.084548004 0.42593023
0.047225855 0.082134388 0.42718792
0.051020615 0.07923457 0.42880985
0.054959558 0.075787149 0.43268967
0.056624092 0.074701779 0.43678883
0.058243398 0.073613063 0.4401094
0.038178019 0.087248862 0.42743528
0.040717121 0.084612325 0.42704383
0.0436964 0.080888614 0.42755592
0.054649379 0.072171681 0.43894368
0.056434274 0.072019741 0.44327003
0.057185158 0.072280183 0.44689959
0.031685755 0.089375466 0.42780423
0.034468651 0.087174505 0.42753285
0.037344668 0.083971694 0.4276785
0.0549419 0.070117071 0.44604346
0.056155436 0.070031926 0.44969276
0.056502607 0.069455355 0.45338523
0.028937127 0.089535378 0.42954674
0.029514512 0.086163923 0.4306221
0.051892478 0.068304203 0.45365936
0.054828517 0.069122806 0.45585552
0.024362834 0.089199208 0.43240127
0.027345795 0.085341066 0.43298352
0.028394479 0.082786568 0.438945
0.032767907 0.081186555 0.44202244
0.033287354 0.08029379 0.44406146
0.039006904 0.07559412 0.45047581
0.040877625 0.074386798 0.45080167
0.043446019 0.07064601 0.45450044
0.049165372 0.067919008 0.45567593
0.051042352 0.067924492 0.45982921
0.02163074 0.089181848 0.43595088
0.022454295 0.085892431 0.438575
0.026431104 0.084238835 0.44154593
0.031160312 0.083713531 0.44413269
0.032569662 0.080717809 0.4476555
0.036142688 0.077548966 0.45194829
0.040389638 0.076096043 0.45352519
0.04167974 0.072027147 0.45731136
0.044040054 0.068879642 0.46064186
0.047803961 0.068378247 0.46257433
0.020897303 0.090622887 0.4394955
0.02202207 0.088188015 0.4410094
0.02403977 0.086842731 0.44311032
0.025618214 0.079891734 0.45000097
0.029198082 0.079920374 0.45132384
0.032378819 0.077431388 0.45437521
0.032228641 0.074742071 0.45683917
0.041438721 0.073219165 0.46081936
0.043435704 0.071243465 0.46286759
0.022988044 0.08164373 0.45234281
0.026278444 0.081661463 0.45288184
0.030972755 0.077788889 0.45801765
0.030583659 0.075368926 0.46033457
0.018518092 0.082889952 0.45472702
0.028138865 0.075280264 0.46474144
0.014714435 0.084745131 0.45728028
0.014852874 0.08372435 0.45769709
0.024975676 0.075611025 0.46860269
0.013545752 0.081946693 0.46182337
0.014433131 0.080175973 0.46590453
0.017737959 0.077574447 0.46884573
0.021404024 0.076403394 0.46954745
0.005021546 0.081043467 0.47788054
0.0065827444 0.079689771 0.47996405
0.0032230727 0.08057157 0.47917205
0.0052014962 0.079113103 0.48166868
0.046183407 0.078840584 0.42917222
0.050136313 0.076552227 0.4300845
0.052338034 0.074864499 0.43197903
0.05313246 0.073627539 0.43558556
0.039636262 0.081366509 0.42787331
0.042406112 0.078779139 0.42941311
0.045574561 0.075003348 0.43223414
0.048278186 0.072521619 0.43513396
0.051818166 0.071407109 0.43910646
0.053410735 0.070109606 0.44235379
0.03296354 0.083117075 0.42842725
0.035681639 0.080740243 0.42945698
0.038304068 0.077111691 0.43218634
0.041379079 0.073867999 0.43497375
0.04424274 0.071383089 0.43796998
0.047650382 0.069821388 0.44181943
0.051015943 0.06853012 0.44527808
0.052702349 0.067405254 0.44878775
0.03074608 0.083084106 0.43049386
0.032148566 0.079756171 0.43265638
0.034041107 0.076632954 0.43436182
0.039709661 0.072151579 0.43865281
0.04111816 0.071652941 0.43857598
0.044464003 0.068396084 0.44482699
0.047396306 0.067719437 0.44831568
0.050628874 0.06729468 0.45104894
0.023252621 0.086093068 0.43369022
0.026202427 0.084348835 0.43441069
0.028805424 0.081166357 0.43656701
0.031288657 0.077726334 0.44006908
0.031434469 0.074463718 0.44145313
0.036825705 0.070089921 0.44727644
0.040325854 0.07029482 0.44928017
0.044078421 0.068857238 0.45245296
0.046964366 0.067870721 0.45551962
0.047840033 0.066574089 0.45906955
0.022344159 0.086249776 0.43466499
0.023071522 0.084891528 0.43628147
0.03058376 0.077018179 0.44335893
0.029526683 0.075708881 0.44499922
0.03448334 0.071381859 0.44984865
0.037070867 0.071708664 0.45014501
0.045551643 0.067307852 0.45915443
0.025213795 0.07662867 0.44783241
0.027285885 0.076886199 0.44742239
0.032870471 0.073040731 0.45394984
0.032102861 0.071067408 0.45469937
0.019795144 0.07829351 0.4501189
0.029820189 0.070730388 0.46029955
0.01698054 0.077999972 0.4520869
0.027376423 0.070132241 0.46278301
0.013655491 0.07821393 0.45664015
0.022817923 0.071050338 0.46625859
0.011011239 0.077861562 0.46070606
0.011292659 0.076222554 0.4645752
0.015652668 0.072880678 0.46873218
0.019012135 0.071291298 0.4688358
0.011916485 0.074710116 0.46604562
0.013563581 0.073708303 0.46771207
0.03933119 0.073091745 0.43608579
0.04251413 0.070565417 0.43945244
0.034920879 0.074822783 0.43593723
0.037012756 0.073081858 0.43787718
0.040509436 0.070300281 0.4415099
0.042351782 0.068783127 0.44400093
0.032928295 0.074740954 0.43816224
0.033996198 0.072786637 0.44183838
0.03658215 0.070775203 0.44440988
0.040192805 0.068957537 0.44569549
0.030023014 0.072505154 0.44528711
0.032382444 0.070346028 0.44811487
0.023490701 0.073205069 0.44675183
0.026137382 0.071135081 0.44666544
0.03007873 0.068393849 0.45047018
0.030351702 0.067716874 0.45394781
0.01539655 0.073665254 0.4478727
0.018103659 0.074278384 0.44856501
0.028346121 0.066507734 0.45879051
0.028273584 0.064968653 0.46092516
0.015344191 0.074340537 0.4485037
0.015540723 0.074398741 0.45098212
0.025856273 0.066375613 0.46166292
0.027912708 0.065069444 0.46147639
0.012254391 0.073564254 0.45558006
0.021028996 0.066930018 0.46445301
0.0096141435 0.073385455 0.45918512
0.010184858 0.071473897 0.46309149
0.013550866 0.068799779 0.46640277
0.017353125 0.067136422 0.46690011
0.011040032 0.073114008 0.46502933
0.012497373 0.071835548 0.46654087
0.02380106 0.067643352 0.44801149
0.026306091 0.065748528 0.45060992
0.017932661 0.069154717 0.44833383
0.020309003 0.066015474 0.44893885
0.023926266 0.063376874 0.45250413
0.025511239 0.06329564 0.45596281
0.014274217 0.069108531 0.45048153
0.022074021 0.061400164 0.45505556
0.022892388 0.062300108 0.45946652
0.011366144 0.068982996 0.45436925
0.010289323 0.066405103 0.45624691
0.015648235 0.062152825 0.46219832
0.018997978 0.062850833 0.46240389
0.009583272 0.069680825 0.4578146
0.010002933 0.067104831 0.46001762
0.012997869 0.064702258 0.46320817
0.016449377 0.064186051 0.4645128
0.018975761 0.063487217 0.45083344
0.020738564 0.062483188 0.45215559
0.014335256 0.065878011 0.45053262
0.014726453 0.06177558 0.45280069
0.01672662 0.059951991 0.45491004
0.020036539 0.060321249 0.45778304
0.012096554 0.065729067 0.45259252
0.012052022 0.061582703 0.45541069
0.013949864 0.05979427 0.45790589
0.018057059 0.060487449 0.45975399
0.011057567 0.0638429 0.45876196
0.012770671 0.06237375 0.46026459
0.026323721 0.053102046 0.44312322
0.027350808 0.052172653 0.44383144
0.024707844 0.053248066 0.44414625
0.013471216 0.05812256 0.45316625
0.014078982 0.057284243 0.4537729
0.011192594 0.057912696 0.45426017
0.012684431 0.056713264 0.45603997
0.0097681768 0.058122925 0.4571563
0.010371488 0.057639565 0.45765594
0.029184664 0.051124658 0.43969545
0.029951479 0.050415806 0.44036797
0.025778456 0.051363945 0.44136888
0.027818173 0.050596576 0.44298467
0.019187942 0.052118525 0.44272396
0.022126697 0.051486608 0.4444159
0.025046781 0.050342783 0.4450638
0.015975691 0.05144687 0.4443095
0.018545143 0.050399348 0.44590706
0.011579543 0.052615285 0.44901448
0.012509145 0.051716227 0.45090827
0.0089823492 0.053487599 0.45213184
0.010766417 0.052381352 0.45380455
0.017570235 0.049524002 0.44204044
0.019767821 0.048362732 0.44313428
0.013992347 0.049141891 0.44364414
0.016258091 0.047748845 0.44558793
0.010184735 0.048895851 0.44686893
0.012367576 0.048771575 0.44871253
0.0086259469 0.049743447 0.45015866
0.010102578 0.049517516 0.45109597
