# .PCD v0.7 - Point Cloud Data file format
VERSION 0.7
FIELDS x y z
SIZE 4 4 4
TYPE F F F
COUNT 1 1 1
WIDTH 1190
HEIGHT 1
VIEWPOINT 0 0 0 1 0 0 0
POINTS 1190
DATA ascii
-0.24603209 0.27587202 0.47127721
-0.22229145 0.27053463 0.44837144
-0.24911137 0.27810961 0.48080495
-0.24794917 0.27797893 0.48046443
-0.24493375 0.27635488 0.47284746
-0.22014856 0.27075893 0.44916087
-0.21321264 0.26989448 0.4460884
-0.21230991 0.26985011 0.44526044
-0.24245784 0.27842933 0.48105362
-0.23987159 0.27778599 0.47915861
-0.23620422 0.27727646 0.47532079
-0.21757165 0.27297553 0.45741659
-0.21291745 0.27181098 0.45328632
-0.21210858 0.27113074 0.450389
-0.21181874 0.27009416 0.44624835
-0.24117362 0.2786622 0.48206562
-0.2385658 0.27783138 0.47937727
-0.23521927 0.27751806 0.476881
-0.216225 0.2732417 0.45841724
-0.21317053 0.27214503 0.45526335
-0.21081725 0.27181673 0.45289028
-0.25916258 0.26789886 0.45805025
-0.25705013 0.26772934 0.45566776
-0.23875654 0.26349416 0.43828738
-0.2367578 0.26286021 0.43660316
-0.25792605 0.2703833 0.46062559
-0.25510666 0.26965231 0.45680404
-0.25194398 0.26813301 0.45596895
-0.2386751 0.26477483 0.44319904
-0.23765472 0.26533884 0.44001555
-0.23380581 0.26472399 0.43717381
-0.25547102 0.27065623 0.46761242
-0.25543761 0.27164003 0.46476477
-0.25069764 0.27094543 0.46076
-0.24964806 0.26867655 0.45866436
-0.23671502 0.26502344 0.44506624
-0.23375297 0.26675951 0.44376943
-0.2294205 0.26567563 0.43955874
-0.22655635 0.26393268 0.44036728
-0.25392115 0.27186227 0.46970749
-0.25124711 0.27346677 0.46739912
-0.24728169 0.27049664 0.46385795
-0.23052697 0.26659 0.44730216
-0.22659877 0.26757962 0.44298774
-0.22421634 0.26529843 0.44171965
-0.25072062 0.27385256 0.47431818
-0.24817589 0.27519542 0.4706156
-0.24306296 0.27174887 0.46693233
-0.22702441 0.26805592 0.45140129
-0.22307631 0.26939929 0.44614136
-0.22000611 0.26658821 0.44439146
-0.24971844 0.27569634 0.4811089
-0.24746841 0.27531305 0.47883624
-0.24358861 0.27607691 0.47495449
-0.23996797 0.2730321 0.46993491
-0.22389129 0.26940507 0.45435357
-0.21832828 0.27048293 0.44954321
-0.21508795 0.2676478 0.44706076
-0.21255992 0.26738906 0.44533545
-0.2481668 0.27682331 0.48211801
-0.24440683 0.27561337 0.48153707
-0.24059412 0.27464131 0.47778574
-0.23647568 0.27373314 0.47444892
-0.21935141 0.26986474 0.45802212
-0.2160821 0.26921558 0.45415831
-0.21247557 0.26823878 0.45010674
-0.21133864 0.26843169 0.44669122
-0.24103446 0.27693495 0.48349297
-0.23773904 0.27596048 0.47987705
-0.23435391 0.27530676 0.47787285
-0.21565764 0.2710107 0.45989057
-0.21345703 0.27037641 0.45656386
-0.20991138 0.26993391 0.45368075
-0.25935295 0.26502609 0.45875391
-0.25725585 0.26448157 0.45629454
-0.23886226 0.26036707 0.43889272
-0.23683411 0.26048338 0.43694586
-0.25867811 0.26562512 0.46181425
-0.25483257 0.26358986 0.45556852
-0.25210503 0.26480147 0.45609221
-0.23906529 0.26194996 0.44371369
-0.23977949 0.2600714 0.4413065
-0.23404616 0.25973195 0.43770525
-0.25520492 0.26920092 0.46810791
-0.256125 0.26684582 0.46636575
-0.24829906 0.26525229 0.46178722
-0.24927205 0.2653861 0.45943433
-0.23635259 0.26212588 0.4462302
-0.2341809 0.26235375 0.44733867
-0.22901432 0.2605767 0.44029057
-0.22656447 0.26301774 0.44072375
-0.2532351 0.2681776 0.47105715
-0.25241446 0.26679924 0.47017989
-0.24645577 0.26690048 0.46450934
-0.23067433 0.26324856 0.44918954
-0.22537951 0.26096979 0.44329429
-0.22399534 0.26189595 0.44313532
-0.25061619 0.26986486 0.47496217
-0.24776219 0.26738775 0.47254875
-0.2442731 0.26778057 0.46858364
-0.22680297 0.26365077 0.45125377
-0.22289374 0.26166365 0.44848385
-0.22035696 0.26277542 0.44528118
-0.24784188 0.27141386 0.4781954
-0.24430108 0.26981896 0.47580609
-0.24084103 0.2692965 0.47254685
-0.2224334 0.2650221 0.45452556
-0.21919812 0.26407349 0.45142549
-0.21675116 0.26429415 0.44776583
-0.24375644 0.27228236 0.48055503
-0.24279962 0.27121243 0.47849116
-0.23820566 0.27071625 0.47519314
-0.21939255 0.2664941 0.45707005
-0.21628658 0.26544043 0.45327857
-0.21421817 0.2654551 0.45190787
-0.25857186 0.26224583 0.45915103
-0.25744626 0.26196879 0.45778435
-0.25795972 0.2612519 0.46341646
-0.25493675 0.25957042 0.45883936
-0.25168076 0.26099563 0.4584066
-0.23780824 0.25825441 0.44523367
-0.23773032 0.25602823 0.44247437
-0.23348233 0.25547296 0.43973359
-0.25495172 0.26188096 0.46701708
-0.24950932 0.26051253 0.46381769
-0.24937467 0.26030219 0.46038646
-0.23614626 0.25743428 0.44772422
-0.23299964 0.25641778 0.44789645
-0.22959998 0.25606245 0.44211981
-0.25130245 0.26375037 0.46882379
-0.24896072 0.26238054 0.4657205
-0.23037271 0.25829369 0.448111
-0.22732118 0.25825131 0.445584
-0.25618157 0.25669861 0.4639796
-0.25463352 0.25553685 0.46118397
-0.23638913 0.25144947 0.44385439
-0.2336189 0.25221714 0.44206113
-0.2542313 0.257009 0.46638599
-0.2506296 0.25636089 0.46393996
-0.24989745 0.25739226 0.46141237
-0.23602113 0.25435403 0.44788828
-0.23381522 0.25271475 0.44769356
-0.23119274 0.25183526 0.44409877
-0.25069654 0.25508374 0.46764225
-0.23091951 0.25101954 0.44849989
-0.22974107 0.25033051 0.44768852
-0.25502637 0.25208959 0.465143
-0.254159 0.25102669 0.46316954
-0.23562856 0.24690381 0.44531476
-0.25414959 0.25174755 0.46802381
-0.25072485 0.25075117 0.46430162
-0.23471381 0.24707897 0.44876143
-0.23104963 0.24643227 0.44537246
-0.25127903 0.25214952 0.47066614
-0.24885309 0.25173596 0.46845916
-0.23045164 0.2472644 0.45126769
-0.22812046 0.24704997 0.44834059
-0.25361866 0.24672824 0.46456754
-0.2353864 0.24313265 0.44692546
-0.25444239 0.24699375 0.46953782
-0.2516169 0.24581566 0.46525335
-0.24844068 0.24520153 0.46526924
-0.23515153 0.24201217 0.45243043
-0.23473535 0.24191938 0.44868812
-0.23048513 0.24141833 0.44645053
-0.25101441 0.24801841 0.47330946
-0.2467823 0.2479125 0.46968919
-0.24634776 0.24557883 0.46725094
-0.23282331 0.24272847 0.45470554
-0.2299241 0.24441576 0.4537105
-0.22657493 0.24243796 0.44939598
-0.24819157 0.24664924 0.47503906
-0.24591208 0.2462776 0.47279626
-0.22755948 0.24218681 0.45534506
-0.22522518 0.24189089 0.45274687
-0.25481996 0.24232846 0.47099572
-0.25243005 0.24119729 0.46621507
-0.24835056 0.24085486 0.46553689
-0.2358079 0.23819968 0.45349979
-0.23485491 0.23729369 0.44950289
-0.23014255 0.2365668 0.44725385
-0.25217053 0.24346887 0.47560319
-0.24507374 0.24164623 0.46790388
-0.23335692 0.23916261 0.45669332
-0.22531703 0.23736966 0.44964951
-0.24759562 0.2435627 0.47763157
-0.24390265 0.24329028 0.47503141
-0.24220154 0.2413713 0.47195074
-0.22956093 0.23913249 0.45937192
-0.22569276 0.23940799 0.45767099
-0.2232199 0.23804915 0.45410743
-0.24397713 0.24178961 0.47893292
-0.2432867 0.24154449 0.47803664
-0.22671956 0.23755854 0.46151617
-0.22384338 0.23737775 0.45936322
-0.22199884 0.23683923 0.45733923
-0.25417548 0.23757821 0.47206867
-0.2516261 0.23656212 0.4681322
-0.24794844 0.23647347 0.46701151
-0.23535162 0.23374046 0.4547455
-0.23401374 0.23271069 0.45141536
-0.23006663 0.23217927 0.44901252
-0.25264502 0.23878068 0.47693262
-0.2446277 0.23644117 0.4690322
-0.23354289 0.23400831 0.45829007
-0.22528765 0.23206538 0.45043987
-0.24875867 0.23936826 0.48012075
-0.24237481 0.24100122 0.4767144
-0.24150619 0.23729004 0.47241938
-0.23004475 0.23482193 0.46141937
-0.22178191 0.23352021 0.45422003
-0.24400933 0.23960155 0.48182493
-0.24038164 0.23895869 0.47937587
-0.23945329 0.23763537 0.47617447
-0.22621477 0.23487978 0.46350044
-0.22284105 0.23503163 0.46264178
-0.22001374 0.23395996 0.45868868
-0.2406605 0.23843688 0.48425987
-0.23883843 0.23828816 0.48278719
-0.21976869 0.23411903 0.46427014
-0.21798572 0.23325667 0.46228242
-0.25256145 0.23437208 0.47325325
-0.25030074 0.23358642 0.47057202
-0.24759674 0.23359178 0.46898338
-0.23234133 0.22962943 0.45355153
-0.2299307 0.22948158 0.4512001
-0.25088707 0.23383752 0.47669476
-0.24785812 0.23175752 0.47327664
-0.24503277 0.23292056 0.4708806
-0.23260313 0.23022231 0.45848182
-0.23008858 0.22788838 0.45616722
-0.22668852 0.22849244 0.45301533
-0.24857359 0.23407952 0.48061517
-0.24524258 0.23087361 0.475768
-0.24162403 0.23306432 0.47392011
-0.22954263 0.23013823 0.4621852
-0.22745679 0.22695372 0.45898479
-0.22275865 0.22819546 0.45570689
-0.24469338 0.23539114 0.48439881
-0.23838915 0.23537999 0.47939882
-0.23865825 0.23312429 0.4781765
-0.22513793 0.23034368 0.46551117
-0.22388951 0.23238394 0.46491006
-0.21875274 0.22939284 0.45905596
-0.24036148 0.235524 0.48659912
-0.23659694 0.23532684 0.4841682
-0.23629376 0.23324507 0.48107275
-0.22250657 0.2304014 0.46775794
-0.21919668 0.23168407 0.46724465
-0.2165363 0.2300768 0.46338263
-0.23644426 0.23379192 0.48700511
-0.2165243 0.22990052 0.46775478
-0.21574716 0.22965309 0.46683246
-0.24600527 0.22965865 0.48142573
-0.24381748 0.22917709 0.47847563
-0.24101515 0.22839209 0.47668228
-0.22793961 0.22517748 0.46390268
-0.22579336 0.22513686 0.46116799
-0.22279304 0.22449893 0.45922646
-0.24437237 0.23037037 0.48549882
-0.24312851 0.22962548 0.48029751
-0.23814178 0.22903611 0.47895157
-0.22569208 0.22620611 0.4667778
-0.2240867 0.22522342 0.46200943
-0.21911207 0.22449271 0.46052673
-0.24024273 0.23107934 0.48766261
-0.23597099 0.23047446 0.48546138
-0.23589057 0.22952151 0.48169598
-0.22254363 0.22674975 0.46919796
-0.21856785 0.22619778 0.46896201
-0.21652378 0.22559768 0.46450558
-0.23638397 0.23255858 0.48726776
-0.21714456 0.22817951 0.46876499
-0.21555865 0.22816148 0.4668051
-0.25561967 0.21906325 0.46556941
-0.25399998 0.21871489 0.46279183
-0.25078917 0.21772309 0.45911729
-0.24741298 0.21718484 0.45573854
-0.24307707 0.21660596 0.45315644
-0.2408286 0.21504033 0.45186538
-0.25490108 0.21931635 0.46926707
-0.24121386 0.21649662 0.45309317
-0.23722494 0.21608393 0.45197922
-0.23363693 0.21523976 0.45154643
-0.25429925 0.21977931 0.47271979
-0.23369528 0.21544051 0.45281395
-0.23194021 0.21512735 0.45239401
-0.24849711 0.22194737 0.47922704
-0.24740629 0.22256656 0.47660065
-0.24385396 0.22145367 0.47374621
-0.23190624 0.21901011 0.4625251
-0.22912301 0.21807334 0.45900264
-0.22669217 0.21702126 0.4583917
-0.24689831 0.22421339 0.48189217
-0.2457574 0.22509867 0.47755209
-0.24024415 0.22268224 0.47520584
-0.23063052 0.22053693 0.46620181
-0.22748041 0.22075188 0.46008429
-0.22354324 0.21893251 0.4596062
-0.24423875 0.22537273 0.48626843
-0.23712394 0.2239752 0.4791742
-0.22688916 0.22120264 0.46899262
-0.21928175 0.21945983 0.46195135
-0.24094877 0.22615868 0.48728025
-0.23777939 0.22534052 0.48551825
-0.23588641 0.22419177 0.48269725
-0.22287135 0.22150582 0.47041517
-0.21973152 0.2214177 0.46839318
-0.21779615 0.22077513 0.46501124
-0.2567617 0.21531378 0.46703434
-0.25479177 0.21493357 0.46313649
-0.2515589 0.2138897 0.45919788
-0.24781077 0.21347371 0.45630401
-0.24383044 0.21239586 0.45301977
-0.2409801 0.21143204 0.45194811
-0.25536221 0.21731113 0.47305989
-0.25541586 0.21674222 0.46968266
-0.25280392 0.21484323 0.46656036
-0.24895398 0.21323219 0.4618153
-0.24559334 0.21261965 0.45863783
-0.24058239 0.21300662 0.45629132
-0.23748069 0.21272409 0.45223701
-0.23359409 0.21182454 0.4520652
-0.25387666 0.21837169 0.47540382
-0.25093058 0.21702756 0.47342405
-0.24728961 0.21551716 0.47109583
-0.24478698 0.21391064 0.46973822
-0.23628555 0.21278077 0.46009088
-0.23371997 0.21338737 0.45662934
-0.23072389 0.21260616 0.45322758
-0.25038314 0.21837397 0.47984141
-0.24940827 0.21913214 0.47585204
-0.24453793 0.2183367 0.47225431
-0.24151403 0.21633202 0.47173274
-0.23548995 0.214936 0.46567309
-0.23441759 0.2159119 0.46257496
-0.23038086 0.21458578 0.45762894
-0.22653186 0.21338758 0.45695031
-0.24807024 0.21888062 0.48331994
-0.23843735 0.21818292 0.47642684
-0.23950367 0.21750009 0.47410688
-0.23278928 0.21579346 0.46777645
-0.23049271 0.21623549 0.46885782
-0.22321673 0.21328741 0.45964739
-0.24353446 0.22052099 0.48657244
-0.23994668 0.2190606 0.48540217
-0.23729534 0.21903782 0.48048517
-0.22661719 0.21642208 0.46997464
-0.22138326 0.21470745 0.46762237
-0.21983823 0.21519071 0.46380454
-0.23782973 0.22125688 0.48506773
-0.23638386 0.22137758 0.48315588
-0.22299169 0.21752551 0.47052225
-0.22109805 0.21740299 0.46909225
-0.21893241 0.21731396 0.46590009
-0.25697753 0.21085164 0.46803451
-0.25563759 0.20972207 0.46356422
-0.25255704 0.20866039 0.4595592
-0.24889207 0.20833403 0.45652336
-0.24479383 0.20767988 0.45350274
-0.24031644 0.20702244 0.4521153
-0.25679001 0.2116534 0.47377893
-0.25716773 0.21164252 0.47115698
-0.25034457 0.2110416 0.46795049
-0.24822389 0.20928627 0.46445435
-0.24443328 0.20908652 0.46056038
-0.24040541 0.20836493 0.45959431
-0.2368952 0.20724109 0.45216161
-0.23386866 0.20680001 0.45248854
-0.25436091 0.21243426 0.47781789
-0.25097769 0.21385579 0.4708752
-0.24822743 0.21235576 0.46941644
-0.24456434 0.2112193 0.46907824
-0.23896596 0.21005659 0.46396944
-0.23825996 0.21019734 0.45986554
-0.23065761 0.20728296 0.45395747
-0.25145611 0.2141555 0.48173663
-0.24165805 0.21228875 0.47146869
-0.23625772 0.21097611 0.46681184
-0.22606024 0.2077947 0.45684078
-0.24773397 0.21563827 0.48527291
-0.23899187 0.212742 0.47739625
-0.2370768 0.21230008 0.47565266
-0.23320472 0.21138261 0.47187111
-0.23047726 0.21094425 0.46938047
-0.22250849 0.20903572 0.46038622
-0.24391034 0.2157124 0.48717383
-0.24056587 0.21495301 0.48509151
-0.23745142 0.21464694 0.48099867
-0.23389418 0.21368338 0.47750989
-0.23093204 0.21257506 0.47353521
-0.22623599 0.21176235 0.47074285
-0.22236031 0.21079652 0.46789348
-0.22100066 0.21063665 0.46386579
-0.25278434 0.20365024 0.4595744
-0.25014877 0.20163327 0.45742276
-0.25698769 0.20578994 0.46900356
-0.25572389 0.20457123 0.46451169
-0.25308743 0.20399742 0.46084461
-0.24931546 0.20376486 0.45723
-0.24469414 0.20176531 0.45385861
-0.2402627 0.20197707 0.45249274
-0.2564818 0.20727172 0.47489849
-0.25704026 0.20642821 0.47249231
-0.24864735 0.20769179 0.46784133
-0.24661873 0.20514584 0.46637043
-0.24323395 0.20465234 0.46315795
-0.23703846 0.20225842 0.45253319
-0.23424722 0.20172133 0.45318434
-0.25443789 0.20832814 0.47819808
-0.24446781 0.2058524 0.46913671
-0.24054591 0.20465444 0.46492454
-0.23023541 0.20244065 0.45507991
-0.25093588 0.20881659 0.48241121
-0.24174316 0.20628095 0.47325754
-0.23633702 0.20540878 0.46769437
-0.23390356 0.2037825 0.4689579
-0.22583008 0.20344116 0.45823407
-0.24752255 0.21010596 0.48527771
-0.24337727 0.20801353 0.48476413
-0.24023463 0.20812772 0.47759613
-0.23671156 0.207293 0.4754234
-0.2328783 0.20682034 0.47275186
-0.23185574 0.20623904 0.46942404
-0.22413306 0.20351245 0.46524581
-0.22338457 0.20447084 0.46190766
-0.24397528 0.21147551 0.48620847
-0.24174166 0.21045265 0.48440823
-0.23818444 0.20926818 0.48110589
-0.23540653 0.20857857 0.47812369
-0.23191683 0.2077731 0.47417244
-0.22737987 0.20683916 0.47131315
-0.22463737 0.20596419 0.46778673
-0.22226955 0.20691393 0.46533486
-0.25560582 0.19718021 0.46363971
-0.2532061 0.19822423 0.46105593
-0.25057277 0.19758677 0.45858696
-0.24750191 0.19572015 0.45616686
-0.25699356 0.20056435 0.46980187
-0.25594062 0.20026055 0.46596792
-0.25284219 0.19893385 0.4615618
-0.24840873 0.19730403 0.45747492
-0.24517184 0.1975359 0.45507997
-0.24028346 0.19718623 0.45366415
-0.25585017 0.20239249 0.47645548
-0.25658208 0.20148855 0.47388288
-0.23689489 0.19679347 0.45385399
-0.234182 0.19739041 0.45465595
-0.25360909 0.20308259 0.47919467
-0.24319923 0.20161259 0.46956512
-0.24069291 0.20113707 0.46734124
-0.23058608 0.1977306 0.45689151
-0.2502698 0.20369485 0.48241743
-0.24761821 0.20253564 0.48369521
-0.24072735 0.20239158 0.47343668
-0.23712371 0.20147714 0.46961737
-0.22699153 0.1983203 0.4604755
-0.24716103 0.20567827 0.484642
-0.24420209 0.20418945 0.4841983
-0.23951982 0.20374568 0.48168474
-0.23580678 0.20263335 0.47768977
-0.23207895 0.20194966 0.47497502
-0.22859663 0.20010275 0.47118223
-0.22604339 0.19968489 0.46690005
-0.22469085 0.20009187 0.46336618
-0.2389778 0.20490623 0.4823516
-0.23579697 0.20389462 0.4792698
-0.23123357 0.20165023 0.47487569
-0.2279969 0.20256607 0.47175893
-0.22603156 0.20248322 0.46922126
-0.25919908 0.19475746 0.46802473
-0.257438 0.19449568 0.46503073
-0.2545895 0.19374233 0.46111923
-0.2507405 0.19308609 0.45782751
-0.24691544 0.1921632 0.45496583
-0.24409449 0.19181138 0.45319372
-0.25851095 0.19618851 0.47102714
-0.25763848 0.19616316 0.46714169
-0.24886841 0.19541907 0.45796427
-0.24482839 0.19410565 0.45481175
-0.24054168 0.19216873 0.45366845
-0.256632 0.19733661 0.47710752
-0.25672266 0.19762893 0.4753089
-0.23645894 0.19417572 0.45526236
-0.23463376 0.19199817 0.45550448
-0.25348634 0.19820502 0.48015809
-0.23092632 0.19341439 0.45846924
-0.2508249 0.19893998 0.48222628
-0.24811691 0.19849968 0.48303649
-0.22831857 0.19388524 0.46426401
-0.22857733 0.1942828 0.46115306
-0.24415569 0.19882853 0.48334709
-0.24027656 0.19860673 0.48204005
-0.23624593 0.19868061 0.4794949
-0.23206839 0.19797808 0.4754203
-0.2292141 0.19594793 0.47150153
-0.22788496 0.19556746 0.46748051
-0.23465122 0.19672813 0.47981173
-0.2316474 0.19645941 0.47679096
-0.22954941 0.19546485 0.47452128
-0.25688377 0.19076613 0.46581328
-0.25395703 0.18900378 0.46266335
-0.25072578 0.18819571 0.45920122
-0.24703477 0.18846877 0.45640773
-0.25719842 0.19189546 0.47241801
-0.25610745 0.18976043 0.46868771
-0.25417244 0.18770161 0.46542737
-0.24803759 0.18625304 0.45946637
-0.24479036 0.18708308 0.45730171
-0.24061027 0.18766528 0.45623142
-0.2372953 0.1891467 0.45435944
-0.25651813 0.19387044 0.47759548
-0.25524506 0.19174695 0.47582856
-0.23736723 0.18674283 0.45830032
-0.23459664 0.18875298 0.45646533
-0.25312161 0.19497749 0.48068592
-0.25192791 0.19187276 0.47986215
-0.23294191 0.1873287 0.4619309
-0.23197411 0.18933909 0.45914286
-0.25102073 0.1951907 0.48264462
-0.24797598 0.19353685 0.48275462
-0.24372262 0.19192198 0.48131451
-0.23153558 0.18901023 0.46959883
-0.2298376 0.18877777 0.46530965
-0.22896969 0.19092156 0.46189797
-0.24434917 0.19473985 0.48407909
-0.24055022 0.19415045 0.48235857
-0.23697901 0.19304086 0.47931856
-0.23325719 0.19213311 0.47567821
-0.23002806 0.19158664 0.47237116
-0.22806996 0.1907199 0.46852371
-0.23538029 0.19537151 0.48088038
-0.23168178 0.19458447 0.47720978
-0.22936364 0.19401786 0.47455093
-0.20011008 0.19896011 0.51501608
-0.19744878 0.19861728 0.51227969
-0.19753668 0.19984835 0.5171079
-0.19511656 0.1994001 0.51444411
-0.19482109 0.20000049 0.51847899
-0.19346595 0.19988152 0.51720423
-0.25275642 0.18401588 0.46326828
-0.25101736 0.18391828 0.46138752
-0.25544581 0.18817291 0.47303164
-0.25467905 0.18561858 0.47017518
-0.2535753 0.18463951 0.4662298
-0.2480159 0.18298233 0.46091136
-0.24442798 0.18316965 0.45980206
-0.24071942 0.18381146 0.4589889
-0.25364143 0.18785809 0.4757497
-0.25302398 0.18491104 0.47482502
-0.23944077 0.18185687 0.46162519
-0.23795669 0.18406448 0.46062464
-0.2505177 0.18915682 0.47891545
-0.24830699 0.18631545 0.47827703
-0.23577811 0.18356726 0.46613207
-0.23471768 0.18530269 0.46351892
-0.24766758 0.19037068 0.48082173
-0.24414277 0.18817291 0.48002189
-0.23914482 0.18582742 0.47833419
-0.23579194 0.18503121 0.47518596
-0.23381783 0.18571156 0.46989864
-0.23228328 0.18700558 0.46653676
-0.24084167 0.1899268 0.48061386
-0.23818175 0.18865487 0.47887069
-0.23506649 0.1876357 0.47576573
-0.23258308 0.1881732 0.47253197
-0.23442359 0.19085199 0.50189281
-0.23386347 0.19047122 0.50109869
-0.21284424 0.18559341 0.48074472
-0.21204433 0.18564425 0.47997114
-0.23285501 0.19156101 0.50357205
-0.23020539 0.19116428 0.50201297
-0.21264502 0.18734483 0.48748913
-0.21173656 0.18689349 0.48398483
-0.2101073 0.18634295 0.48156518
-0.22966957 0.19178712 0.50571436
-0.22642983 0.19192681 0.50444889
-0.22374374 0.19144446 0.50276011
-0.21094346 0.18852097 0.49033716
-0.20911674 0.18796504 0.48772135
-0.20805869 0.18680194 0.48458821
-0.22279477 0.19227758 0.50672483
-0.21938649 0.19211978 0.50486469
-0.2162402 0.19158772 0.50435573
-0.20968705 0.18957679 0.49752998
-0.20869026 0.1897275 0.49450463
-0.20682549 0.18874972 0.49132392
-0.21530691 0.19240418 0.50650525
-0.21266627 0.19266871 0.5054301
-0.20804046 0.19151662 0.50103748
-0.20687926 0.19040838 0.4979744
-0.21050993 0.19294469 0.51045495
-0.20878401 0.19336724 0.50785041
-0.20565957 0.19226959 0.50447345
-0.20330849 0.1911632 0.50300634
-0.20871238 0.19310264 0.51202178
-0.20541276 0.19474508 0.51161176
-0.20164649 0.19369051 0.50840008
-0.20134272 0.19176216 0.50508273
-0.20119321 0.19611396 0.51446068
-0.19854939 0.1953475 0.51184672
-0.19806446 0.1984854 0.51694649
-0.19555146 0.19805275 0.5146457
-0.1950741 0.199118 0.51892245
-0.19347042 0.19895831 0.51727301
-0.25257549 0.17898643 0.46474424
-0.25097382 0.17879102 0.46300167
-0.2534532 0.1807833 0.47147378
-0.25287578 0.17983206 0.46746686
-0.24769306 0.17846964 0.46271232
-0.24410179 0.17884956 0.46200877
-0.25230244 0.18055341 0.4782573
-0.25255597 0.18128723 0.47527355
-0.23996936 0.17867067 0.46296296
-0.23739761 0.17729072 0.46379897
-0.25011742 0.18159294 0.48081976
-0.24828964 0.18347602 0.47885725
-0.23596995 0.18058242 0.4669162
-0.23455931 0.17803128 0.46576685
-0.24767527 0.18197823 0.48221433
-0.24412528 0.1827836 0.48095232
-0.24047692 0.1840843 0.47982037
-0.23471066 0.18287809 0.47422281
-0.23404847 0.18052872 0.47133827
-0.23313019 0.178554 0.46803936
-0.24119563 0.18157426 0.48296094
-0.2380266 0.18270284 0.4804346
-0.23462854 0.18209967 0.47695625
-0.23248668 0.17963602 0.4746334
-0.23637034 0.1877729 0.50242925
-0.2334789 0.18816675 0.50064802
-0.21387115 0.1835511 0.48156235
-0.21211472 0.18220684 0.47880912
-0.23384877 0.18927029 0.50592881
-0.2301904 0.18816511 0.50069767
-0.22667524 0.18719125 0.50033146
-0.21430892 0.18433572 0.48805243
-0.21375585 0.18440463 0.48441702
-0.2084457 0.18336155 0.48110458
-0.22938326 0.18908367 0.50829923
-0.22660437 0.19093974 0.50762081
-0.222766 0.18817994 0.50148427
-0.21308117 0.18592265 0.49219617
-0.20631628 0.18619195 0.48768547
-0.2060582 0.18365911 0.48564139
-0.22639464 0.18807317 0.50961447
-0.22308311 0.18936764 0.5091899
-0.21925189 0.18947831 0.50335932
-0.21662165 0.18858919 0.50377613
-0.21083421 0.18715109 0.49779749
-0.21099919 0.18800506 0.49509251
-0.20507759 0.18541309 0.49149504
-0.20505276 0.18336838 0.48864096
-0.21954262 0.18875283 0.50962698
-0.21571313 0.18974079 0.50900948
-0.21167007 0.18879661 0.50488544
-0.20962474 0.18836977 0.50253665
-0.20483506 0.18735513 0.49867415
-0.20465863 0.18582773 0.49526685
-0.21128643 0.19018881 0.51152432
-0.20767483 0.18863314 0.50697857
-0.20714566 0.18858585 0.50709206
-0.20248635 0.18823405 0.50289714
-0.20786166 0.19058169 0.51489848
-0.20444675 0.19076431 0.51203662
-0.2021521 0.19005489 0.51006103
-0.19934833 0.18872489 0.50645494
-0.20436589 0.19099212 0.51816106
-0.2013391 0.19224177 0.51545954
-0.19885445 0.19091107 0.51312411
-0.19591855 0.1894547 0.5102579
-0.20158166 0.19107398 0.51989633
-0.19789641 0.19178149 0.5193727
-0.19464561 0.19144106 0.51622403
-0.19375372 0.18980081 0.51281846
-0.19434446 0.19249645 0.5223577
-0.191632 0.1924801 0.51958728
-0.19147815 0.1930376 0.52508974
-0.18868434 0.19308569 0.52230209
-0.25278172 0.17406407 0.46587038
-0.25070348 0.17377476 0.46390679
-0.2556558 0.17513213 0.47590378
-0.2537846 0.17568529 0.47222862
-0.25303248 0.17553444 0.46892291
-0.2477048 0.17430581 0.4635793
-0.24403822 0.17348671 0.46288204
-0.24064122 0.17202494 0.4614729
-0.25401771 0.17691897 0.47844204
-0.25351873 0.17822601 0.4749223
-0.24122909 0.17539531 0.46281689
-0.2380221 0.17327459 0.46281442
-0.25059432 0.17860843 0.48218471
-0.2477386 0.18053806 0.48191988
-0.23379299 0.17718007 0.4681344
-0.23390448 0.17454909 0.46589637
-0.24708447 0.17820397 0.48479468
-0.24453269 0.17972307 0.48404795
-0.23179202 0.17682546 0.4717797
-0.23153895 0.17459354 0.46960068
-0.24118957 0.17854089 0.48542312
-0.23678906 0.17887448 0.48309833
-0.23300141 0.17812301 0.47934529
-0.23076764 0.17630598 0.47508165
-0.23525555 0.17661163 0.4848907
-0.23217122 0.17623261 0.48159948
-0.24155714 0.18086949 0.50388598
-0.24022445 0.18132538 0.50145465
-0.21637118 0.17536673 0.47958088
-0.21468213 0.17547347 0.47685838
-0.21254382 0.17419277 0.47564471
-0.23961058 0.18208112 0.50613344
-0.23837085 0.18359303 0.50317854
-0.23351969 0.18225423 0.50075793
-0.21521379 0.17781484 0.48249906
-0.21231236 0.17758746 0.47799784
-0.20995057 0.17527241 0.47720551
-0.23695897 0.18353334 0.50767559
-0.23334968 0.18411531 0.50730944
-0.22958779 0.18272059 0.50331426
-0.22678117 0.18396577 0.50182301
-0.21368846 0.1808932 0.48912722
-0.21235915 0.17866497 0.4865317
-0.20810586 0.17839792 0.48267394
-0.20802827 0.17666124 0.47946879
-0.22953728 0.18565613 0.5094322
-0.22701696 0.18296477 0.506607
-0.22312456 0.18388963 0.50352305
-0.21191096 0.1814239 0.49315459
-0.20907669 0.17885464 0.48925909
-0.20574388 0.18021879 0.48627108
-0.2265899 0.18627056 0.51008177
-0.22313218 0.18539953 0.50955606
-0.21959725 0.18425417 0.50684899
-0.21611816 0.18564163 0.50524431
-0.21026406 0.18401162 0.49853048
-0.20881268 0.18178998 0.49627712
-0.20565148 0.18142468 0.49259153
-0.20494458 0.181677 0.48889074
-0.21542343 0.18591675 0.50893623
-0.21239424 0.18486556 0.50751185
-0.20802069 0.18397297 0.50309813
-0.20591798 0.18385687 0.50046474
-0.20495082 0.18359768 0.49611452
-0.21133529 0.18532914 0.51254112
-0.20824455 0.18465774 0.50815803
-0.20723248 0.18448299 0.50726497
-0.20242134 0.18308333 0.50395828
-0.207754 0.18618441 0.51597726
-0.20369101 0.18548602 0.51270211
-0.20269328 0.185186 0.51140165
-0.19888334 0.18404239 0.50726938
-0.20477927 0.1867974 0.51813436
-0.20219754 0.18691479 0.51791495
-0.19962628 0.18556634 0.51498115
-0.19596599 0.18514395 0.51085544
-0.19891497 0.18707803 0.51935136
-0.19513926 0.18611133 0.51607949
-0.19409925 0.18404193 0.51408017
-0.25319609 0.16941692 0.46749792
-0.25051412 0.16874363 0.46467525
-0.2555961 0.17168644 0.47649959
-0.25509655 0.17085221 0.47338948
-0.25414681 0.17083038 0.46982592
-0.24775797 0.16918439 0.463512
-0.24413297 0.16831721 0.4628461
-0.24081068 0.16842252 0.4623805
-0.25452083 0.17237429 0.47951162
-0.24074252 0.17046037 0.46276334
-0.23794168 0.16869548 0.46340805
-0.25204772 0.17370349 0.48427081
-0.23330452 0.16901241 0.46565533
-0.24989785 0.17265649 0.4893181
-0.24771126 0.17478162 0.48787108
-0.22926787 0.17046247 0.46977484
-0.22786458 0.16783866 0.46886683
-0.24369073 0.17386226 0.48961794
-0.24056701 0.17576346 0.48813951
-0.22881043 0.17314087 0.47640055
-0.2278726 0.17037562 0.47408059
-0.24503994 0.17571972 0.50146699
-0.24359922 0.17615296 0.49928972
-0.24068627 0.1729375 0.49133787
-0.23750579 0.17426448 0.49055403
-0.23316219 0.17408001 0.48697403
-0.23002087 0.17353041 0.48382473
-0.22676393 0.17187218 0.48011944
-0.22314103 0.16981226 0.47746879
-0.21813108 0.17004484 0.47482941
-0.21593563 0.16885841 0.47374251
-0.24340519 0.17829137 0.50422758
-0.24148344 0.17865251 0.50029218
-0.23751524 0.17614153 0.49877605
-0.23396915 0.17282324 0.49154624
-0.2257784 0.17087144 0.4838821
-0.21851565 0.17191941 0.48033202
-0.2163108 0.17254224 0.4755666
-0.21277654 0.17122979 0.47454217
-0.24056791 0.17930879 0.50682729
-0.23671499 0.17762814 0.50669074
-0.23322298 0.17761864 0.5003469
-0.21673481 0.17362756 0.48407489
-0.21036163 0.17145608 0.48089325
-0.20991068 0.17237286 0.476964
-0.23721834 0.1810647 0.50792921
-0.2335432 0.1793102 0.50661105
-0.23098335 0.17853093 0.5040009
-0.21257034 0.17417765 0.48619947
-0.20983508 0.17429695 0.48374411
-0.20827267 0.17458025 0.47978771
-0.21053262 0.18105718 0.51389939
-0.2091637 0.17961635 0.51087987
-0.20574763 0.17892447 0.50793833
-0.20209101 0.17920136 0.50578308
-0.20858926 0.18093733 0.51514947
-0.205118 0.18097907 0.51570112
-0.2013669 0.18009211 0.51290232
-0.19962342 0.17953949 0.50893468
-0.20392418 0.1838454 0.51919097
-0.20206194 0.18115237 0.51812768
-0.19865537 0.18077636 0.51445186
-0.19599965 0.18134639 0.51211369
-0.1981788 0.18235593 0.5215497
-0.19432928 0.18209368 0.51828712
-0.19293058 0.18221304 0.51552445
-0.19455251 0.18228355 0.52477634
-0.19106483 0.18221492 0.52167177
-0.19133747 0.18245608 0.52799988
-0.18799829 0.18208814 0.52495503
-0.25343159 0.1649036 0.46824029
-0.25052577 0.16419154 0.46516904
-0.25505945 0.16771615 0.47768757
-0.2548492 0.16617359 0.47479281
-0.25366524 0.16517188 0.47100353
-0.24781947 0.16351019 0.46524566
-0.24396127 0.16358936 0.46427771
-0.24070346 0.16324368 0.46424124
-0.25594693 0.16736022 0.48516589
-0.2546021 0.1675113 0.48101863
-0.24079388 0.1614581 0.4648464
-0.23762341 0.16368268 0.46450058
-0.23355226 0.16214176 0.46347603
-0.25444523 0.16859873 0.48818436
-0.2532841 0.17029312 0.48502299
-0.23289379 0.16572255 0.46551904
-0.23049642 0.16303332 0.4647283
-0.25066355 0.17005479 0.49106181
-0.22737885 0.16468056 0.46817577
-0.24884811 0.16990003 0.49967954
-0.2465601 0.16932401 0.49524841
-0.24401893 0.1700618 0.492237
-0.22594808 0.16583186 0.47469863
-0.22334844 0.16388932 0.47237578
-0.21923834 0.16295055 0.4706209
-0.24722438 0.17215344 0.50224632
-0.24460536 0.1726546 0.49770024
-0.24062012 0.17036349 0.49505258
-0.23824687 0.17197655 0.49295956
-0.23076603 0.16999112 0.48833799
-0.23009001 0.16932462 0.4876402
-0.22477236 0.16866286 0.47997043
-0.22317187 0.16652568 0.47810006
-0.2198759 0.16669889 0.47365233
-0.21607634 0.16495831 0.47185886
-0.24390851 0.17339613 0.50507617
-0.23748219 0.17149855 0.49878126
-0.23463777 0.17028065 0.49424863
-0.23151287 0.16926233 0.49069029
-0.22757062 0.16853391 0.48696834
-0.22366528 0.16819784 0.48358938
-0.21958888 0.16749513 0.48135984
-0.21304151 0.1664885 0.47490886
-0.24052027 0.17353836 0.5065335
-0.23710582 0.17323469 0.50552422
-0.23391253 0.17279631 0.50250894
-0.21555704 0.16831948 0.48458689
-0.21233094 0.16778997 0.48137653
-0.21152745 0.16692437 0.47798723
-0.2338371 0.17573483 0.50569975
-0.23247603 0.1750059 0.50454074
-0.22093858 0.16998994 0.49980944
-0.21911959 0.16970155 0.49818182
-0.21305987 0.17030156 0.4855783
-0.21159631 0.17061247 0.4840844
-0.21906358 0.17196688 0.5033977
-0.21567005 0.17114311 0.50017834
-0.21684778 0.17210796 0.50466257
-0.21428771 0.17129362 0.50191504
-0.20945059 0.17790067 0.51513296
-0.20811954 0.17580071 0.51368105
-0.204128 0.17529663 0.50981474
-0.20202053 0.17590202 0.50818646
-0.20858067 0.17756067 0.5158903
-0.20501447 0.17559817 0.51584572
-0.20172122 0.17478812 0.51282167
-0.20046031 0.1760869 0.509574
-0.20203552 0.17427243 0.51739192
-0.19962023 0.17426574 0.51488
-0.1940476 0.18020567 0.52626288
-0.18913603 0.18011238 0.52358556
-0.19128875 0.18019235 0.5286504
-0.18790309 0.18032657 0.52555907
-0.25254357 0.16127583 0.46855506
-0.25083551 0.16080524 0.46685222
-0.25379601 0.16213188 0.47590193
-0.25171468 0.16037583 0.47219878
-0.24802238 0.15922882 0.46830726
-0.24364662 0.15978537 0.46621773
-0.25554144 0.16534767 0.48536026
-0.25463623 0.16301435 0.48280305
-0.25324932 0.16112113 0.47899258
-0.24073748 0.15842409 0.4670271
-0.23686823 0.15901086 0.46558622
-0.23410778 0.16053791 0.46408528
-0.25374275 0.16465195 0.48905358
-0.25331378 0.16242905 0.48693916
-0.23296855 0.15790744 0.46713966
-0.23040451 0.15942347 0.46636191
-0.25198302 0.16374066 0.49638885
-0.25258729 0.16491899 0.49349809
-0.22597387 0.15897255 0.46770725
-0.22335732 0.15753955 0.46873832
-0.25012237 0.16636777 0.49999595
-0.24875942 0.16715443 0.49610731
-0.2426786 0.16780193 0.49375403
-0.22516295 0.16381125 0.47686076
-0.22315216 0.16140606 0.47101614
-0.21968609 0.15937167 0.46995619
-0.24833833 0.16787378 0.50393271
-0.24052468 0.16727029 0.49544513
-0.22975363 0.16349238 0.48933935
-0.22354414 0.16334599 0.47915694
-0.21526435 0.16040042 0.47155136
-0.24435945 0.16846482 0.50673997
-0.23623064 0.16740185 0.49910054
-0.23410541 0.16567473 0.49608776
-0.23069365 0.16499265 0.49202093
-0.22724235 0.16426447 0.48887601
-0.22313838 0.16319551 0.48581919
-0.2202808 0.16369328 0.48321795
-0.21216169 0.16132537 0.47564146
-0.240741 0.16904831 0.50769371
-0.23791353 0.1684245 0.50626123
-0.23553945 0.16807522 0.50303876
-0.22463563 0.16445129 0.49778116
-0.22242649 0.16408467 0.49547255
-0.21596768 0.16372813 0.48401383
-0.21285731 0.16266814 0.4817946
-0.21132563 0.16223836 0.47898814
-0.22420461 0.16696447 0.50309038
-0.22354411 0.16661231 0.49958676
-0.21958637 0.16593571 0.4962866
-0.21634702 0.164186 0.49612248
-0.22219396 0.16829155 0.50582647
-0.22075807 0.16993707 0.50450575
-0.21494813 0.16803773 0.49851665
-0.21331879 0.16526516 0.4976317
-0.21919107 0.16860268 0.51063222
-0.21579081 0.16942854 0.50739127
-0.21195479 0.16847208 0.50348711
-0.2090373 0.16636281 0.50044388
-0.21649829 0.16746221 0.51143563
-0.21289773 0.16792399 0.50881624
-0.21029988 0.16701613 0.50596315
-0.20821294 0.16626686 0.50318491
-0.2040908 0.17192253 0.51700968
-0.20127614 0.17119786 0.51427448
-0.20129751 0.17133978 0.51984614
-0.19854294 0.17108338 0.51732761
-0.19858044 0.17068152 0.521846
-0.19601299 0.17036533 0.51966339
-0.24923402 0.15670064 0.47361347
-0.2472786 0.15592846 0.47129881
-0.25305703 0.15870565 0.48368731
-0.25125977 0.15722375 0.48061773
-0.24903324 0.15554491 0.47641489
-0.24451251 0.15414712 0.47193581
-0.24041691 0.15474483 0.47003305
-0.23704818 0.15506722 0.46819422
-0.25209963 0.16095965 0.49028313
-0.25176284 0.15868205 0.48741072
-0.25024369 0.15575542 0.48392773
-0.23740219 0.15288347 0.47157937
-0.23341537 0.15444325 0.46968237
-0.23014767 0.15602131 0.46888414
-0.25200403 0.16226847 0.49699774
-0.25171819 0.16046768 0.49394193
-0.25071082 0.15788803 0.49064329
-0.23006494 0.15343744 0.47082347
-0.22669564 0.15475728 0.46951845
-0.22305885 0.15552764 0.46900111
-0.25022498 0.16267626 0.49969691
-0.24812368 0.15997529 0.49862653
-0.22208557 0.15398242 0.47339639
-0.22050758 0.15585813 0.47054943
-0.2471046 0.16277833 0.50410581
-0.24547464 0.15975098 0.50059855
-0.23909248 0.15954246 0.49905291
-0.23597696 0.15964399 0.4944225
-0.23379913 0.1595747 0.49373204
-0.22660448 0.15809757 0.48725137
-0.2260264 0.15731469 0.48522252
-0.22147933 0.15541308 0.48206356
-0.21986756 0.15397897 0.4759911
-0.21610272 0.15563743 0.47402936
-0.24357 0.16364199 0.50671828
-0.24005927 0.16157818 0.5053767
-0.23699744 0.16154456 0.50113404
-0.23472919 0.16252279 0.49631423
-0.23051491 0.16111238 0.49441126
-0.22567378 0.16007051 0.49032298
-0.22400789 0.15977955 0.48587614
-0.21917723 0.15744509 0.48393437
-0.21516049 0.15594436 0.48107371
-0.21344581 0.15660208 0.47722921
-0.24067269 0.1661081 0.50755668
-0.23851323 0.16449702 0.50606447
-0.23623222 0.16421166 0.50382608
-0.22753832 0.16029149 0.50111741
-0.22656108 0.16121148 0.49754459
-0.22308627 0.1603294 0.49397102
-0.21985801 0.15864995 0.49368125
-0.21626583 0.15972726 0.48425141
-0.21382108 0.15883413 0.48194665
-0.2257397 0.16240203 0.50390702
-0.2254743 0.16300778 0.50063896
-0.21968511 0.16173705 0.49532109
-0.21666838 0.16022873 0.49530923
-0.22360003 0.16382976 0.50844592
-0.21232522 0.16135493 0.49760577
-0.22155374 0.16596451 0.51240623
-0.22082925 0.16517352 0.51211584
-0.20858413 0.16259654 0.50068587
-0.21626344 0.16477031 0.51305699
-0.21189901 0.16462795 0.51182806
-0.20849872 0.16361858 0.50811869
-0.20770803 0.16321898 0.50430828
-0.20027095 0.16838053 0.52096379
-0.1979709 0.16802526 0.51917654
-0.19877109 0.1681622 0.52264541
-0.19607762 0.16790213 0.52042007
-0.24821523 0.15470724 0.48113868
-0.24687192 0.15337433 0.47688273
-0.24468283 0.15272196 0.47441947
-0.24093686 0.15290277 0.47336918
-0.24981627 0.15580998 0.48800549
-0.24769869 0.15426803 0.48486292
-0.24400704 0.15210697 0.48112723
-0.24064291 0.15112109 0.47803074
-0.23679036 0.15187892 0.47427073
-0.23341838 0.15197846 0.47243097
-0.24940772 0.15680973 0.49484143
-0.24783623 0.1552828 0.49179241
-0.24424116 0.15316035 0.4886201
-0.24075316 0.15147191 0.4850522
-0.23730883 0.15053576 0.48179445
-0.23341216 0.15081865 0.47810593
-0.22997037 0.15121439 0.47450674
-0.22641668 0.15157612 0.47259167
-0.24729742 0.15721418 0.49697971
-0.24424863 0.15502757 0.49507129
-0.24173282 0.15293536 0.49271795
-0.23660207 0.15092801 0.48637179
-0.23660728 0.15061045 0.48490977
-0.22988126 0.15012936 0.48098472
-0.22658679 0.15105459 0.47789964
-0.22410786 0.15199263 0.47457165
-0.24477132 0.16019015 0.50473762
-0.24371932 0.15917501 0.5015555
-0.2408109 0.15726939 0.49847931
-0.23654351 0.15557009 0.49545169
-0.23415802 0.15302317 0.49481595
-0.22760448 0.15160675 0.48872074
-0.22604133 0.1529143 0.48523435
-0.22284651 0.15312344 0.48123884
-0.219841 0.15360981 0.47816691
-0.21613394 0.15372564 0.47702929
-0.24384363 0.16055827 0.50563419
-0.24192111 0.15993625 0.50468343
-0.23316553 0.15595062 0.49596748
-0.23110971 0.15516292 0.49678928
-0.22545551 0.15340307 0.49115533
-0.22547169 0.15412715 0.48863235
-0.21613733 0.15415677 0.47939497
-0.22844994 0.15645967 0.50111568
-0.22906946 0.15681392 0.49911103
-0.22204591 0.15615456 0.49288064
-0.22062427 0.15447888 0.49334544
-0.22647494 0.1581272 0.50665468
-0.21508852 0.15580238 0.4954167
-0.22432712 0.15818173 0.50935006
-0.21238072 0.15579535 0.49768937
-0.2198853 0.15953168 0.51255655
-0.20909953 0.15728037 0.50224251
-0.21575953 0.16027093 0.51502222
-0.21159524 0.16010413 0.51441687
-0.20687971 0.15895134 0.50952882
-0.2064883 0.15791954 0.50597841
-0.20975073 0.15927573 0.5135507
-0.20796667 0.15911593 0.51173818
-0.23930179 0.15087794 0.48694265
-0.23551844 0.15006934 0.4833537
-0.23970796 0.15189707 0.49155414
-0.23745051 0.1511972 0.48919103
-0.23335394 0.15028057 0.48524913
-0.23063628 0.1499472 0.48315045
-0.23744854 0.15233792 0.49345899
-0.23341571 0.15190804 0.49203584
-0.23050952 0.15123327 0.48912993
-0.22894925 0.15042457 0.48526919
-0.22979854 0.1523385 0.4958424
-0.22658588 0.15158609 0.49313357
-0.22819169 0.15268885 0.5023694
-0.22776641 0.15105665 0.49946213
-0.22355358 0.1502912 0.49508137
-0.22007953 0.15088534 0.49462885
-0.22671573 0.15250607 0.51041746
-0.22646476 0.15364715 0.50780624
-0.21498203 0.15117115 0.49632287
-0.212455 0.15045981 0.49612552
-0.22634622 0.15334472 0.51054794
-0.22405212 0.15427199 0.51029909
-0.21206218 0.15172574 0.4986966
-0.21194538 0.15069813 0.49648297
-0.21921892 0.15466544 0.51331943
-0.20928343 0.15260416 0.5034821
-0.21558458 0.15540899 0.51581705
-0.21131438 0.15503667 0.51488626
-0.20754647 0.15409397 0.51109684
-0.20679206 0.15318255 0.50708789
-0.21010642 0.15733321 0.51422048
-0.20836139 0.15683933 0.51256096
-0.22516242 0.1479781 0.50125217
-0.22226433 0.14741121 0.49844196
-0.22494848 0.14877461 0.50726432
-0.22349532 0.14635006 0.50445759
-0.21951874 0.14555833 0.50041801
-0.21635629 0.14686219 0.49875066
-0.2226547 0.14901732 0.51082504
-0.21632624 0.14436327 0.50191057
-0.21254431 0.14681293 0.50111532
-0.21875367 0.14987437 0.51358807
-0.21604735 0.14798394 0.51424593
-0.20941201 0.14672062 0.50819647
-0.20969255 0.14785309 0.50497329
-0.215625 0.15148519 0.51536369
-0.21272057 0.14989199 0.51453233
-0.20913082 0.14911522 0.51115125
-0.20797853 0.14950567 0.50762969
-0.22077148 0.14448012 0.50537574
-0.2193183 0.14421456 0.50345707
-0.22152585 0.14603332 0.51031125
-0.21804552 0.14303713 0.50929278
-0.21559466 0.14230698 0.50700462
-0.21325676 0.14404197 0.50370765
-0.21938138 0.14632483 0.51245445
-0.21533853 0.14342254 0.51184732
-0.21252981 0.14284475 0.50965565
-0.21132019 0.14462844 0.50564063
-0.21287939 0.14655332 0.51306355
-0.21109693 0.14591022 0.51112443
-0.22504859 0.13306978 0.49684334
-0.22414456 0.13257298 0.49567878
-0.22402146 0.1333575 0.49843746
-0.21638541 0.13960543 0.51001489
-0.21557744 0.13910712 0.50928068
-0.21512486 0.13950443 0.51221341
-0.21315691 0.13918029 0.51052403
-0.21237382 0.14051704 0.51357985
-0.21178526 0.14031215 0.51290244
-0.22780785 0.13040574 0.49382108
-0.22699285 0.13007013 0.49294591
-0.22607341 0.13078293 0.49718401
-0.22444373 0.13087243 0.49501693
-0.22458373 0.13113947 0.50377905
-0.22299223 0.13149177 0.5007391
-0.22220795 0.13100736 0.49767229
-0.22263968 0.13066193 0.50682473
-0.22097084 0.13054937 0.50409454
-0.21829954 0.13282114 0.51122117
-0.21628527 0.13274668 0.51012754
-0.21547942 0.13438199 0.51383555
-0.21366417 0.13414392 0.51187271
-0.2242386 0.12828982 0.50503445
-0.22297809 0.12785305 0.5026691
-0.22234866 0.12804322 0.5084821
-0.22021687 0.12769008 0.50599551
-0.21896555 0.12845035 0.51213539
-0.21734816 0.12923446 0.50991088
-0.21604934 0.13017492 0.51371408
-0.21519858 0.13046709 0.51219726
