# .PCD v0.7 - Point Cloud Data file format
VERSION 0.7
FIELDS x y z
SIZE 4 4 4
TYPE F F F
COUNT 1 1 1
WIDTH 1190
HEIGHT 1
VIEWPOINT 0 0 0 1 0 0 0
POINTS 1190
DATA ascii
0.029422363 0.11165218 0.61400008
0.031412989 0.093255684 0.64182788
0.024104722 0.11646912 0.60666615
0.02360924 0.11581026 0.6075629
0.027465371 0.11187436 0.61383885
0.029382247 0.092683569 0.64273024
0.027199183 0.08850953 0.6487391
0.027215077 0.087958589 0.64983392
0.019473432 0.11400345 0.61077774
0.019263526 0.11204021 0.61338449
0.019732963 0.10943185 0.61801207
0.021261999 0.094905287 0.63975763
0.021410663 0.091250852 0.64492488
0.023111884 0.089839727 0.64707571
0.0261265 0.08812882 0.64958334
0.017845709 0.11383487 0.61100066
0.018233811 0.111568 0.61407131
0.017901398 0.10948443 0.61768752
0.019595388 0.094738409 0.64004076
0.020075822 0.091972113 0.64358985
0.020311974 0.090311527 0.6464991
0.049167719 0.10791799 0.61133373
0.049541276 0.10649882 0.61416459
0.050900251 0.092257038 0.63537771
0.050922781 0.090582401 0.63748211
0.046027653 0.11003159 0.61141419
0.047084771 0.1075837 0.61541146
0.045878198 0.1047657 0.61731178
0.04703439 0.094153777 0.63268906
0.048581701 0.09371984 0.63567424
0.048223641 0.091100752 0.63970912
0.039261766 0.11036448 0.60840935
0.041140471 0.11077349 0.6107291
0.041056726 0.10752307 0.61605972
0.042298995 0.10471989 0.61717331
0.044333875 0.093852669 0.63277078
0.043013096 0.093953624 0.63619345
0.043418359 0.090493366 0.64124691
0.041250087 0.087863997 0.64177603
0.036494259 0.11112747 0.60847807
0.036125034 0.11106969 0.61233997
0.036622338 0.10618521 0.61594284
0.038336907 0.093014628 0.63578403
0.03871312 0.091560051 0.64150822
0.038474042 0.088319242 0.64289677
0.030661555 0.1123016 0.60822511
0.031441525 0.11184101 0.61282587
0.031370282 0.10602671 0.61704206
0.032771908 0.093511611 0.63584352
0.033761229 0.092213348 0.64235461
0.033514507 0.088133395 0.64427394
0.024716323 0.11461613 0.60509223
0.024957241 0.11296582 0.60784775
0.025090259 0.11139913 0.61316115
0.026906926 0.10635582 0.61750174
0.02830825 0.093875557 0.63638747
0.027951108 0.091734588 0.64349645
0.028130665 0.087444499 0.64599901
0.02776652 0.085876465 0.648615
0.022753906 0.11513382 0.60585177
0.02091218 0.11238237 0.60808253
0.0213055 0.10931362 0.6125527
0.021183155 0.10624009 0.61696398
0.022552839 0.092969283 0.63696533
0.02332907 0.090399027 0.64130473
0.024078337 0.087364435 0.6458441
0.025784468 0.086512893 0.64890349
0.017022282 0.11246176 0.60942692
0.017658772 0.10962954 0.61348373
0.017002955 0.10730442 0.6166566
0.018546013 0.09274292 0.6384958
0.01963337 0.090720266 0.64181823
0.019474791 0.088375762 0.64576256
0.049295027 0.10554369 0.60956442
0.049801998 0.10378355 0.61228245
0.051088959 0.089604229 0.63362175
0.051149193 0.088545561 0.63622808
0.046509936 0.10628594 0.60819608
0.048891518 0.10185395 0.61390793
0.046491697 0.10187621 0.61575782
0.047422897 0.091875777 0.63094068
0.04998688 0.09011136 0.63132322
0.04888938 0.08682622 0.63715065
0.038985491 0.10903189 0.60764641
0.041285761 0.10703452 0.60726225
0.039744295 0.10159448 0.61452705
0.042078864 0.10174537 0.6155408
0.043764912 0.091298029 0.63102949
0.041481838 0.090768114 0.63173914
0.043530256 0.085884199 0.63891393
0.041159417 0.087106988 0.64115721
0.035717253 0.1077635 0.60649091
0.036062401 0.10604715 0.60701811
0.036246464 0.10272984 0.61454362
0.037656415 0.090393066 0.63306123
0.03886921 0.085191667 0.63934267
0.037905358 0.085413113 0.64069211
0.030837566 0.10879785 0.60622007
0.031157659 0.10500075 0.60858345
0.031675953 0.10325307 0.61355609
0.033522829 0.089459017 0.63426596
0.03331852 0.085599944 0.63772559
0.033780511 0.085016295 0.64189386
0.026370043 0.10953589 0.60643589
0.026061054 0.10624279 0.60957438
0.026247662 0.10380253 0.61368263
0.028005861 0.089375257 0.63537687
0.028301148 0.086673975 0.63906378
0.029315488 0.085258558 0.64311314
0.021796105 0.10897595 0.60776949
0.022861563 0.10728805 0.60929775
0.022323161 0.10438934 0.61414909
0.023878552 0.089822367 0.63618523
0.024782354 0.086970747 0.64020813
0.024413956 0.085896641 0.64241445
0.048987973 0.10279541 0.60864228
0.049291391 0.10185678 0.61013842
0.045650795 0.10233361 0.60577762
0.047294941 0.098830029 0.61001283
0.045205597 0.098668307 0.61291599
0.04614665 0.088289842 0.6291914
0.048506826 0.085826159 0.6301586
0.047800977 0.083109051 0.63439941
0.040925883 0.10221045 0.60551596
0.039911743 0.098192304 0.61047119
0.042363282 0.097398356 0.61275053
0.043379799 0.087258711 0.62823284
0.041358981 0.085058019 0.62966019
0.043391727 0.08238925 0.63547391
0.036863804 0.1026393 0.60735762
0.037826866 0.099935979 0.61031651
0.039132014 0.085666537 0.63192654
0.038968205 0.083943874 0.63549089
0.044882163 0.097609416 0.60463625
0.046107501 0.095474228 0.60698175
0.047435421 0.081393301 0.62819123
0.046776954 0.080629945 0.63142592
0.041783776 0.097453982 0.6043787
0.041306239 0.094972253 0.60798258
0.042481646 0.095181882 0.61054444
0.043729573 0.084480226 0.62693352
0.042709082 0.082058936 0.62776244
0.043757394 0.079597294 0.63142502
0.03887888 0.094452098 0.60495281
0.040513042 0.079458624 0.62833238
0.040450338 0.078218684 0.62932247
0.044096977 0.093192875 0.60268462
0.045154266 0.091563255 0.60409993
0.046682794 0.077246502 0.62582237
0.041478172 0.092980802 0.60117412
0.042110737 0.090057746 0.60537314
0.043533474 0.077571243 0.62417209
0.043702237 0.074913561 0.62844265
0.037583683 0.092558935 0.60137069
0.037666 0.090818286 0.60417968
0.038858339 0.076350331 0.62523699
0.039492749 0.074712038 0.62854785
0.044548236 0.087719738 0.60173708
0.046023954 0.074033275 0.62334937
0.041419145 0.089098498 0.59802759
0.042890005 0.086174414 0.60215241
0.040891577 0.084295794 0.60386789
0.042054381 0.073815182 0.61937314
0.044525903 0.072958365 0.62208313
0.043441832 0.070369363 0.62601304
0.036221351 0.089180022 0.59807676
0.036086954 0.086730242 0.60307759
0.037996754 0.084072307 0.60400915
0.038729478 0.073842883 0.61960548
0.037238806 0.073974922 0.62276822
0.038529195 0.070111781 0.62691003
0.033341546 0.087049454 0.5981214
0.033539128 0.085401982 0.60088027
0.03488493 0.071253121 0.62223661
0.035292007 0.069593385 0.62529719
0.041441161 0.085321844 0.59490198
0.043553073 0.082542926 0.59910476
0.041415878 0.080417037 0.60195643
0.042391002 0.07085526 0.6166833
0.044839565 0.069005847 0.61956233
0.04349922 0.066019371 0.62369478
0.036126934 0.085967243 0.59395784
0.037384227 0.08012858 0.60274959
0.038270947 0.071198896 0.61648285
0.038422175 0.065096088 0.62543845
0.03161031 0.084456757 0.59549773
0.031117612 0.082247749 0.59941572
0.032585502 0.079326123 0.6017344
0.033816483 0.070008546 0.61705399
0.03245404 0.068359613 0.62070864
0.03366426 0.065537423 0.62405992
0.028589968 0.081562936 0.59615666
0.028831821 0.080910742 0.59708196
0.030658714 0.067753628 0.61675018
0.030362647 0.066040754 0.61989957
0.030717704 0.064461648 0.62217319
0.041084416 0.080978885 0.59263414
0.042454705 0.078371108 0.5964222
0.040860057 0.076569647 0.5994224
0.041980367 0.066878945 0.61430323
0.043710656 0.064864278 0.61692762
0.04295266 0.062348831 0.62076604
0.036310744 0.082190216 0.59084785
0.03719962 0.075471357 0.60013407
0.038152836 0.06692715 0.61318296
0.038776927 0.060470868 0.6227473
0.031314284 0.081595495 0.59139073
0.029291606 0.079831049 0.59830582
0.032516066 0.075462803 0.60017562
0.033415046 0.066687837 0.61361617
0.033444487 0.060905527 0.62301636
0.026893942 0.080084518 0.59331232
0.026400531 0.077596083 0.59693664
0.028359918 0.075511545 0.5990994
0.029358223 0.065466121 0.61464208
0.027730009 0.064049028 0.61737758
0.028938904 0.061272327 0.62132704
0.023115778 0.078028977 0.59329981
0.023013677 0.076895908 0.59535325
0.024677491 0.062205534 0.61783308
0.02510478 0.060368713 0.61991084
0.039729416 0.07762675 0.59153193
0.04033342 0.075546995 0.59440017
0.039706051 0.074163064 0.59714365
0.041600667 0.061751645 0.61528027
0.041750796 0.060231704 0.61828518
0.036209572 0.076997876 0.59006613
0.037075847 0.073321328 0.59337026
0.036749795 0.072791561 0.5972029
0.038071088 0.063180804 0.61208218
0.038517565 0.059669834 0.61422735
0.038463589 0.058278508 0.61869061
0.031779326 0.076871455 0.58899981
0.033690315 0.071833298 0.59297895
0.032256581 0.071976826 0.59736431
0.033364393 0.062414862 0.61149132
0.034892451 0.058181912 0.6136083
0.033959117 0.056795631 0.61922669
0.02622279 0.077021584 0.58944082
0.025709748 0.073566303 0.59668934
0.02718324 0.071467921 0.59640592
0.027993649 0.06128332 0.61210811
0.027242253 0.062486354 0.61412573
0.028657028 0.056721367 0.61998802
0.021734169 0.075675473 0.59073108
0.021057289 0.073530778 0.59461206
0.023488045 0.071047768 0.59600258
0.024607306 0.060590863 0.61227703
0.022566652 0.060266253 0.61520869
0.023915289 0.057095606 0.61877298
0.019162349 0.072549552 0.59218848
0.020749923 0.057633247 0.61580002
0.020953942 0.056938462 0.61679578
0.030284833 0.071973726 0.58824068
0.031078586 0.070153207 0.59136754
0.030677253 0.067989022 0.59398299
0.031942435 0.057584938 0.60930538
0.032527454 0.05621035 0.61244464
0.032077163 0.054070767 0.61534256
0.026108334 0.072576955 0.58684218
0.029214483 0.070556611 0.59076971
0.027009638 0.067722514 0.59452909
0.028177157 0.058021639 0.60921699
0.03077146 0.055706497 0.61298394
0.028699687 0.052729301 0.61676854
0.021676648 0.07182458 0.5882678
0.020570448 0.0691396 0.59214419
0.023434641 0.067651361 0.59430629
0.024235889 0.057574209 0.60979283
0.021882126 0.055375382 0.61219949
0.023890726 0.053268023 0.61618984
0.01915201 0.071464315 0.59154356
0.020731024 0.056517486 0.61403316
0.021116771 0.055522215 0.61631733
0.050096758 0.064000443 0.5884341
0.051115811 0.06256488 0.59114712
0.051854014 0.059743293 0.59518307
0.052186009 0.057304967 0.59931207
0.051310603 0.054555297 0.60349244
0.05104848 0.05200639 0.60510737
0.046879895 0.064517304 0.58652681
0.050146263 0.053665843 0.60465032
0.048399296 0.051445354 0.60770649
0.046497479 0.049116608 0.60988224
0.043881189 0.065231428 0.58479607
0.045575507 0.049523458 0.6090855
0.044779249 0.04844014 0.61032933
0.034915704 0.06577678 0.58497572
0.036000244 0.065451816 0.58765697
0.035936523 0.062510088 0.59131044
0.036671326 0.053517662 0.60521114
0.037571028 0.050948974 0.60890216
0.036600385 0.048891332 0.61038983
0.031510103 0.067557618 0.58513224
0.033763885 0.067174971 0.58909404
0.032268494 0.062327296 0.59309453
0.032873668 0.054935556 0.60418922
0.035217568 0.052826453 0.61030895
0.033293087 0.049472611 0.61233085
0.026354471 0.068178669 0.58435595
0.027082305 0.062809184 0.59293157
0.028248729 0.054407824 0.60493815
0.028674621 0.048531648 0.61364329
0.023303563 0.06766282 0.58605641
0.022643 0.06532006 0.588866
0.023656785 0.063047752 0.59144861
0.024504241 0.053221066 0.60662007
0.023921989 0.051501356 0.6098848
0.025226226 0.049573716 0.61307532
0.050454151 0.061363894 0.5852046
0.052064862 0.059573557 0.58886778
0.052990459 0.056653906 0.59307164
0.052701306 0.054246418 0.59716022
0.052662209 0.051087648 0.60138065
0.051734835 0.048859116 0.60347235
0.044777233 0.063526452 0.5828914
0.047377937 0.06249978 0.58486986
0.048271328 0.059207272 0.58779192
0.04947941 0.055392813 0.59268314
0.049688153 0.052926857 0.59663796
0.048022155 0.050794747 0.60147989
0.048982255 0.048591856 0.60599244
0.046702888 0.046130154 0.60815781
0.041896738 0.06422627 0.58269471
0.041636705 0.061472334 0.58529353
0.041201856 0.058222532 0.58848852
0.040827807 0.055519801 0.59028924
0.042454481 0.049398929 0.60153693
0.043176819 0.048310321 0.60568732
0.043820098 0.045810651 0.60949475
0.036353163 0.063473448 0.58192086
0.03848353 0.06310305 0.58549362
0.038034908 0.059773032 0.59059328
0.036778253 0.05662977 0.59199876
0.037471287 0.051884871 0.59920734
0.038848195 0.051810838 0.60233772
0.040028479 0.048140448 0.60759628
0.03819713 0.04534651 0.60995233
0.032198153 0.063512966 0.58125699
0.030991459 0.057744674 0.59155571
0.033509992 0.057210319 0.59215319
0.034000464 0.051854938 0.59984404
0.031616308 0.051459685 0.60073769
0.0340592 0.044298243 0.61018276
0.026537282 0.063596785 0.58259505
0.025284 0.060599428 0.58500743
0.027124137 0.058679394 0.5899201
0.028209675 0.050179474 0.60248631
0.026777314 0.046075094 0.60660571
0.028455419 0.045247354 0.61030644
0.02373671 0.061620221 0.58745301
0.024155024 0.06081536 0.58967507
0.025218951 0.049732227 0.60483515
0.025033783 0.048599355 0.60691559
0.025948357 0.047100108 0.6103512
0.050666854 0.0576276 0.58256787
0.05324531 0.055340316 0.58591068
0.05432307 0.052458003 0.59005654
0.054176316 0.050142769 0.59422463
0.053791158 0.04735532 0.59851754
0.051965054 0.044667434 0.60195923
0.046209376 0.059185285 0.57919425
0.048373133 0.058914106 0.58069825
0.046315048 0.055001371 0.58683449
0.047779668 0.051983435 0.58975822
0.048153196 0.049591191 0.59462744
0.046327993 0.047102042 0.59748232
0.04963341 0.043435007 0.60414994
0.047475893 0.041823622 0.60563654
0.041519735 0.059510831 0.57834291
0.044095393 0.058249872 0.58565348
0.04361254 0.05552223 0.58771956
0.041644543 0.052915949 0.58975881
0.041883279 0.048710372 0.59616584
0.044385344 0.047882751 0.59939307
0.044197984 0.041143358 0.60685897
0.036435187 0.060457781 0.57825512
0.037790593 0.05303517 0.59042001
0.037857272 0.04885108 0.59634131
0.038968049 0.040133778 0.60801637
0.031132758 0.060787562 0.57883269
0.031625606 0.053270973 0.58832544
0.031712245 0.051793512 0.59049624
0.032078624 0.048743807 0.59504598
0.032173209 0.046809077 0.59822124
0.033814743 0.040320486 0.60838217
0.027208611 0.059554223 0.57998115
0.026655551 0.057139203 0.58313709
0.027639579 0.054903768 0.58767354
0.028008522 0.051991839 0.59181345
0.029150696 0.049122393 0.59584612
0.028232807 0.045979038 0.60029441
0.027925551 0.043033894 0.6042065
0.029994361 0.041675646 0.60766649
0.055359993 0.048079118 0.58784205
0.055550888 0.044826739 0.59008473
0.050873917 0.053264335 0.57983309
0.053534351 0.050925892 0.58310616
0.054571383 0.048719898 0.58695138
0.054759312 0.046350904 0.59160966
0.054525819 0.042085718 0.59590793
0.052558511 0.040197209 0.59966439
0.04597459 0.05532017 0.57683772
0.048249532 0.054415423 0.57774282
0.045874543 0.051278796 0.58658534
0.046064433 0.047917366 0.58777928
0.046261452 0.045542039 0.59182149
0.050349977 0.039102517 0.60176218
0.04812853 0.037555967 0.60284698
0.042029157 0.055935111 0.57635158
0.04250006 0.048089404 0.58757049
0.043197885 0.044699211 0.59232211
0.043968406 0.036819324 0.60438192
0.036556564 0.055577181 0.5759325
0.037618715 0.047989264 0.58670378
0.038263705 0.044051178 0.59341282
0.036026996 0.041779585 0.59341902
0.038580067 0.036370393 0.60544074
0.031981204 0.055756424 0.57668352
0.02999413 0.052065618 0.5787462
0.033127233 0.049701378 0.58551848
0.032535732 0.047129665 0.5888148
0.032038376 0.04467145 0.59278524
0.033894766 0.04319014 0.59539628
0.032332577 0.036845095 0.60186398
0.034101527 0.036852859 0.60494506
0.028714962 0.05564113 0.57883835
0.028736748 0.053501874 0.58100617
0.029009307 0.050422426 0.58493108
0.029474149 0.048163332 0.58836126
0.030196682 0.045346919 0.59283173
0.029454367 0.042151276 0.59717554
0.030372772 0.039654251 0.6008693
0.03042772 0.039116908 0.60436618
0.055417057 0.044132695 0.58071667
0.055530269 0.043645095 0.58436
0.055706885 0.041575428 0.58738029
0.055779275 0.038231779 0.59013456
0.05123204 0.048725508 0.57714707
0.053387828 0.047398344 0.58022785
0.054793876 0.044207513 0.58454245
0.055139996 0.040236894 0.58935171
0.054708332 0.038702656 0.59305668
0.052576423 0.036112811 0.59689999
0.045296405 0.05094488 0.57418686
0.047818065 0.050032247 0.57506973
0.050271243 0.034370773 0.59872317
0.047788288 0.033894524 0.60012579
0.041695215 0.05106004 0.57404554
0.04210994 0.043837499 0.58633035
0.042162597 0.042005062 0.58917511
0.043722685 0.033048041 0.60101938
0.03703022 0.050722402 0.57423466
0.034555417 0.048778918 0.57455963
0.037514474 0.044116605 0.58561623
0.038085096 0.041176159 0.59002507
0.038629737 0.032640997 0.60111803
0.032999758 0.051546741 0.57550859
0.031636737 0.048904132 0.57703424
0.030458475 0.046140868 0.58144045
0.03112042 0.042949576 0.58595276
0.030762013 0.040340111 0.58979934
0.031560473 0.036621626 0.59373105
0.033073157 0.034491409 0.59799778
0.034684885 0.033721734 0.60135829
0.029406223 0.04705726 0.58181244
0.029735431 0.044325463 0.58542734
0.030330017 0.039702021 0.59026885
0.030302403 0.038663428 0.59473532
0.030870715 0.037358537 0.59761345
0.055025093 0.044177558 0.5745641
0.056093186 0.042725399 0.57754481
0.057200655 0.040230911 0.5816108
0.057178177 0.037502725 0.5859279
0.056905612 0.034615207 0.58983427
0.056398883 0.032833684 0.59262556
0.052124366 0.045648381 0.57358521
0.054386944 0.044637475 0.57670248
0.055424359 0.03882385 0.58796382
0.05529201 0.035450634 0.59203678
0.053643025 0.031738602 0.59467047
0.046243086 0.04685976 0.57118458
0.047562476 0.046870928 0.57244468
0.04942533 0.032074448 0.59698033
0.048434015 0.029401869 0.59705997
0.041785631 0.04680464 0.57147306
0.043570079 0.029586814 0.5979811
0.03838829 0.046676077 0.57205832
0.036088448 0.045276426 0.57302535
0.037537374 0.029841589 0.59594566
0.03990607 0.029807169 0.59801716
0.033187784 0.043958269 0.57542211
0.031619921 0.041923486 0.57861692
0.030802121 0.039891038 0.58285123
0.031142062 0.036858324 0.58787465
0.032479867 0.033219393 0.59142339
0.034603503 0.031677917 0.59476918
0.029868133 0.037528228 0.58283019
0.030136531 0.035544273 0.58660007
0.030585222 0.033412002 0.58900726
0.055824906 0.039285801 0.57583416
0.056506097 0.035978887 0.57902694
0.057042953 0.033346903 0.58301002
0.056594804 0.031595148 0.58727992
0.051012754 0.041484591 0.57171041
0.053396016 0.038521852 0.57399201
0.054865628 0.035348393 0.57651836
0.055423018 0.030525867 0.5837087
0.054709353 0.029558646 0.58751321
0.052625991 0.028153911 0.59106904
0.051537398 0.027787164 0.5949893
0.046433218 0.043793049 0.5695039
0.047262132 0.041078661 0.57059795
0.049141239 0.026300563 0.59133381
0.048290286 0.026640542 0.59510797
0.04173829 0.043852296 0.5700205
0.042107508 0.040445503 0.57003379
0.043466527 0.025549056 0.59191746
0.044500872 0.02649289 0.59520239
0.03888442 0.043475181 0.57011449
0.037090454 0.040737782 0.57125735
0.035622269 0.037279952 0.57420027
0.036643725 0.027689587 0.58838618
0.038692914 0.026082683 0.59220099
0.040224176 0.027087737 0.59589338
0.03351438 0.040503338 0.57313138
0.032366913 0.038107526 0.57639986
0.032425474 0.035131123 0.58018982
0.032786321 0.032175742 0.58455604
0.033164583 0.029803231 0.58854234
0.034833521 0.027591199 0.5919643
0.029813124 0.036793053 0.58110672
0.03018979 0.033950467 0.58552819
0.030700281 0.032045923 0.58850753
-0.019013774 0.030670457 0.5818556
-0.018713366 0.028809488 0.58519244
-0.022397701 0.030719586 0.5824334
-0.021972131 0.028877215 0.58552825
-0.025217813 0.029935906 0.58327603
-0.025161359 0.029056977 0.58491915
0.056166172 0.031115349 0.57731909
0.056407381 0.029997399 0.57961327
0.050075263 0.037521489 0.57086158
0.052110359 0.03446003 0.57218742
0.054434903 0.032490365 0.57509601
0.054940876 0.027825739 0.58141458
0.053347718 0.026310336 0.58446485
0.051377453 0.025197839 0.58758044
0.046957906 0.03691854 0.57004845
0.047752924 0.033878203 0.56983477
0.048960689 0.023337185 0.58581901
0.048315052 0.024526909 0.58831799
0.042353779 0.03727556 0.57042384
0.041869193 0.033707108 0.57105595
0.04294876 0.024050731 0.58580774
0.043843679 0.024738036 0.58892083
0.038864169 0.037469838 0.57143152
0.037514389 0.033899345 0.57325464
0.035866164 0.029436687 0.57652533
0.036091622 0.026814548 0.58038026
0.038522962 0.025747582 0.58540678
0.039730094 0.025721665 0.58913153
0.034588918 0.034176465 0.57563972
0.034332275 0.031644989 0.5779326
0.034723006 0.028930234 0.58151895
0.035345849 0.027850846 0.58543819
0.014665073 0.035718527 0.56586713
0.01494276 0.035016157 0.56658751
0.016786393 0.018580575 0.5912118
0.016813427 0.018166551 0.59224564
0.012277577 0.035962969 0.56601948
0.011736605 0.03424729 0.56854385
0.011421598 0.021142036 0.58757144
0.013458762 0.019796446 0.59028226
0.014246702 0.018233556 0.59267992
0.0085714459 0.035171788 0.56667238
0.0073306002 0.033734873 0.56958997
0.006875515 0.031906612 0.57218808
0.0080100931 0.021935232 0.58722162
0.0088117085 0.020253275 0.58987057
0.010606967 0.018268405 0.59213471
0.0032078363 0.032887869 0.57048547
0.0023427382 0.031019222 0.57378107
0.00073218718 0.029142428 0.57586074
0.0017449446 0.023503471 0.5836553
0.0032665618 0.022735478 0.5863505
0.0045307055 0.020570163 0.58922517
-0.0015981495 0.029824693 0.57534879
-0.0026046522 0.028781109 0.57781798
-0.0022481345 0.025107723 0.58314711
-0.00058190897 0.023139818 0.58545148
-0.0077428557 0.028927835 0.57593316
-0.0070582479 0.028164264 0.57891464
-0.0064611249 0.025331996 0.58265525
-0.0067448951 0.023122173 0.58464026
-0.01010076 0.028565831 0.57607597
-0.012274425 0.028583527 0.5790807
-0.01222929 0.025546957 0.58312899
-0.0096645579 0.023165254 0.58473063
-0.017383497 0.028492808 0.58037841
-0.017084945 0.02628026 0.58344853
-0.021687221 0.029697314 0.58165079
-0.021590542 0.027888056 0.58456856
-0.025216077 0.029324545 0.58246017
-0.025043096 0.028244967 0.58449054
0.055871561 0.026781902 0.5743795
0.056120206 0.025656333 0.57645589
0.051220451 0.029833352 0.57009679
0.053932361 0.02809947 0.57272983
0.054222912 0.023946567 0.57855999
0.052297045 0.022666831 0.58142179
0.045554034 0.030231567 0.56620753
0.047766253 0.030515756 0.56833613
0.048904929 0.020926243 0.58328819
0.046844613 0.01874827 0.58376628
0.042056132 0.030654153 0.56629258
0.041943416 0.031255677 0.56951183
0.04303842 0.021589782 0.58393776
0.043402687 0.01853447 0.58453071
0.03935758 0.030197274 0.56704527
0.037790082 0.029225569 0.57042789
0.035974 0.028676003 0.57398933
0.036466189 0.024282869 0.58080804
0.038554061 0.021443918 0.5821718
0.040707942 0.018765941 0.58412492
0.034607619 0.027237691 0.57041937
0.03415589 0.026512111 0.57453865
0.034557704 0.023990627 0.57872075
0.03527949 0.02051881 0.58058578
0.016110878 0.033869877 0.56302977
0.015430598 0.032723576 0.56617802
0.017234011 0.01731747 0.58918738
0.018323543 0.014938614 0.59155935
0.011625189 0.034710463 0.56288981
0.013223615 0.031350542 0.56819314
0.011344582 0.028947122 0.57022583
0.012648527 0.019241553 0.58492124
0.014922705 0.018488914 0.58771205
0.014020018 0.014798813 0.592794
0.0069815405 0.033050053 0.56401855
0.0053091533 0.033434104 0.56696528
0.0077456944 0.028375233 0.57230175
0.0085311085 0.020808071 0.58358365
0.0073068142 0.017488446 0.59090918
0.0090813339 0.014789691 0.59138668
0.0042302422 0.031104067 0.5645898
0.0021217056 0.03080352 0.56746835
0.0038253218 0.028361471 0.57377863
0.0019442104 0.026530381 0.57477409
0.0027419217 0.021860136 0.58176398
0.0046708062 0.022259194 0.58381182
0.0038499348 0.016883004 0.5888266
0.0062817782 0.014588523 0.58989847
-0.00042433664 0.02883894 0.5691303
-0.0026792176 0.028016355 0.57233363
-0.0021710992 0.024816204 0.57720667
-0.0017317049 0.023200642 0.57986736
-0.0018946864 0.019666208 0.5850026
0.0007478781 0.017681768 0.58674979
-0.0075163059 0.026962414 0.57360351
-0.0063061528 0.023329342 0.57823646
-0.006729845 0.023083286 0.57847112
-0.0066830628 0.020142566 0.58401912
-0.012308858 0.026417138 0.57365489
-0.012508638 0.024689445 0.57776105
-0.012455393 0.022776574 0.58021253
-0.011437792 0.019834518 0.58381009
-0.017070014 0.025839888 0.57383198
-0.017321732 0.025254088 0.57802898
-0.01702014 0.022648763 0.58058238
-0.016606763 0.019656854 0.58371818
-0.020188492 0.025022944 0.57444626
-0.022366364 0.02402531 0.57738179
-0.022154827 0.021853164 0.58136111
-0.019965682 0.01946803 0.58350646
-0.027016725 0.023652121 0.57790387
-0.026783776 0.022055978 0.58142966
-0.030998785 0.023370784 0.57809544
-0.030818518 0.021795299 0.58170986
0.056068517 0.022650549 0.57147545
0.056180548 0.02120577 0.57395709
0.050456185 0.026417367 0.56345159
0.051802367 0.025538091 0.56728935
0.053744022 0.024558395 0.56989443
0.054344542 0.020369874 0.57626176
0.05257928 0.017988207 0.57867265
0.051626414 0.015031382 0.58112448
0.047203071 0.027733257 0.56351966
0.049206696 0.028128125 0.56670958
0.050430156 0.018504716 0.58125198
0.04869483 0.015264097 0.58237857
0.041910287 0.028406089 0.56385893
0.03987227 0.028889876 0.56660867
0.041322432 0.017831568 0.58308309
0.043499991 0.015169106 0.58341891
0.037761886 0.026990313 0.5641433
0.036349609 0.02715759 0.56685519
0.037406091 0.017259106 0.58175939
0.039228395 0.01480972 0.58244735
0.033351343 0.024919083 0.56753671
0.032082062 0.022998836 0.57196188
0.03245363 0.02013744 0.5765084
0.034414455 0.016894005 0.57998765
0.030167859 0.020620678 0.57079363
0.030600138 0.018461075 0.5747481
0.019709885 0.030110702 0.55598724
0.020521754 0.029569598 0.55862224
0.021796606 0.010736023 0.58557802
0.022648176 0.0096868323 0.588485
0.022351256 0.0074511245 0.59009713
0.016568303 0.030736659 0.55620402
0.017634165 0.031094301 0.55956417
0.016437007 0.027475342 0.56364524
0.018465236 0.012905261 0.58536619
0.019873671 0.010764091 0.59007394
0.01930725 0.007577898 0.59111923
0.013432615 0.031168863 0.55742836
0.011212554 0.030116137 0.56016016
0.011893041 0.026652001 0.56458682
0.010904677 0.026348406 0.56783986
0.012071937 0.016077442 0.58317572
0.013486851 0.013113163 0.58481276
0.01354057 0.010472502 0.58991843
0.016138427 0.0083748959 0.5913834
0.0068711676 0.03023354 0.56175798
0.0077503026 0.026319053 0.56409913
0.0072642453 0.025018681 0.56895602
0.0078657791 0.016450936 0.58182311
0.0092964247 0.012342436 0.58512193
0.0090311095 0.011684694 0.58974731
0.0043414049 0.029650152 0.56341523
0.0025981739 0.027337184 0.56556052
0.0024442449 0.024397358 0.56909174
0.0010691695 0.023920609 0.57289773
0.00239354 0.018933173 0.58033919
0.0034771264 0.015978383 0.5818274
0.0041438527 0.013735618 0.58609778
0.0063312873 0.013071856 0.58910334
-0.0021316521 0.024466248 0.57098848
-0.0029042102 0.022028137 0.57339025
-0.0024122149 0.018689036 0.57868314
-0.0018588006 0.017281493 0.58169681
0.0007221587 0.015947523 0.58508587
-0.0073547214 0.022803549 0.57089603
-0.0060778409 0.020205131 0.57546037
-0.0060633048 0.019481398 0.57661289
-0.0065768473 0.015682973 0.58123332
-0.012378674 0.022615688 0.57119411
-0.01254696 0.019762727 0.57561618
-0.012203332 0.018867852 0.57697916
-0.011499584 0.015585979 0.58163035
-0.016025841 0.022260962 0.57186514
-0.017591272 0.021247679 0.57366794
-0.016907211 0.018494327 0.57666594
-0.01623873 0.015920727 0.58151639
-0.020835381 0.020246545 0.57482493
-0.020768296 0.017274898 0.57895541
-0.019625705 0.014669374 0.58008105
0.055987839 0.018932706 0.56822157
0.056396734 0.016753986 0.57149261
0.050599732 0.023408962 0.56167388
0.05268795 0.021955933 0.56371009
0.054664109 0.020967316 0.56666285
0.055346608 0.015805323 0.57416487
0.05359453 0.013403156 0.57650924
0.051721923 0.012028985 0.57893211
0.047569592 0.024054853 0.56062376
0.051032446 0.013882566 0.57955897
0.04902941 0.011233905 0.58014858
0.042227279 0.024967223 0.55954659
0.044272032 0.0099316994 0.5816735
0.037314106 0.023938153 0.55709809
0.036545113 0.024687989 0.56029773
0.038342401 0.010193715 0.58204567
0.038548507 0.0071151955 0.58244359
0.032781396 0.022459673 0.56126231
0.031456769 0.022611259 0.56497449
0.032727569 0.013456099 0.57902676
0.0342962 0.010220347 0.58001554
0.024696542 0.02658293 0.55330586
0.025255857 0.026016973 0.55582994
0.02970911 0.020648453 0.56160957
0.027943289 0.020374395 0.56465876
0.027719982 0.017814122 0.56966996
0.028041707 0.015500908 0.57349539
0.028891323 0.012059577 0.57730615
0.028802067 0.0082746986 0.58047807
0.027378008 0.005958166 0.58545059
0.026934007 0.0038030064 0.58705282
0.021142842 0.028637065 0.5535472
0.02267985 0.027523335 0.5575105
0.021615963 0.023372278 0.55995739
0.025142992 0.017761907 0.56560892
0.025675561 0.011354543 0.57500565
0.023282351 0.0086756628 0.58232313
0.025190974 0.0075440807 0.58712262
0.023840126 0.0047247093 0.58946556
0.017191093 0.028772242 0.55400473
0.015048258 0.025632385 0.55580413
0.017371731 0.023143064 0.56219494
0.019070448 0.01005428 0.58164656
0.017572787 0.0049309544 0.58683932
0.019976754 0.0049316939 0.59011096
0.013861321 0.029112503 0.55608171
0.012710895 0.025792029 0.55852574
0.013064437 0.02360387 0.56153578
0.014672833 0.0091390572 0.58305466
0.014636593 0.0077050012 0.58644092
0.016440131 0.0066690966 0.59016228
-0.0081097335 0.018867284 0.56873393
-0.0065528303 0.016522042 0.57100183
-0.0065385327 0.013999721 0.57480162
-0.007430207 0.01236804 0.57862723
-0.010283064 0.018145151 0.56906396
-0.012984585 0.016814601 0.57087696
-0.013260636 0.014000279 0.57471025
-0.011418656 0.012139717 0.57820779
-0.016831975 0.0194338 0.57047981
-0.016803201 0.01607604 0.57123846
-0.016303647 0.01372234 0.57565081
-0.016453639 0.012743151 0.57909513
-0.022078555 0.016070494 0.57187736
-0.022193249 0.013698808 0.57633764
-0.021122951 0.012776274 0.5790956
-0.026813108 0.015001332 0.57196093
-0.026838887 0.012979743 0.57617038
-0.031317856 0.01432302 0.57189113
-0.031235475 0.012105864 0.57584506
0.056410711 0.015117657 0.56572294
0.056860082 0.012770584 0.56928277
0.050090514 0.019826556 0.55958349
0.052339584 0.017896472 0.56100464
0.054501362 0.015897905 0.56385005
0.055139624 0.011038766 0.5706374
0.053284314 0.0093359863 0.57371753
0.051222082 0.0076546255 0.57562917
0.045285519 0.021078458 0.55391037
0.047395606 0.019985132 0.55756867
0.051160384 0.0061940276 0.57443523
0.048920806 0.0067963293 0.57755643
0.047256533 0.0035475651 0.58013988
0.041870467 0.022038525 0.55334836
0.043106113 0.022559114 0.55687195
0.044689901 0.0067980168 0.58066559
0.044165902 0.0032628234 0.58157796
0.037014045 0.022213943 0.55439019
0.039297894 0.0039789369 0.5819056
0.029557468 0.022694197 0.54972607
0.031382255 0.020510063 0.5538615
0.031768877 0.019621007 0.5577513
0.033389207 0.0054520718 0.57893282
0.033715375 0.0022538248 0.58129758
0.032450173 -0.00059020706 0.58463895
0.026209416 0.024437569 0.54995835
0.027706444 0.023058649 0.55481988
0.027417252 0.018915687 0.55812049
0.027087983 0.019026216 0.56165522
0.025875997 0.013373862 0.56857228
0.026058113 0.012383002 0.56918311
0.028260367 0.008332666 0.57732475
0.028951025 0.0054521118 0.57868594
0.029988168 0.0035119355 0.58376878
0.029099841 7.5569376e-05 0.58661222
0.021733509 0.02461011 0.55065382
0.022422478 0.019210663 0.55806291
0.024068993 0.016203314 0.56234825
0.024783902 0.013412695 0.56624246
0.025026597 0.010511994 0.57087409
0.024973169 0.0080323005 0.57541615
0.024034118 0.0053373277 0.57914937
0.024597347 0.00065815728 0.58710456
0.01840812 0.023549236 0.55185407
0.016944522 0.021683902 0.55452758
0.017114259 0.019469731 0.55834204
0.018870771 0.0048993407 0.57985449
0.019177454 0.0025587305 0.58378154
0.021274291 0.0009054672 0.58617991
0.01421044 0.022574715 0.5574767
0.014287874 0.02116682 0.55879545
0.01102091 0.011087321 0.56706518
0.011058912 0.0098059252 0.56916219
0.016143801 0.0057815779 0.58156693
0.016211489 0.0052061742 0.58360034
0.0068114698 0.01264184 0.56666082
0.007066939 0.0099666417 0.57057703
0.0044007376 0.012040946 0.56725818
0.004860606 0.0097993556 0.57034522
-0.0091581158 0.015790513 0.5672881
-0.0086014792 0.013123281 0.56821847
-0.0083262473 0.01037926 0.57306916
-0.0086384304 0.0097753368 0.57571435
-0.010223925 0.015243081 0.56718642
-0.012194052 0.011986405 0.56862992
-0.012017332 0.0093968064 0.57235944
-0.010713678 0.0095082335 0.5758397
-0.015050944 0.009799785 0.56891173
-0.014812078 0.0083783157 0.57208443
-0.027858358 0.013170966 0.57043135
-0.029131394 0.010598445 0.57523358
-0.031418774 0.012384098 0.57055682
-0.031423185 0.010588659 0.57477742
0.056245033 0.011554075 0.56457323
0.056443781 0.010144359 0.56657618
0.051559664 0.014020942 0.55925912
0.053201355 0.010985706 0.56229579
0.053807795 0.0077887103 0.56671214
0.052343294 0.0061157509 0.5710572
0.045236729 0.019141233 0.55320513
0.046922512 0.0162671 0.55450922
0.04912556 0.013383436 0.55712813
0.050076317 0.003808659 0.57177091
0.048467685 0.0024790345 0.57538146
0.047466353 0.002445112 0.57872826
0.041480049 0.018356517 0.55158299
0.043137483 0.015851755 0.55234134
0.044957828 0.00010597939 0.57632363
0.043560646 0.00026041316 0.57906252
0.035131235 0.017978787 0.54742563
0.037427515 0.018822193 0.54945689
0.039735097 -0.0017856839 0.58074254
0.037512422 -0.0039986097 0.58109701
0.030801026 0.020123281 0.5472675
0.032596566 0.019631669 0.55102676
0.030182503 0.017282454 0.556647
0.031655949 0.0036635133 0.57715207
0.035022561 -0.00026509957 0.58130175
0.033872019 -0.0037066056 0.5833286
0.026481789 0.021350995 0.54638076
0.027622284 0.016174674 0.55664533
0.025641941 0.0073027876 0.56586146
0.028995769 0.0029364261 0.57644194
0.029604921 -0.0043868641 0.58544612
0.021701427 0.02065954 0.54723603
0.022097556 0.015076284 0.55694371
0.023201548 0.012159055 0.55956042
0.024037711 0.0094670877 0.56410998
0.024183601 0.006864992 0.56805205
0.023895411 0.0036986908 0.57220191
0.023816995 0.0025281338 0.57591724
0.024407489 -0.0042069526 0.58503973
0.018512342 0.019815689 0.54909635
0.017802315 0.017842773 0.55155385
0.018648015 0.0160187 0.55503231
0.015933771 0.0073645264 0.56383044
0.016224913 0.0057404996 0.56659126
0.02038274 0.00087738642 0.57808942
0.02013799 -0.0017299475 0.58106685
0.021250822 -0.0032059327 0.58371067
0.011326261 0.010279542 0.56160259
0.013508834 0.0091267135 0.56419933
0.013424378 0.0063333735 0.5685814
0.011719085 0.0033847978 0.56998843
0.0077652931 0.011060026 0.56158197
0.0074857175 0.011716463 0.56403244
0.008358907 0.0066229673 0.57085347
0.0084256269 0.0033204062 0.57131565
0.0022217445 0.010847935 0.56038475
0.0021928139 0.009640432 0.56499875
0.002679415 0.0065513728 0.56959146
0.0033510998 0.0029554502 0.57256472
6.2350184e-05 0.0088279601 0.56105858
-0.00048687682 0.0073106461 0.56523407
4.1775405e-05 0.0049527586 0.5683763
0.00082472712 0.0029628663 0.57121581
-0.012994099 0.0085010873 0.56691796
-0.012727369 0.0062347883 0.57019234
-0.016802646 0.0072628371 0.5665319
-0.016738251 0.0054748789 0.56981748
-0.019937184 0.0058551468 0.56662363
-0.019983541 0.0041460539 0.56954461
0.051190466 0.0068877935 0.5613873
0.051726215 0.005006854 0.5638271
0.046007194 0.01189634 0.55313104
0.047325186 0.0093266973 0.55568218
0.049221706 0.0062195435 0.55917341
0.049754698 0.0023568333 0.5643934
0.048331555 0.00086809602 0.56845665
0.047391005 -0.00055151293 0.57191116
0.040160172 0.014565014 0.55026877
0.042441152 0.011928646 0.55145127
0.044503231 0.0081185643 0.55350929
0.045546971 -0.0018121116 0.56854016
0.04401901 -0.0023946869 0.57292789
0.0421611 -0.0024832767 0.57614434
0.034964845 0.016769681 0.5464015
0.037327774 0.014551362 0.54787052
0.039531101 0.011295524 0.54962993
0.041155029 -0.004516148 0.57384229
0.039645981 -0.0049592657 0.57735276
0.037484273 -0.005879418 0.58027983
0.03174847 0.016820006 0.54588258
0.031626023 0.013353724 0.54679167
0.033912729 -0.0069644991 0.57732683
0.034611363 -0.0064064069 0.58097565
0.026454287 0.016308291 0.54493648
0.028478926 0.012357855 0.54703814
0.025430258 0.0092466921 0.55195653
0.026732629 0.0072889142 0.557019
0.025810871 0.0062028272 0.55880654
0.026052743 0.00082698371 0.56699103
0.02729127 -0.00043996284 0.56837821
0.026934261 -0.0045524687 0.5725292
0.030556465 -0.0074824886 0.5769816
0.029204613 -0.0078941397 0.58131474
0.022060419 0.016015597 0.5457567
0.021091102 0.012483949 0.54798657
0.022170307 0.01049003 0.55270201
0.02401307 0.0096406909 0.55772346
0.022871645 0.0063078199 0.56103402
0.022844288 0.0026913134 0.56634033
0.025040146 0.0010203505 0.57021594
0.023685686 -0.0034029484 0.57355583
0.023389399 -0.0068870243 0.57734311
0.02494368 -0.0076343287 0.5812391
0.019094151 0.017137961 0.54801953
0.019045647 0.014553565 0.54969406
0.019223545 0.012983251 0.55248642
0.016162181 0.005399636 0.55809051
0.017958149 0.0052395365 0.5614543
0.018428747 0.002421401 0.56563276
0.016809817 -0.00047986791 0.56714529
0.02112334 -0.0025343453 0.5760985
0.021350492 -0.0047270539 0.57878679
0.012561735 0.0069776773 0.55822468
0.014661679 0.0068842242 0.56081295
0.014946302 0.002468592 0.56743342
0.013233662 -0.00014652545 0.56869984
0.0075825937 0.0080826757 0.55712688
0.0084893852 -0.00059441873 0.570342
0.0029604062 0.0097659361 0.5566467
0.0028356649 0.0087087359 0.55696559
0.0035504103 -0.00056112744 0.57113552
-0.00079286098 0.0065838364 0.55901825
-0.002752319 0.0044289608 0.56249619
-0.0021106414 0.001506594 0.56666613
0.00021824986 0.00020762696 0.5695284
-0.01776522 0.0043670535 0.56520981
-0.017916407 0.0027985107 0.56768519
-0.019942883 0.0038120784 0.56493592
-0.020051349 0.0020934248 0.56798697
0.045386247 0.0058844062 0.55619651
0.047842581 0.0034483373 0.55931515
0.048310973 0.0015526314 0.56204873
0.046571583 -2.5441172e-05 0.56515551
0.041236952 0.0086410716 0.55108601
0.042407487 0.005871709 0.55386055
0.043082401 0.0017938641 0.55775535
0.043296691 -0.0009941794 0.56150484
0.043360017 -0.002535345 0.5667178
0.042457927 -0.0041555781 0.5700832
0.035801917 0.010457722 0.54720575
0.03726206 0.0079458524 0.54958403
0.037582889 0.0040332442 0.55305982
0.038185157 0.00048999209 0.55691075
0.038455233 -0.0023130821 0.56083792
0.038522378 -0.0042856717 0.5658353
0.038804445 -0.0059522949 0.57053626
0.037790351 -0.0074265422 0.57417291
0.032776587 0.010276278 0.54726493
0.032547675 0.0067379056 0.54953343
0.032978248 0.0034362269 0.5518046
0.034579605 -0.0015260368 0.55839545
0.035706371 -0.002041738 0.55923384
0.034215048 -0.0059217419 0.56583673
0.034124486 -0.0069711125 0.57032204
0.034747235 -0.0077058356 0.57446605
0.0249169 0.013118071 0.54490441
0.026725318 0.011260111 0.5472582
0.027390521 0.0078446772 0.55033159
0.0270861 0.0040512928 0.55430424
0.026431408 0.00067305146 0.55516475
0.026804494 -0.0043178615 0.56271839
0.028081138 -0.0043636141 0.56654936
0.028848788 -0.0061568441 0.57128328
0.02901805 -0.0074750343 0.5753991
0.027379701 -0.0091088247 0.57851303
0.023584481 0.013201408 0.54503763
0.023120213 0.011686876 0.54661161
0.024411574 0.0030568473 0.5562225
0.022596089 0.0016222236 0.55663246
0.023288039 -0.0032244204 0.56317765
0.025009198 -0.0029746993 0.56514364
0.025579145 -0.0083433241 0.577115
0.01745203 0.0023579977 0.55594605
0.019259749 0.0026133591 0.5570392
0.019285457 -0.0019199345 0.56528729
0.018308207 -0.0039391327 0.56517398
0.011809155 0.0039064949 0.55417919
0.01290556 -0.0047470895 0.56779027
0.008415401 0.0034858645 0.55374718
0.0094614625 -0.0055253245 0.56796288
0.0029021725 0.0033422466 0.55493778
0.0037080459 -0.004845724 0.56759042
-0.0017525777 0.0026668971 0.55617273
-0.0040303655 0.00067398325 0.55910116
-0.0033715703 -0.003117017 0.5648154
-0.00085541233 -0.0047717276 0.56699574
-0.0044678487 -0.00097868452 0.56048536
-0.0042949691 -0.002160152 0.56273657
0.035954539 -0.00034682988 0.55631316
0.036219478 -0.0032311846 0.56072432
0.032676421 0.0014726934 0.55341268
0.033035155 -0.00047809677 0.55610263
0.033370133 -0.0036469093 0.56089926
0.033166476 -0.0054209344 0.56385094
0.029716367 0.0012238296 0.55373502
0.028169001 -0.0010799584 0.55701709
0.028490854 -0.0033673868 0.56048262
0.03042173 -0.0053627901 0.56368941
0.02292731 -0.0016031186 0.55691624
0.022917002 -0.0040569259 0.56040967
0.017042905 -0.00091887568 0.55372065
0.019175233 -0.0030212677 0.55524719
0.019726451 -0.0061740484 0.56047028
0.017656488 -0.0071730092 0.56318033
0.010230981 -0.00041247951 0.54921234
0.011765424 8.3649997e-05 0.55157518
0.013004318 -0.0087847365 0.56534719
0.011607412 -0.010512007 0.56676
0.0097415932 0.0002027587 0.54970109
0.0082423314 2.9072631e-05 0.55167764
0.009245865 -0.0091339163 0.56581599
0.010967549 -0.010455614 0.56693792
0.0027779303 -0.0011631963 0.55284208
0.0037633479 -0.008748333 0.56472611
-0.0015764572 -0.0016234331 0.55375141
-0.0036499389 -0.0038965242 0.55687761
-0.0032045357 -0.0069263428 0.56135732
-0.00061515346 -0.0086991992 0.56411833
-0.0043734126 -0.0024578893 0.55901855
-0.0042265169 -0.0038969801 0.56100613
0.016702196 -0.0065777088 0.55441153
0.016940244 -0.0087500075 0.55785275
0.012032934 -0.0049929339 0.55087423
0.01355534 -0.008218403 0.55264807
0.014018375 -0.011240919 0.55748624
0.012913026 -0.011669555 0.56110227
0.0078779086 -0.0051680598 0.55003512
0.011036225 -0.013408948 0.55799061
0.0086804144 -0.012933994 0.56188428
0.003133513 -0.0055962522 0.55098081
0.001205802 -0.0083153388 0.55145109
0.0014640577 -0.013196446 0.55908829
0.0037973151 -0.012583056 0.56152344
-0.00051585212 -0.0051850714 0.55241227
-0.001541391 -0.0079601705 0.55411881
-0.0013059489 -0.010701593 0.55828422
0.00043193251 -0.011400057 0.56150496
0.011422496 -0.010884828 0.55296457
0.011910211 -0.012038996 0.55503672
0.0080422126 -0.0083901566 0.54985154
0.0070243515 -0.012690406 0.55146372
0.0072061643 -0.01473736 0.55421185
0.0077565536 -0.014695872 0.55857551
0.0050109252 -0.0086860526 0.54988223
0.0033048727 -0.013072491 0.55160993
0.0031527318 -0.015118018 0.55457962
0.0049630292 -0.014674682 0.55873787
0.00023313612 -0.011111926 0.55362213
0.00058602914 -0.012744829 0.55575758
0.022514747 -0.020652367 0.5512768
0.022856375 -0.021661999 0.55241001
0.020622335 -0.020570874 0.55097497
0.0060167313 -0.016337452 0.55060488
0.0061081275 -0.017239228 0.55139142
0.0035989992 -0.016604401 0.54988647
0.0035900772 -0.017990137 0.55210263
0.00060462952 -0.016634846 0.55110854
0.00074689463 -0.017173313 0.55184144
0.027018288 -0.022359233 0.55047089
0.02717872 -0.023141153 0.55142254
0.023352697 -0.022211235 0.54947019
0.023841416 -0.023161974 0.55196363
0.017494921 -0.021461399 0.54615891
0.018598411 -0.022301096 0.5493173
0.02040438 -0.023554059 0.55164611
0.01407554 -0.022215864 0.5451479
0.014985343 -0.023453742 0.54795706
0.0076164305 -0.021403167 0.54581684
0.0070976913 -0.022489827 0.54776853
0.0035679415 -0.020772876 0.54647774
0.0038439259 -0.022061454 0.54881614
0.0168621 -0.023951355 0.54436576
0.017833455 -0.025249194 0.54654437
0.013143841 -0.024412381 0.54314876
0.013613477 -0.02602043 0.54598528
0.0081726722 -0.024882756 0.54299444
0.0085868873 -0.025216872 0.54580438
0.0047868267 -0.024312342 0.54447138
0.0052791759 -0.024651097 0.54613054
