# .PCD v0.7 - Point Cloud Data file format
VERSION 0.7
FIELDS x y z
SIZE 4 4 4
TYPE F F F
COUNT 1 1 1
WIDTH 1190
HEIGHT 1
VIEWPOINT 0 0 0 1 0 0 0
POINTS 1190
DATA ascii
0.37855121 -0.16707741 0.76240075
0.37537742 -0.1816853 0.7922892
0.38344908 -0.16099502 0.7557463
0.38379222 -0.16117832 0.75690061
0.3802774 -0.16614167 0.7626242
0.3770676 -0.18119943 0.79376322
0.37851113 -0.18305741 0.8010267
0.37851918 -0.18367741 0.80208403
0.38728526 -0.16098136 0.76119763
0.38721424 -0.16206324 0.76428276
0.38677695 -0.16474999 0.76886845
0.38424969 -0.17608808 0.79234803
0.38373813 -0.17859589 0.7981382
0.38218194 -0.18044597 0.80005318
0.37946033 -0.18305218 0.80207902
0.38864782 -0.16032828 0.76186442
0.38804495 -0.16191649 0.76530421
0.38827699 -0.16367291 0.76909763
0.38566127 -0.17546442 0.79305804
0.38486984 -0.17725208 0.79713935
0.38463551 -0.17890501 0.80005318
0.3593632 -0.17254855 0.75882024
0.35910374 -0.17430788 0.76146686
0.35671839 -0.18527645 0.78445971
0.35645634 -0.18620023 0.78697199
0.3630299 -0.17206427 0.7580111
0.36200809 -0.17460316 0.76196051
0.36221176 -0.17430893 0.76554942
0.36020407 -0.18221554 0.78239769
0.35944039 -0.18506083 0.7840755
0.35955244 -0.18690017 0.78853333
0.3681798 -0.16674431 0.75770485
0.36735582 -0.1695887 0.75826037
0.36726969 -0.17228907 0.76388967
0.36519945 -0.17252478 0.7663995
0.36238211 -0.18089943 0.78335381
0.36441475 -0.18298569 0.7855866
0.36374599 -0.18560743 0.79109603
0.36450893 -0.18388546 0.79398531
0.37090296 -0.1658438 0.75784427
0.3721638 -0.16864309 0.76021653
0.37039334 -0.16957122 0.76596898
0.36785445 -0.18010019 0.78724742
0.3683058 -0.1840895 0.79159552
0.36736244 -0.18366478 0.79497451
0.37634152 -0.16345111 0.75824445
0.37662533 -0.16718264 0.76106989
0.37506357 -0.16792414 0.76804113
0.3728314 -0.17778316 0.78828716
0.37303188 -0.18273365 0.79281616
0.37184131 -0.18235692 0.79715562
0.38167644 -0.15926225 0.7561208
0.38140404 -0.16080254 0.75893641
0.38190684 -0.16431251 0.76319456
0.37912703 -0.16635543 0.76916742
0.37693247 -0.17629468 0.78943533
0.37803954 -0.18072379 0.79530102
0.37653643 -0.18090656 0.80003464
0.37678137 -0.18209381 0.80285692
0.38377583 -0.15916497 0.75664914
0.38463369 -0.1588615 0.76053637
0.38400885 -0.16119337 0.76540732
0.38380545 -0.16323875 0.7703768
0.38155395 -0.17368926 0.79191196
0.38080075 -0.17631091 0.79622459
0.37990645 -0.17887592 0.80102015
0.37883353 -0.18167304 0.80302536
0.3883172 -0.15813726 0.76222527
0.3874906 -0.16036266 0.76661259
0.38777432 -0.16152181 0.77041769
0.38524261 -0.17292398 0.79397511
0.38422135 -0.17513603 0.79719627
0.38426778 -0.17711543 0.80133873
0.35771239 -0.17021631 0.75960732
0.35715356 -0.17180356 0.76242
0.35489011 -0.1828635 0.78545547
0.35500699 -0.18445837 0.78777063
0.36007866 -0.16818425 0.75893545
0.35744646 -0.17181455 0.76508623
0.35996386 -0.17214771 0.76673955
0.35838088 -0.18006179 0.78305686
0.3554821 -0.18078832 0.78400695
0.35636723 -0.18338969 0.79020411
0.367607 -0.16545282 0.75836676
0.36463156 -0.16536261 0.75911981
0.36526144 -0.16794838 0.76793253
0.36360136 -0.16988018 0.76781857
0.36124718 -0.17818919 0.78447115
0.36312285 -0.1774551 0.78586394
0.36093405 -0.1818718 0.79329556
0.36408043 -0.18303865 0.79423738
0.36950919 -0.16249917 0.75949949
0.36855596 -0.16233127 0.76105064
0.36876446 -0.16682909 0.76793522
0.36653605 -0.17654842 0.78787655
0.36468601 -0.17974912 0.79524642
0.36594811 -0.18044445 0.7960965
0.37406826 -0.16047388 0.75975966
0.37263823 -0.16082536 0.76399493
0.37264389 -0.16417176 0.76810002
0.36992353 -0.1751681 0.79033214
0.36918718 -0.17610039 0.79538107
0.36957553 -0.17929643 0.79813117
0.37826267 -0.15888968 0.76042849
0.37779576 -0.15976733 0.76487839
0.37754571 -0.16199255 0.76910371
0.3748565 -0.1734395 0.79241925
0.37428728 -0.17527625 0.79657614
0.37379181 -0.17827883 0.79976499
0.38222989 -0.157566 0.7627784
0.38092959 -0.1585201 0.76470679
0.38127169 -0.16078919 0.76989925
0.37877658 -0.17234744 0.79357177
0.37770516 -0.17466196 0.79788774
0.37807861 -0.17574155 0.80009055
0.35647181 -0.1681795 0.76128364
0.35615748 -0.16907746 0.76280236
0.3583743 -0.1642146 0.7608183
0.35642573 -0.16675675 0.76557815
0.35885966 -0.16797155 0.76790631
0.35736915 -0.17657533 0.78514695
0.35446811 -0.17736077 0.78702915
0.35488257 -0.1791568 0.79176921
0.36226949 -0.16177131 0.76194358
0.36252537 -0.16342029 0.76818407
0.36064851 -0.16598226 0.76950675
0.3590042 -0.17410839 0.78608418
0.36006618 -0.17333531 0.78912371
0.35857061 -0.17763983 0.794052
0.36638618 -0.161503 0.76369202
0.36506462 -0.16308343 0.76726228
0.36281231 -0.17432305 0.79051977
0.36305457 -0.17627221 0.79396087
0.35655844 -0.1609461 0.76401687
0.35512161 -0.16241606 0.76672554
0.35283604 -0.17343649 0.78959918
0.35385889 -0.17531264 0.79222846
0.35905659 -0.15924515 0.764763
0.35922503 -0.16075394 0.76889461
0.35896811 -0.1633749 0.76992083
0.35709602 -0.17207018 0.78740144
0.35705459 -0.17120144 0.79001582
0.35594955 -0.1734708 0.79378438
0.36028525 -0.15705717 0.76815158
0.35786486 -0.16951074 0.79291302
0.35759515 -0.16971745 0.79446423
0.35469449 -0.15717354 0.76651186
0.35339957 -0.15806127 0.76833165
0.3509638 -0.16947117 0.7916351
0.35644278 -0.15469861 0.76645684
0.35561344 -0.15699351 0.770998
0.35337591 -0.16687262 0.79121512
0.35308155 -0.16912216 0.79570764
0.35960937 -0.15286696 0.76787162
0.35944358 -0.15433651 0.77082795
0.3570562 -0.16501006 0.79394788
0.35659474 -0.16716839 0.79697722
0.35154423 -0.15429866 0.77009898
0.34941667 -0.16586921 0.79286265
0.35390681 -0.15056482 0.76766396
0.35234541 -0.15318984 0.7719534
0.35360968 -0.15278876 0.77490407
0.35168928 -0.16085407 0.79172289
0.349875 -0.16373232 0.79333866
0.3505919 -0.16516711 0.79789382
0.35837701 -0.14823149 0.76892847
0.35862058 -0.15099627 0.77375805
0.35600382 -0.1514622 0.77588296
0.35458812 -0.1595068 0.79266697
0.35671407 -0.16132617 0.79476768
0.35487673 -0.16347778 0.79984099
0.3598533 -0.14601848 0.77132803
0.35961989 -0.14754248 0.77415419
0.35732478 -0.158656 0.79716116
0.3569836 -0.1605057 0.8001191
0.351356 -0.14653014 0.76878095
0.34933612 -0.14957467 0.77284259
0.35089067 -0.14988446 0.77667749
0.34935799 -0.15765354 0.7923795
0.34714741 -0.16022624 0.79486924
0.34794971 -0.16152886 0.7999143
0.35593522 -0.14361456 0.76906198
0.35438588 -0.14850922 0.77836829
0.35296983 -0.15573807 0.79302663
0.35228038 -0.16013436 0.80290931
0.35946673 -0.14206946 0.77225477
0.35985321 -0.14393187 0.77636027
0.35784015 -0.14515579 0.77960318
0.35635209 -0.15360785 0.79539472
0.35767049 -0.15510373 0.79913044
0.35618275 -0.15705185 0.80295825
0.36086488 -0.13994019 0.77563739
0.36059123 -0.14048988 0.77661878
0.35791945 -0.15094247 0.79775852
0.35817409 -0.15251276 0.80098492
0.35771602 -0.15376271 0.80343783
0.34908196 -0.14274231 0.77092868
0.34766728 -0.14519532 0.7748028
0.34894767 -0.14601065 0.77833623
0.34727082 -0.15391102 0.79419106
0.34553054 -0.15588278 0.79684132
0.34598106 -0.15742914 0.80120498
0.35325059 -0.13966674 0.77014786
0.35173267 -0.14439654 0.78051567
0.35026559 -0.15129086 0.79446208
0.34916422 -0.15622646 0.80485326
0.35736173 -0.13751929 0.77217269
0.36001015 -0.14118853 0.77805024
0.35572207 -0.14225672 0.78171712
0.35429323 -0.14933063 0.79608291
0.35396743 -0.15415287 0.80600458
0.36090735 -0.13631457 0.7755627
0.36109135 -0.13782896 0.7797153
0.35900763 -0.1395188 0.78209537
0.35743752 -0.14772375 0.79863912
0.35885727 -0.14848325 0.80172938
0.35754248 -0.15091419 0.80586839
0.36316782 -0.13367349 0.77809548
0.363249 -0.13473246 0.78018904
0.36071655 -0.14663205 0.80418706
0.36002868 -0.14765297 0.80670857
0.34840828 -0.1398215 0.77323145
0.3476572 -0.141433 0.77635491
0.34824315 -0.14267626 0.77917385
0.34547207 -0.15229245 0.7988314
0.34539995 -0.15404007 0.80171287
0.3507416 -0.13678524 0.77375114
0.3491399 -0.13817088 0.77830076
0.35013869 -0.14076495 0.78101176
0.34832743 -0.14879148 0.79675341
0.34686705 -0.14915502 0.80060869
0.34739554 -0.15199436 0.80428541
0.35418183 -0.13385287 0.7743395
0.35123307 -0.13566136 0.78007561
0.35362411 -0.13846022 0.78286076
0.35182729 -0.14582545 0.79818255
0.34910658 -0.146358 0.80231154
0.35067639 -0.14968821 0.80687273
0.35908759 -0.13168684 0.77586728
0.3597554 -0.1355879 0.78287292
0.35746181 -0.13514972 0.78396934
0.35602742 -0.14333165 0.80076045
0.35773063 -0.1450648 0.80118215
0.35534289 -0.1477921 0.80869645
0.36260825 -0.13003162 0.778781
0.36317173 -0.13180766 0.78286117
0.36030844 -0.13294579 0.78498572
0.35862991 -0.14159766 0.80224222
0.3609544 -0.14278717 0.80470109
0.35924175 -0.14481506 0.80888802
0.36371905 -0.12862962 0.7826938
0.3614324 -0.14127469 0.80754125
0.36118907 -0.14184318 0.80860591
0.35299945 -0.13047028 0.77807552
0.35227194 -0.13248146 0.78109998
0.35227308 -0.13339522 0.78439397
0.35025486 -0.14139894 0.80102193
0.3499139 -0.14351445 0.80375957
0.35003924 -0.1446352 0.80721021
0.35647714 -0.12771091 0.77784181
0.35389274 -0.1313279 0.7809068
0.35540655 -0.13200635 0.78583372
0.35363621 -0.13977456 0.80157304
0.35131043 -0.14290351 0.80490178
0.35265136 -0.1436017 0.80992115
0.36025774 -0.12644193 0.78035879
0.36093563 -0.12778375 0.78496307
0.35835767 -0.13014786 0.78665364
0.35692635 -0.1382044 0.80323881
0.3585192 -0.13803747 0.80692691
0.35684377 -0.14115766 0.81037015
0.36306408 -0.12765895 0.78316551
0.36048779 -0.1394168 0.80738944
0.36027589 -0.14093968 0.80938756
0.33251801 -0.13637078 0.77942395
0.33167237 -0.13833052 0.7818538
0.33075893 -0.14059138 0.78619534
0.33039138 -0.14290082 0.79039484
0.33091977 -0.14455749 0.79516757
0.3303726 -0.14459465 0.79814631
0.33501151 -0.13362406 0.778723
0.33179101 -0.14453469 0.79681921
0.33302158 -0.14514311 0.80074835
0.33411184 -0.14495054 0.80429065
0.33745509 -0.13119996 0.77791655
0.33488294 -0.14408042 0.8037442
0.33537331 -0.14421147 0.80550408
0.3453764 -0.12742254 0.77983838
0.34497997 -0.12986465 0.78137141
0.34459656 -0.13140604 0.78578532
0.34332293 -0.13866745 0.80062723
0.34230202 -0.14084414 0.80453253
0.34255219 -0.14066541 0.80723339
0.34913442 -0.12673151 0.77939796
0.34803981 -0.13068329 0.78142464
0.34808117 -0.13101299 0.78787673
0.34694964 -0.13672523 0.7998845
0.34552509 -0.14165133 0.80447769
0.34612244 -0.14088902 0.80873233
0.35360986 -0.1240091 0.77975541
0.35267293 -0.12869233 0.78870475
0.35082775 -0.13493836 0.80188376
0.34994623 -0.13936479 0.81137687
0.35639474 -0.12369397 0.78190261
0.35658279 -0.12456167 0.78551245
0.3553223 -0.12605873 0.78851759
0.35388795 -0.13399982 0.80471444
0.35441187 -0.13552411 0.80808443
0.3532168 -0.137775 0.81110126
0.33018234 -0.13290009 0.77951199
0.32890922 -0.13571839 0.78261924
0.32783347 -0.13815415 0.78708726
0.32799819 -0.14015791 0.79139471
0.32763654 -0.14205723 0.7962991
0.32792327 -0.14229369 0.79947144
0.33542556 -0.12940595 0.77791363
0.33323854 -0.13170376 0.77920556
0.33169484 -0.13297048 0.78322917
0.33013889 -0.13568607 0.788719
0.3298195 -0.13779154 0.79286993
0.33147216 -0.13986026 0.7977438
0.33077589 -0.14285901 0.80182552
0.33212322 -0.14242657 0.8055594
0.33814871 -0.12822014 0.77797663
0.33775312 -0.12893331 0.78168344
0.3374275 -0.12981513 0.78616393
0.33695132 -0.12987854 0.7893976
0.33557662 -0.13672777 0.80025208
0.33550584 -0.13981378 0.80331868
0.33476421 -0.14199165 0.80730188
0.34232017 -0.12473035 0.77949882
0.34123811 -0.12832853 0.78132164
0.34136727 -0.13064665 0.78697026
0.34133857 -0.12980586 0.79053771
0.3403751 -0.13368088 0.7982198
0.33995914 -0.13671434 0.79974484
0.33858594 -0.13976374 0.80534244
0.33944693 -0.13954401 0.80933255
0.34570444 -0.12230878 0.78012258
0.34666285 -0.12726161 0.79086244
0.34442493 -0.12866168 0.79099345
0.34347335 -0.13255492 0.79947919
0.34554356 -0.13197453 0.80089915
0.34253976 -0.13735706 0.81131405
0.35089445 -0.12076165 0.78224707
0.35118407 -0.12076591 0.78628325
0.34997094 -0.12460379 0.79015696
0.34829009 -0.13120404 0.80375654
0.34865108 -0.13197416 0.80968475
0.34777468 -0.1352659 0.81204969
0.35358781 -0.12238431 0.78729314
0.35342053 -0.12395583 0.7890994
0.35121894 -0.1314491 0.80621082
0.35137767 -0.13249062 0.80834055
0.35077363 -0.13493511 0.81126422
0.32761124 -0.12935013 0.78083289
0.32520491 -0.13215476 0.78389859
0.32400236 -0.13463198 0.788266
0.32410863 -0.13680291 0.79251224
0.32423106 -0.13875766 0.79725689
0.32541022 -0.13942778 0.80179173
0.33127078 -0.1253386 0.77878553
0.32968464 -0.1273904 0.7793256
0.33117467 -0.12951717 0.78642875
0.32927245 -0.13116753 0.79009748
0.32907745 -0.13409005 0.79467922
0.33019972 -0.13439083 0.79871994
0.3273761 -0.13951837 0.80459923
0.32884142 -0.13898085 0.80724978
0.33519456 -0.12264688 0.77921236
0.33426479 -0.12896779 0.78377849
0.33393654 -0.12917596 0.78721231
0.33492053 -0.12872779 0.79090762
0.33439037 -0.13200229 0.79782063
0.33269396 -0.13530836 0.79970545
0.33162293 -0.13811937 0.80930471
0.3399336 -0.12063114 0.77969754
0.33841962 -0.12750746 0.79216111
0.33792329 -0.13033484 0.79881942
0.33589593 -0.13616233 0.8120656
0.34474063 -0.11876571 0.78110129
0.34324315 -0.12312999 0.7923069
0.34303439 -0.12421956 0.79468852
0.34246132 -0.12660883 0.7995975
0.34228781 -0.12828484 0.80291343
0.34045669 -0.1341403 0.81342059
0.34779763 -0.11731033 0.78370434
0.34794819 -0.11846537 0.78754377
0.3472226 -0.12147976 0.79165858
0.34660763 -0.12361148 0.79622275
0.34532773 -0.12603629 0.8004986
0.34577799 -0.12771213 0.80574262
0.34566531 -0.12933987 0.81036979
0.34415096 -0.13239813 0.81290948
0.32054004 -0.13151535 0.79012412
0.31944099 -0.13194714 0.793899
0.32473066 -0.12545246 0.7825852
0.32221338 -0.12821896 0.78562969
0.32128206 -0.13073449 0.78930837
0.32120246 -0.13341747 0.79379636
0.3205148 -0.13481233 0.79965323
0.32226256 -0.13600433 0.80378509
0.32909137 -0.1217435 0.7804805
0.32696709 -0.12311037 0.78113794
0.32976729 -0.12752238 0.78928423
0.32835436 -0.12709361 0.79253703
0.32810882 -0.1293003 0.79667109
0.32416394 -0.1361389 0.80640107
0.32561228 -0.13528802 0.80878472
0.33260798 -0.11980374 0.78070801
0.33141232 -0.1253553 0.79317361
0.33045101 -0.1279085 0.79838091
0.32919675 -0.13423622 0.81128484
0.33699086 -0.11679142 0.78211129
0.33529863 -0.12238021 0.79396999
0.33462268 -0.12619184 0.80074865
0.33547723 -0.12418621 0.8030746
0.33383852 -0.13237002 0.81359309
0.34115383 -0.11533251 0.78355062
0.34165907 -0.11442828 0.78810608
0.33961004 -0.12011631 0.79307771
0.33975634 -0.1212952 0.79712969
0.34004492 -0.12308916 0.80146015
0.33844033 -0.12533784 0.80365711
0.33846891 -0.12690744 0.81271619
0.33774489 -0.13011923 0.81405127
0.34442139 -0.11544204 0.78570378
0.34396136 -0.11621521 0.78861356
0.34329683 -0.11806371 0.79320741
0.34272292 -0.11996964 0.79683012
0.34193474 -0.12256244 0.80142307
0.34218517 -0.12421608 0.80660331
0.34118211 -0.12643428 0.81044984
0.34176877 -0.12894112 0.81287718
0.31687272 -0.12432203 0.78904915
0.31746969 -0.12699074 0.79150802
0.31712502 -0.1285266 0.79481846
0.31621358 -0.12926115 0.79898989
0.32165283 -0.12158719 0.78446418
0.31998327 -0.12440496 0.78673857
0.31840163 -0.12703267 0.79136109
0.31748593 -0.12921861 0.79714018
0.31807843 -0.13123366 0.80058336
0.31966415 -0.13211575 0.80535102
0.32697922 -0.11749591 0.78251195
0.32463586 -0.11895635 0.78310096
0.32127956 -0.13171485 0.80833471
0.32352465 -0.1314487 0.81013691
0.33005917 -0.11576843 0.78324091
0.32946777 -0.12238809 0.79585379
0.32929385 -0.12383229 0.79890954
0.32681635 -0.12989616 0.81232744
0.33391801 -0.11361044 0.78477865
0.3352069 -0.11188257 0.78709394
0.33332461 -0.11982645 0.79637259
0.33259279 -0.12224792 0.80106419
0.33098426 -0.12744008 0.81397367
0.33804733 -0.11308622 0.78588367
0.33837059 -0.11250421 0.78915864
0.33920717 -0.11418998 0.79414833
0.33830792 -0.11662633 0.79907167
0.33837727 -0.11832367 0.80341309
0.33697209 -0.12014666 0.80837548
0.33577752 -0.12324175 0.81212038
0.33489859 -0.12626384 0.81425995
0.34061897 -0.11438459 0.79391533
0.33998868 -0.1161681 0.79804575
0.3385683 -0.11821392 0.80428815
0.33923808 -0.12121934 0.80768633
0.33887768 -0.12315451 0.81022292
0.31567577 -0.11938825 0.78555131
0.31484818 -0.12157114 0.78813666
0.31377938 -0.12416665 0.79214942
0.31362683 -0.12633349 0.79677141
0.31350982 -0.12799761 0.80134183
0.31382164 -0.12916318 0.8044669
0.31857499 -0.11791733 0.78456813
0.31696987 -0.12094855 0.78659141
0.31624162 -0.12766743 0.79736269
0.31582308 -0.12931722 0.8023715
0.31617495 -0.1290032 0.8071894
0.32353067 -0.11385256 0.78370857
0.32273149 -0.11544546 0.7840994
0.32049906 -0.12898606 0.80931997
0.32012784 -0.12744182 0.8116883
0.32736853 -0.11198895 0.78503263
0.32458171 -0.12598369 0.81329376
0.33034575 -0.11081477 0.78632039
0.3318989 -0.10989927 0.78854144
0.32931644 -0.12172149 0.81342602
0.32780841 -0.12440988 0.81405956
0.33436105 -0.10984942 0.79167694
0.33555999 -0.11072794 0.79549742
0.33638424 -0.11276095 0.79973024
0.33596089 -0.11551264 0.80490679
0.33403727 -0.11732247 0.80945092
0.33236286 -0.12023888 0.81205308
0.33608195 -0.11129817 0.80178559
0.33588782 -0.11349466 0.80544043
0.33512834 -0.11465414 0.80837661
0.31305659 -0.11864407 0.78988349
0.31175497 -0.12001637 0.79412806
0.31108698 -0.12222436 0.79834223
0.31173548 -0.12457657 0.80228537
0.31712472 -0.11416169 0.78699291
0.31430492 -0.11576307 0.79001749
0.31222644 -0.11704075 0.79357564
0.31133786 -0.1208055 0.8013413
0.31245714 -0.12301056 0.80447245
0.31447643 -0.12420082 0.80814171
0.31622106 -0.12657976 0.81096745
0.32152903 -0.11132102 0.78506875
0.31984633 -0.11138831 0.78760177
0.31665066 -0.12199739 0.81060463
0.31848273 -0.12467635 0.81273788
0.32567912 -0.10957341 0.78649539
0.32379514 -0.10829256 0.78905523
0.32127646 -0.11950029 0.81294435
0.32166085 -0.12293182 0.81385446
0.32795557 -0.10816319 0.78755593
0.32850504 -0.10704418 0.79079068
0.32889852 -0.10716276 0.79554504
0.32717687 -0.11452151 0.81094456
0.32565382 -0.11773914 0.8138876
0.32574663 -0.12174301 0.81486171
0.33191025 -0.10674129 0.79295123
0.33260354 -0.10771666 0.7969895
0.33213454 -0.10940567 0.8014788
0.33156347 -0.11169052 0.80620974
0.33115101 -0.11393896 0.81026399
0.32957283 -0.11641616 0.81354439
0.33535475 -0.10962055 0.80137247
0.33483624 -0.11200401 0.80604386
0.33427361 -0.11373357 0.80911899
0.37423795 -0.084968038 0.81876403
0.37396422 -0.086896308 0.82206482
0.37728393 -0.083870538 0.81990623
0.37685138 -0.085677072 0.82302123
0.37953264 -0.082882084 0.82170725
0.37949294 -0.083805308 0.82332635
0.30936736 -0.11644715 0.79699975
0.30922428 -0.11785825 0.79913509
0.31587771 -0.11136853 0.78981227
0.31306747 -0.11202507 0.79244733
0.31091425 -0.11451167 0.79507858
0.30992255 -0.11764428 0.80222994
0.31134644 -0.11862193 0.80556995
0.31329355 -0.11964856 0.80872923
0.31804526 -0.10903586 0.79058892
0.3159112 -0.1079334 0.7926265
0.3140454 -0.11636506 0.80975819
0.31577387 -0.11851479 0.81044245
0.32222009 -0.10734862 0.79167998
0.32114351 -0.10608302 0.7949369
0.31948459 -0.11387916 0.8107006
0.31982577 -0.1170028 0.81174523
0.32553136 -0.10659789 0.79298472
0.32548985 -0.10585453 0.79714888
0.32565498 -0.10571273 0.8029179
0.32522407 -0.10768144 0.80712813
0.32393083 -0.11224744 0.81025779
0.32383132 -0.11568387 0.81213194
0.32870686 -0.10646877 0.7990455
0.328334 -0.10704173 0.80240172
0.32765207 -0.10883888 0.80648702
0.32761189 -0.11170352 0.80943757
0.34389856 -0.090327285 0.79717284
0.34351963 -0.090713069 0.79806554
0.3405689 -0.10361008 0.82461447
0.3406153 -0.10424666 0.82552743
0.34608015 -0.089444987 0.7976681
0.3463842 -0.090415947 0.80059612
0.34539634 -0.099402376 0.82186031
0.34372589 -0.10187038 0.82396454
0.34293845 -0.10342392 0.82636845
0.34903103 -0.087895945 0.79958653
0.3501581 -0.088967487 0.80270076
0.35035571 -0.089987114 0.80573738
0.34857559 -0.097892039 0.82189494
0.34778488 -0.099595681 0.82453328
0.34591231 -0.10133092 0.82693565
0.35349864 -0.087389737 0.80490714
0.35420209 -0.088743128 0.80848128
0.3552292 -0.088804886 0.81154442
0.35372865 -0.092898659 0.82017964
0.35275942 -0.095363751 0.82195532
0.35140908 -0.097249143 0.82498389
0.35739693 -0.087621748 0.81130099
0.35839337 -0.088622823 0.81379181
0.35773712 -0.091344327 0.81963843
0.35599223 -0.093058303 0.82208318
0.36235547 -0.084845178 0.81387144
0.36217225 -0.087146692 0.81601864
0.3612994 -0.089108631 0.82023287
0.36102057 -0.089568317 0.82316798
0.36422944 -0.083708957 0.81482452
0.36684352 -0.085040458 0.81709319
0.36642331 -0.086897776 0.82178211
0.36354607 -0.08830516 0.82391673
0.37147346 -0.083642572 0.81919187
0.37097171 -0.085212223 0.82261163
0.37601036 -0.083153814 0.82006919
0.37582812 -0.084684923 0.82313818
0.37904316 -0.081987754 0.82170916
0.37890929 -0.083179154 0.82367903
0.30687556 -0.11217119 0.79873574
0.30666772 -0.11341355 0.80074906
0.31116045 -0.10800601 0.79505104
0.30871728 -0.11055945 0.797243
0.30802196 -0.11343321 0.80376834
0.30979013 -0.11421179 0.80689949
0.3151826 -0.10253721 0.7939074
0.31396919 -0.10533421 0.79436582
0.31234139 -0.11334176 0.81017876
0.31320813 -0.11182396 0.81266111
0.3183738 -0.10116514 0.79450303
0.31955898 -0.10386777 0.79592752
0.31780043 -0.11141428 0.81150615
0.3162291 -0.11073153 0.81412989
0.32064736 -0.1003034 0.79596788
0.32238433 -0.10178406 0.79907179
0.32457268 -0.1034694 0.80201364
0.32384416 -0.10710007 0.8092472
0.32110134 -0.10790595 0.81171829
0.31852528 -0.10926855 0.81438899
0.32417044 -0.099450894 0.80140543
0.32525793 -0.10212502 0.80446571
0.32480597 -0.10447229 0.80874306
0.32305896 -0.10476284 0.81233698
0.34110004 -0.088002786 0.79660416
0.34194279 -0.089637458 0.79948616
0.33909458 -0.10170521 0.82431132
0.33766738 -0.10302825 0.82725835
0.34526753 -0.086178213 0.796992
0.34369346 -0.089589223 0.80226994
0.34469381 -0.089264199 0.80578172
0.34280717 -0.097099446 0.82149494
0.34122917 -0.099993683 0.8231259
0.34157372 -0.10193334 0.82915723
0.3487342 -0.084191129 0.80009496
0.35107657 -0.085866973 0.80192041
0.34801349 -0.088962547 0.80832678
0.34669486 -0.094828114 0.82053405
0.34804958 -0.098517865 0.82765675
0.34541455 -0.098551482 0.82958436
0.35031915 -0.082525186 0.80262387
0.35269907 -0.083652407 0.80505025
0.3517133 -0.088286981 0.81017226
0.35271826 -0.087402232 0.81264001
0.35164511 -0.091188177 0.82011139
0.35070533 -0.093840636 0.82050467
0.35018468 -0.095042437 0.82778549
0.3473272 -0.096014842 0.829579
0.35437587 -0.082919449 0.8081736
0.35672104 -0.084006779 0.81122983
0.35603946 -0.086647838 0.81640726
0.3555904 -0.088221386 0.81909144
0.35539123 -0.090611622 0.82484788
0.35266799 -0.09233842 0.82673889
0.36066785 -0.082299836 0.81399202
0.35912877 -0.084893912 0.8191911
0.35943463 -0.084774181 0.81962383
0.35943532 -0.087836459 0.82510591
0.36450452 -0.079886831 0.81564307
0.36491162 -0.082237341 0.81941068
0.3646009 -0.083342269 0.82230103
0.36328372 -0.085340798 0.82641256
0.36833143 -0.077572115 0.81738383
0.36933297 -0.080459133 0.82033062
0.36851695 -0.081460886 0.82375538
0.36757416 -0.082800157 0.82778943
0.37076092 -0.076254144 0.81915307
0.37289223 -0.077094316 0.82217091
0.37271234 -0.07934615 0.82610726
0.37028998 -0.080999814 0.8286531
0.37680614 -0.075186044 0.8239252
0.37675968 -0.07734324 0.82714659
0.3801108 -0.07337027 0.82524991
0.38014108 -0.075580716 0.82851976
0.30406803 -0.1082371 0.80021256
0.30393109 -0.1095935 0.80274236
0.3085576 -0.1010325 0.79404753
0.30797422 -0.10425476 0.79661483
0.30652729 -0.10675355 0.79839766
0.30568737 -0.11017214 0.80518407
0.30669636 -0.11020245 0.80886942
0.30675921 -0.11039378 0.81282187
0.3119489 -0.10014393 0.79387873
0.31123152 -0.10371494 0.79491764
0.30941272 -0.11142948 0.8104986
0.30967581 -0.11010899 0.81409991
0.3168461 -0.098245397 0.79487592
0.31949583 -0.099642016 0.79660136
0.31730857 -0.10834406 0.8143577
0.31431186 -0.10846999 0.81607437
0.3197917 -0.095937714 0.79717648
0.32175359 -0.097458839 0.79896927
0.32004094 -0.10525859 0.8150149
0.31753349 -0.10558462 0.81685883
0.3234413 -0.095638573 0.8018508
0.32474938 -0.097658701 0.80621988
0.32425806 -0.10012869 0.81097949
0.32196975 -0.10234281 0.81502068
0.3249844 -0.094845779 0.80786818
0.32461631 -0.097185932 0.8117252
0.33452803 -0.082593895 0.79454637
0.33425197 -0.08478111 0.79628855
0.33126521 -0.09819378 0.82619047
0.3307893 -0.10039221 0.82847446
0.33041567 -0.10054553 0.83121717
0.33754334 -0.081576221 0.79497129
0.33764917 -0.084829085 0.796372
0.33802468 -0.085886739 0.80184245
0.33504659 -0.097418137 0.82521677
0.33404678 -0.10080232 0.82925153
0.33332047 -0.099983305 0.83247125
0.34071815 -0.081259459 0.79612827
0.34280854 -0.081898451 0.7990815
0.34174591 -0.084159844 0.80416238
0.34326628 -0.086094834 0.80652791
0.34139621 -0.094120786 0.82308483
0.33923665 -0.094773248 0.82597959
0.33925852 -0.097624481 0.83097094
0.33644989 -0.099063158 0.83279765
0.34695745 -0.081178069 0.80100042
0.34499216 -0.081720725 0.80517417
0.34602934 -0.084704354 0.80911613
0.34480458 -0.091284744 0.82306349
0.34252217 -0.09274222 0.82780433
0.34361002 -0.095924251 0.83105826
0.34925708 -0.081041738 0.8030448
0.3502121 -0.080905743 0.8065176
0.34987548 -0.082311384 0.81088185
0.35178411 -0.084421888 0.81379855
0.35023043 -0.088665694 0.8216458
0.34831953 -0.089053437 0.82452989
0.34779328 -0.091711402 0.82857567
0.34638423 -0.094770223 0.8302837
0.35427675 -0.081693441 0.81307006
0.35441321 -0.082152076 0.81654578
0.35378698 -0.085051633 0.82207811
0.35342604 -0.087040983 0.82477659
0.35146949 -0.090291768 0.82712841
0.35792723 -0.078490011 0.81561285
0.35679197 -0.081505813 0.81995237
0.35673591 -0.082095787 0.82117754
0.35658315 -0.083811149 0.82692856
0.36218792 -0.076314583 0.81718707
0.3621282 -0.078441739 0.82200307
0.36176631 -0.079273835 0.82340068
0.3608247 -0.08179833 0.82846421
0.36529481 -0.074994229 0.81876248
0.36661252 -0.075232714 0.82098377
0.36551499 -0.07669282 0.82468516
0.3649807 -0.079659536 0.82932311
0.36920059 -0.07419841 0.82324147
0.36881238 -0.076157458 0.82792199
0.36692122 -0.076441236 0.8303104
0.30159935 -0.10408063 0.80123532
0.30107003 -0.10587171 0.80471754
0.30659801 -0.098429143 0.79531795
0.30466446 -0.10035151 0.79710239
0.30327174 -0.10313214 0.79908478
0.30219856 -0.10705084 0.80726308
0.30317011 -0.10702685 0.8109225
0.30473873 -0.10744919 0.81385964
0.30920839 -0.096489057 0.79496628
0.30633911 -0.10841164 0.81295598
0.30696788 -0.10680479 0.81585389
0.31390128 -0.093571879 0.7949701
0.31079653 -0.10522604 0.81893659
0.31698692 -0.088956647 0.79557991
0.31879374 -0.091403879 0.79704201
0.31605387 -0.10288185 0.82043087
0.31455716 -0.10196466 0.8229993
0.32120845 -0.089453116 0.8002708
0.32334068 -0.091783851 0.80263281
0.3215743 -0.099341162 0.81755483
0.31899524 -0.099445529 0.82024664
0.32798225 -0.081309088 0.79448622
0.32788152 -0.08328265 0.79624659
0.32307214 -0.087522708 0.80264574
0.32521588 -0.08895231 0.80506468
0.32548663 -0.091636539 0.81000823
0.32510906 -0.09375947 0.81393749
0.32375792 -0.095631294 0.81860191
0.32288545 -0.096425578 0.82339799
0.32428014 -0.098628446 0.82843012
0.32406631 -0.098740555 0.83114135
0.33201379 -0.080732524 0.7939198
0.33119148 -0.084039859 0.79669398
0.33079594 -0.083663419 0.80159825
0.32663023 -0.087271512 0.80834252
0.32558703 -0.092055775 0.81862158
0.32822967 -0.095473059 0.82553446
0.32729387 -0.099593252 0.82871354
0.32773119 -0.099574886 0.83259577
0.3355521 -0.079315841 0.79506755
0.33637786 -0.078371711 0.79908186
0.33486342 -0.083335422 0.80413222
0.33227757 -0.093590036 0.82512563
0.33249408 -0.09472502 0.83248234
0.33127487 -0.098375618 0.83377439
0.33906442 -0.079531036 0.79683787
0.33912534 -0.079468809 0.80111748
0.33857292 -0.081027769 0.8044697
0.33594954 -0.09225326 0.82775033
0.33617172 -0.094247214 0.83083242
0.3350977 -0.097523719 0.83333957
0.35620636 -0.074774325 0.81760561
0.35437098 -0.076247446 0.82034945
0.35415184 -0.078118466 0.82450306
0.35512096 -0.079972267 0.82820666
0.35780424 -0.073714152 0.81890047
0.35994413 -0.073298439 0.8216579
0.35984549 -0.074935675 0.82613009
0.35830149 -0.077702418 0.82913816
0.36432543 -0.072333276 0.82035673
0.3629415 -0.071493894 0.82339501
0.36254197 -0.074136958 0.8276509
0.36308557 -0.076318495 0.83044195
0.36758614 -0.069544651 0.82508779
0.36771274 -0.071932822 0.82953894
0.36707175 -0.074171335 0.8315838
0.37113965 -0.066958606 0.82714963
0.37128907 -0.069343656 0.83116162
0.37463957 -0.064527765 0.82876182
0.37454233 -0.066680834 0.83275074
0.29884797 -0.10070127 0.80264479
0.29827929 -0.10266285 0.80641472
0.30484962 -0.095034748 0.79701614
0.30240393 -0.09634982 0.79877466
0.30035987 -0.098699652 0.80143243
0.29928401 -0.10217363 0.80897307
0.30085182 -0.10297266 0.81254137
0.30231094 -0.10277884 0.81546837
0.3080838 -0.088947676 0.793962
0.3067067 -0.092292547 0.79640061
0.30138788 -0.10119748 0.81592655
0.30435738 -0.10283971 0.81782532
0.30492353 -0.10267846 0.82225835
0.31128964 -0.087342776 0.79374522
0.31136754 -0.090870947 0.7950716
0.30873987 -0.10329291 0.82068115
0.3077828 -0.10224067 0.82408434
0.31576315 -0.085977651 0.79542601
0.31233585 -0.10054836 0.82493502
0.32115018 -0.079114333 0.79421771
0.3196322 -0.082228974 0.79785043
0.31987339 -0.08504311 0.80069524
0.31729147 -0.096139498 0.82354796
0.3161332 -0.096751869 0.82731766
0.31673798 -0.097536869 0.83177543
0.32486105 -0.078492627 0.79383582
0.3241767 -0.082364246 0.79734576
0.32334131 -0.083012022 0.80254424
0.32456344 -0.085648343 0.80458659
0.32472739 -0.088025853 0.81328052
0.32426891 -0.088158667 0.81435764
0.32257795 -0.093754098 0.82166332
0.32100344 -0.093893252 0.82451445
0.32050678 -0.097482748 0.82870311
0.32039198 -0.097801864 0.8332383
0.32892233 -0.077033788 0.7952233
0.32771057 -0.080781542 0.80353051
0.32600176 -0.08357659 0.80793357
0.32508671 -0.085730031 0.81217492
0.32470828 -0.088189512 0.81704652
0.32475352 -0.090623103 0.82161355
0.32524857 -0.091927007 0.82610089
0.32461402 -0.09634915 0.83419651
0.33156285 -0.075969763 0.79757273
0.33261997 -0.076565035 0.8009339
0.33241463 -0.078651614 0.80481791
0.32961491 -0.089895368 0.82813972
0.32926312 -0.09207844 0.83215284
0.32732105 -0.094199717 0.8343001
0.33609986 -0.077968702 0.80263281
0.33571622 -0.078423038 0.80446953
0.33592412 -0.078998163 0.81789654
0.33582866 -0.080092162 0.82009542
0.33277303 -0.090339579 0.82912773
0.33296233 -0.091700964 0.83073437
0.34011978 -0.077402852 0.8175081
0.3396543 -0.079410225 0.82178742
0.34204292 -0.076492146 0.81892288
0.34139484 -0.078137152 0.82233465
0.35531247 -0.071847171 0.81941915
0.35384184 -0.071681693 0.8218888
0.35356331 -0.074393377 0.82675749
0.35421672 -0.076041117 0.82883531
0.35594037 -0.071039908 0.82005161
0.35647562 -0.06984961 0.82390749
0.35606956 -0.071712427 0.82803202
0.35588974 -0.075062893 0.82963395
0.3579663 -0.067807049 0.82648206
0.35790649 -0.069768138 0.82936203
0.3707976 -0.064502873 0.82794636
0.3719027 -0.066533789 0.83304089
0.37349358 -0.062614098 0.82951981
0.37373212 -0.065114759 0.83335739
0.29705328 -0.098203562 0.80478692
0.29673812 -0.099243931 0.8069908
0.30083731 -0.092971757 0.80096763
0.29880497 -0.094784208 0.80467081
0.2979261 -0.09711796 0.8095569
0.29949421 -0.099091709 0.81373644
0.30705285 -0.087546751 0.79506975
0.30462065 -0.08810509 0.79763412
0.30207562 -0.089918517 0.80083752
0.30053648 -0.097605549 0.81650704
0.30220056 -0.099090263 0.82003093
0.3038801 -0.10120768 0.82224464
0.30947617 -0.084212683 0.79567909
0.3071011 -0.084493175 0.79764795
0.30432689 -0.09717752 0.82329565
0.3062768 -0.098721072 0.82511026
0.31365266 -0.077887028 0.79515314
0.31260151 -0.080887429 0.79510009
0.30900857 -0.097374722 0.82862717
0.30996609 -0.095670842 0.83110565
0.31828558 -0.07667996 0.79447949
0.31747928 -0.080215737 0.796588
0.31986406 -0.082448594 0.80226791
0.31749052 -0.093188398 0.82433891
0.31385931 -0.096279234 0.82894856
0.31375927 -0.095841445 0.83308065
0.32230207 -0.07451947 0.79409301
0.32152921 -0.080786563 0.80376685
0.32143927 -0.083209582 0.81648254
0.31923792 -0.091094024 0.82515728
0.31760761 -0.095216155 0.8359009
0.32626352 -0.072672814 0.79631966
0.32579535 -0.077988729 0.80617315
0.32416892 -0.079277232 0.80967611
0.32336152 -0.082037404 0.81418985
0.32302946 -0.08404544 0.8184548
0.32285836 -0.085771479 0.82338649
0.32332104 -0.088114195 0.82646507
0.32200813 -0.092571937 0.83682531
0.32905474 -0.07227695 0.79884863
0.32936689 -0.073007375 0.8019799
0.32868221 -0.075313792 0.80519766
0.32921153 -0.077166304 0.81768596
0.3289099 -0.078745238 0.8204717
0.32602674 -0.087500401 0.82986212
0.32578132 -0.088577196 0.83367044
0.3248198 -0.090509363 0.83606815
0.33391434 -0.074556433 0.81528556
0.3321805 -0.077086002 0.81713778
0.33206695 -0.079246566 0.82186341
0.33251005 -0.078282781 0.82539278
0.33729783 -0.07322675 0.81555796
0.33845645 -0.075279467 0.81653661
0.33708107 -0.078787707 0.82421988
0.33561563 -0.077759668 0.82703424
0.34161225 -0.069640711 0.81641543
0.34224233 -0.072687402 0.82003045
0.34155968 -0.075148791 0.82496482
0.34007731 -0.07622239 0.82930899
0.34268555 -0.068296611 0.81891316
0.34350446 -0.070629381 0.82264495
0.34275809 -0.072299168 0.82616174
0.34188908 -0.074009776 0.82915407
0.35511479 -0.06665571 0.82582206
0.35466677 -0.068345994 0.82940966
0.35768437 -0.064061612 0.82751179
0.35763213 -0.065872207 0.83078521
0.35972294 -0.062077381 0.82944113
0.35970941 -0.063587792 0.83247
0.29839346 -0.091389939 0.80782855
0.29768425 -0.0927229 0.81056678
0.30303308 -0.084736697 0.80045795
0.30136862 -0.086222574 0.80359966
0.29920098 -0.088474691 0.80755806
0.2982797 -0.091111995 0.81344438
0.29982668 -0.092965402 0.81730747
0.30084175 -0.094599813 0.82064396
0.30851626 -0.080955185 0.79819143
0.30565706 -0.081796832 0.8003521
0.3026627 -0.082712419 0.80398524
0.30097792 -0.090590686 0.82013232
0.30311432 -0.093036115 0.82350606
0.30546421 -0.094632424 0.82590085
0.31297761 -0.07649681 0.79554051
0.31031403 -0.077778019 0.79752201
0.30738023 -0.078765281 0.80051678
0.3048006 -0.091508836 0.82639796
0.30676419 -0.093342558 0.82915092
0.30891544 -0.094216891 0.83209968
0.31560522 -0.074626878 0.79600513
0.31433767 -0.07378757 0.79925251
0.31070709 -0.089807488 0.8321256
0.31129056 -0.093200281 0.83362967
0.3196325 -0.071222425 0.79717821
0.31661615 -0.072094321 0.80095494
0.31901178 -0.073162042 0.80697864
0.31827626 -0.076850921 0.81110281
0.31900916 -0.077344358 0.8132109
0.31838396 -0.081496559 0.82206029
0.31709531 -0.082602054 0.82353705
0.31654605 -0.083891056 0.82922101
0.31323498 -0.087763578 0.8331669
0.31528682 -0.090321548 0.83633226
0.32344061 -0.069698669 0.79897851
0.32319602 -0.069463558 0.80325276
0.32254612 -0.072764494 0.80725992
0.32185268 -0.077147506 0.8103649
0.32211867 -0.077756152 0.81515336
0.32180935 -0.08030659 0.8210386
0.32014734 -0.083611779 0.82402986
0.32009828 -0.083676592 0.82973498
0.31969592 -0.084981315 0.83470547
0.31901118 -0.088401675 0.83715194
0.32705188 -0.070561975 0.80015844
0.32632172 -0.07072904 0.80314589
0.32614914 -0.072303049 0.80593646
0.32666287 -0.071977213 0.81583184
0.32590964 -0.07534875 0.8174541
0.32526129 -0.07759773 0.82194239
0.32567942 -0.07677611 0.82547456
0.32331941 -0.084834985 0.83117294
0.32279128 -0.086083971 0.83437413
0.33048728 -0.071091615 0.81558466
0.3293108 -0.074031033 0.8166303
0.32869846 -0.077402189 0.82381845
0.32926637 -0.076469086 0.8270095
0.33495507 -0.068409227 0.81533617
0.33350801 -0.07535398 0.82949358
0.33954209 -0.066619322 0.81490713
0.33924031 -0.066355124 0.81594348
0.33792347 -0.073697031 0.83116162
0.34186208 -0.065355197 0.81968802
0.34340996 -0.066220462 0.82386345
0.34256583 -0.0684973 0.82838494
0.340707 -0.071237862 0.8304677
0.3568323 -0.06134782 0.82923496
0.35686046 -0.062524408 0.83192301
0.3583588 -0.059889056 0.83005166
0.35842645 -0.061467446 0.8331787
0.30155739 -0.084246404 0.80705398
0.29912969 -0.086756803 0.81013596
0.29854497 -0.08828003 0.81307244
0.30007851 -0.089206934 0.81653041
0.30507073 -0.07954511 0.8029936
0.30349579 -0.081050254 0.80645651
0.3020204 -0.082633205 0.81170732
0.30149576 -0.084443718 0.81598806
0.3020443 -0.087854475 0.82018566
0.30291152 -0.089351475 0.82361668
0.30955344 -0.07479915 0.80069625
0.30775124 -0.076241583 0.80365753
0.30654767 -0.077406578 0.80862617
0.30536991 -0.07915128 0.81345481
0.30483568 -0.081118986 0.81783605
0.30512735 -0.084179148 0.82224286
0.30530286 -0.087240286 0.82618684
0.30640113 -0.088958457 0.8296895
0.31205729 -0.073366523 0.80162764
0.31118968 -0.073501267 0.80574435
0.30987126 -0.074045017 0.80951411
0.30787924 -0.077768207 0.81678027
0.30689424 -0.078718737 0.81738418
0.30803505 -0.081483923 0.82459038
0.30875814 -0.084470153 0.82802355
0.30893388 -0.087657019 0.83083665
0.31945845 -0.069116615 0.80002028
0.31765592 -0.070981957 0.80237275
0.31628764 -0.072207652 0.80663639
0.31579611 -0.073519669 0.81195635
0.31500959 -0.072434038 0.81524032
0.31429157 -0.076322988 0.82339305
0.31415051 -0.079865448 0.82532668
0.31386292 -0.083122581 0.82926667
0.31414774 -0.085827217 0.83262974
0.31557143 -0.086782485 0.83610976
0.32066363 -0.068638831 0.80036575
0.32075578 -0.068994612 0.80256844
0.31809479 -0.073342301 0.81450707
0.31907946 -0.072204024 0.81631178
0.31790268 -0.075520396 0.8236891
0.31704995 -0.077949144 0.8242029
0.31710371 -0.085193217 0.8351565
0.32362071 -0.069605887 0.81662923
0.32247692 -0.071400173 0.81661183
0.32244071 -0.07586325 0.82489812
0.32231066 -0.074456356 0.82664418
0.3286891 -0.066287696 0.81581527
0.32719141 -0.073637344 0.83013612
0.33127195 -0.064200908 0.8167401
0.32980436 -0.071842693 0.8317011
0.33619416 -0.062510118 0.81891882
0.33491698 -0.06918177 0.83239621
0.34015194 -0.061023004 0.82132143
0.34190679 -0.061384249 0.82513267
0.34103626 -0.064493895 0.83121794
0.33868197 -0.066639587 0.83313531
0.34186453 -0.061545935 0.827326
0.34173936 -0.06286481 0.82950282
0.30672967 -0.077295959 0.81431609
0.30628431 -0.079601757 0.81904185
0.30962652 -0.074309736 0.81204444
0.3090986 -0.075724766 0.81502593
0.30855948 -0.078239821 0.82017803
0.30865744 -0.079673335 0.82331443
0.31211004 -0.073082462 0.81316411
0.31318933 -0.073922724 0.81723881
0.31273282 -0.07577768 0.82093966
0.3109777 -0.078302264 0.8238619
0.31737977 -0.071193233 0.81889683
0.31713593 -0.07284461 0.82282603
0.32189426 -0.066284232 0.81798708
0.31949481 -0.067553051 0.81996953
0.3188867 -0.070505887 0.82530206
0.32086879 -0.071220554 0.82816339
0.32678443 -0.059851449 0.81668752
0.32630435 -0.062607259 0.81728643
0.32462686 -0.070055515 0.83183157
0.32537323 -0.069763169 0.8343392
0.32760796 -0.060267963 0.81661516
0.32930097 -0.061032187 0.81826878
0.32777995 -0.068529144 0.83331347
0.32598826 -0.069629103 0.83455837
0.33369076 -0.058893681 0.82123417
0.33234558 -0.065311126 0.83375388
0.33741039 -0.057385415 0.82320625
0.33891195 -0.0578744 0.8272984
0.33826321 -0.060254458 0.83213162
0.33593848 -0.062833712 0.83445847
0.34073129 -0.059817232 0.82760161
0.34044281 -0.060809072 0.82983238
0.31974474 -0.064233691 0.82286465
0.31940657 -0.066080399 0.82648307
0.32355562 -0.060008742 0.82075441
0.32121855 -0.060704984 0.82390422
0.32064855 -0.063374378 0.82893485
0.32230213 -0.065483049 0.83163679
0.32679662 -0.057359125 0.82144332
0.32231042 -0.0614544 0.83165509
0.32551467 -0.063587263 0.83412892
0.33087185 -0.055712231 0.82350904
0.33137396 -0.054017514 0.82637376
0.33082536 -0.057965223 0.83451831
0.32973832 -0.061197266 0.83486831
0.334526 -0.055309314 0.82493067
0.33454669 -0.054967001 0.82832885
0.33413047 -0.057129893 0.83280879
0.33314192 -0.060132571 0.83478063
0.32188064 -0.058818631 0.82669032
0.32145521 -0.060156099 0.82866359
0.32512257 -0.055910014 0.82379711
0.32440856 -0.054843489 0.82832259
0.32400137 -0.056180473 0.8314566
0.32465252 -0.059837278 0.83381242
0.32757142 -0.054403398 0.82480228
0.32743198 -0.053070907 0.82963359
0.32736531 -0.054425683 0.83297819
0.32707885 -0.058678985 0.83458829
0.33145687 -0.054050729 0.83004421
0.33094096 -0.05516943 0.83245945
0.30751148 -0.058453135 0.83052242
0.30704036 -0.059056848 0.83187658
0.3090823 -0.057377879 0.8307575
0.32336465 -0.052145727 0.8309083
0.32306871 -0.052411005 0.83204067
0.32511625 -0.050354641 0.83130407
0.32504255 -0.051474534 0.83366466
0.32795668 -0.049903043 0.83278358
0.32777175 -0.050306179 0.83359015
0.30269027 -0.059180629 0.83025509
0.30243263 -0.059657365 0.83137274
0.30562353 -0.056770973 0.83047736
0.30539742 -0.058522981 0.83253634
0.3101165 -0.051812731 0.8294431
0.3095865 -0.054412708 0.8316471
0.30805913 -0.056517206 0.83351612
0.31242102 -0.049121745 0.83029836
0.31178379 -0.051190324 0.83265769
0.31845775 -0.046998963 0.83166933
0.31888902 -0.047806028 0.83377206
0.32235825 -0.045907661 0.83257461
0.32211792 -0.047295935 0.83485931
0.30905268 -0.049060464 0.83049619
0.30817649 -0.0506428 0.8325218
0.31169495 -0.046197299 0.83107919
0.311268 -0.047924474 0.83385175
0.31566626 -0.043574218 0.83259767
0.31586808 -0.045801844 0.83437979
0.31918129 -0.04339689 0.83385611
0.31902441 -0.04476621 0.83495629
