# .PCD v0.7 - Point Cloud Data file format
VERSION 0.7
FIELDS x y z
SIZE 4 4 4
TYPE F F F
COUNT 1 1 1
WIDTH 1294
HEIGHT 1
VIEWPOINT 0 0 0 1 0 0 0
POINTS 1294
DATA ascii
0.039329682 0.063147798 0.4289144
0.041257009 0.06191238 0.43023854
0.044532787 0.060171247 0.43359414
0.047829915 0.058463123 0.43692297
0.051168919 0.056899499 0.44031978
0.054479927 0.055233065 0.44366777
0.057746723 0.053602219 0.44700772
0.061122824 0.051706575 0.45049328
0.064489968 0.050207075 0.4538824
0.067680344 0.048422847 0.45719999
0.070844814 0.046787046 0.46040887
0.072910875 0.045797653 0.46274349
0.041251376 0.067930989 0.4294737
0.04323202 0.067012914 0.43094409
0.046461288 0.065226734 0.43427309
0.049654864 0.063478865 0.43756163
0.05300533 0.061854444 0.44097084
0.056305822 0.060051579 0.44436878
0.059468735 0.058157746 0.44765761
0.062869452 0.056626454 0.45109496
0.066216901 0.055027287 0.45449641
0.069387145 0.05315277 0.4577882
0.072661325 0.05153209 0.46112627
0.074468359 0.050250337 0.46348178
0.042773448 0.072260067 0.43019179
0.044874586 0.071517356 0.4315789
0.048119593 0.069962658 0.43487716
0.05138037 0.068156794 0.43823907
0.054713808 0.066304334 0.44167712
0.057953 0.06464389 0.44499069
0.061142787 0.062986918 0.44825798
0.064538591 0.061257876 0.45172945
0.067782208 0.059481334 0.45506978
0.071052894 0.057885777 0.45839971
0.074355692 0.055954251 0.46182495
0.076346189 0.055169571 0.46415684
0.044586197 0.076929316 0.43079939
0.046478085 0.076057144 0.43217078
0.049827814 0.074659228 0.43553498
0.0530301 0.07291387 0.43883109
0.056377567 0.070781387 0.44233686
0.059762094 0.06940455 0.44572905
0.062894173 0.067630433 0.448966
0.066262558 0.065832242 0.45242569
0.069486402 0.064111114 0.45573696
0.072760388 0.062664017 0.45904091
0.076112255 0.06068518 0.46252069
0.078059688 0.059641089 0.46493438
0.046366856 0.081912592 0.43159816
0.048243944 0.080721796 0.43288803
0.051714521 0.079178311 0.43639219
0.054953262 0.077432618 0.439722
0.058083452 0.075678311 0.44295335
0.061403729 0.074075915 0.44633037
0.064557903 0.072268531 0.4495942
0.067885667 0.070430368 0.45302424
0.071113668 0.068971097 0.45628813
0.074518993 0.067116119 0.45979303
0.077967271 0.065324619 0.46332511
0.079888485 0.064511865 0.4654831
0.047923092 0.086009651 0.43216482
0.050082467 0.085406847 0.43366832
0.05330123 0.083711915 0.43696979
0.056586623 0.082149684 0.44030675
0.059986539 0.080509104 0.44376472
0.06308645 0.078761294 0.44696686
0.066290013 0.076805696 0.45030522
0.069746092 0.075264394 0.45379561
0.073022887 0.073456883 0.45717263
0.07622242 0.071607366 0.46048656
0.07936652 0.070192471 0.46366435
0.081557304 0.069385417 0.46609214
0.049752891 0.090854391 0.43284512
0.051644102 0.089999437 0.43421122
0.054946847 0.088545419 0.43754303
0.058204167 0.086782329 0.44089341
0.061632566 0.085200518 0.44436616
0.064845741 0.083117723 0.44773832
0.068165086 0.081781209 0.45106247
0.071571924 0.079871729 0.45457941
0.074792042 0.078009367 0.45791486
0.078078829 0.076354258 0.46127129
0.081211269 0.074601099 0.46450448
0.083378211 0.07388524 0.46688679
0.051578142 0.096044354 0.43370554
0.053395923 0.094670832 0.4349142
0.056926191 0.093270674 0.43844542
0.060088675 0.091508538 0.44170809
0.06333971 0.089694932 0.44506252
0.066512771 0.087949201 0.44833174
0.069924414 0.086260825 0.45180988
0.07322631 0.084520385 0.45519695
0.076459438 0.08280839 0.45851499
0.07977964 0.080902435 0.46195129
0.083075836 0.079205684 0.46532455
0.08492741 0.078169703 0.46769974
0.053302232 0.10069938 0.43439242
0.055172153 0.099506997 0.43560746
0.058450304 0.097703874 0.43898487
0.061754521 0.09584038 0.44239813
0.06506899 0.094273061 0.44576293
0.068369329 0.092504308 0.44915408
0.071576603 0.090775982 0.45245147
0.075026184 0.089048237 0.45597231
0.078231275 0.087431014 0.45924595
0.081391983 0.085675843 0.46250561
0.084691584 0.083960503 0.46588564
0.086700648 0.082969293 0.46821341
0.055133555 0.1052581 0.43492562
0.056829348 0.10404392 0.43624943
0.060199879 0.10241294 0.43967843
0.063399427 0.10069543 0.44296655
0.066770278 0.098980606 0.44641221
0.069896877 0.097059354 0.44967288
0.073213249 0.095369354 0.45306343
0.076601982 0.093741544 0.45650861
0.079833105 0.09210939 0.45980918
0.083105966 0.090365395 0.46317014
0.086528175 0.088581994 0.46667659
0.088479497 0.08775492 0.46905419
0.056598872 0.10975343 0.43578374
0.058589272 0.10865213 0.43697223
0.061954387 0.10717911 0.44036534
0.065123156 0.10541928 0.44363335
0.068405703 0.10365389 0.44700742
0.071818292 0.10167918 0.45054245
0.074910983 0.099979199 0.45372853
0.07838355 0.098646104 0.45719343
0.081583723 0.096738324 0.46051934
0.084904484 0.095171988 0.46388975
0.088118374 0.09329012 0.46722326
0.090220101 0.092568904 0.46971738
0.058264945 0.11444344 0.43654507
0.060157634 0.11338975 0.437493
0.063650675 0.11180376 0.44102621
0.066777997 0.11011147 0.44424278
0.070148163 0.10840638 0.4476859
0.073467851 0.10637252 0.45114675
0.076826364 0.10485515 0.45454243
0.080158256 0.10327925 0.45792499
0.083273254 0.10132331 0.46118173
0.08656247 0.099685334 0.46453705
0.08984156 0.097899824 0.46791187
0.091726601 0.096691005 0.47032723
0.060216255 0.11922839 0.43707633
0.061918981 0.1179091 0.43823448
0.06533698 0.11628652 0.44170561
0.068649158 0.11444144 0.44512263
0.071985751 0.11286156 0.44851032
0.075218551 0.11104794 0.45184791
0.078350537 0.10928112 0.45508334
0.081743009 0.10778216 0.45850676
0.085226186 0.10609226 0.46205121
0.088272639 0.10416721 0.46523866
0.091715708 0.10254204 0.46873343
0.093494363 0.10148624 0.4709011
0.06179294 0.12355489 0.43773982
0.06394878 0.12262334 0.43918559
0.06719546 0.12083021 0.442532
0.070327103 0.11938302 0.44570461
0.073546782 0.11761916 0.44902039
0.076893106 0.11585587 0.4524529
0.080276273 0.11411896 0.45591426
0.083508849 0.11223707 0.45926499
0.086868599 0.11073492 0.46265885
0.090090498 0.10882452 0.46600533
0.09337002 0.10740191 0.4693096
0.09517058 0.10600796 0.47159499
0.0634951 0.12822068 0.43845358
0.06530264 0.12730344 0.43951964
0.068722188 0.12560192 0.44300765
0.07204438 0.12397596 0.44639105
0.075411618 0.12223017 0.44983944
0.078507066 0.12047058 0.45303977
0.081864744 0.11871984 0.45648029
0.085161485 0.11711402 0.45983627
0.088391706 0.11524478 0.46318236
0.091715366 0.11371517 0.46654829
0.095105782 0.11194502 0.47002283
0.097074509 0.11101191 0.47236475
0.065420195 0.13302016 0.43901783
0.067302734 0.13176569 0.4404926
0.070571542 0.13033481 0.44378862
0.073891997 0.1285352 0.44720435
0.077195749 0.12706438 0.45054039
0.080200627 0.12495795 0.45372495
0.083436519 0.12319772 0.45705497
0.086825356 0.12177648 0.46045983
0.090304025 0.11997253 0.46402243
0.093419671 0.11827626 0.46722901
0.096838981 0.11682308 0.47066823
0.098715559 0.11535976 0.47292706
0.067113221 0.13747919 0.43963528
0.069084615 0.13650709 0.44120961
0.072153464 0.13473397 0.44438803
0.075551994 0.13329208 0.44780588
0.078814298 0.13144679 0.45117691
0.08220841 0.12952439 0.45468462
0.085458785 0.12785697 0.45800987
0.088777393 0.1263071 0.46137509
0.091974773 0.12459338 0.46466047
0.095495455 0.12290278 0.46823967
0.098415099 0.12127852 0.47125131
0.10038902 0.119977 0.47365445
0.068522021 0.14169073 0.44040409
0.070790291 0.14116201 0.44187325
0.074049041 0.13949573 0.44520599
0.077444062 0.13773151 0.44868362
0.08068829 0.13622387 0.45197195
0.083913185 0.13452838 0.45527917
0.08729066 0.13256903 0.45877877
0.090472624 0.13104388 0.46201307
0.093594164 0.12935181 0.46522424
0.096780747 0.12730891 0.46856403
0.10027703 0.12578984 0.47208717
0.10209408 0.12465858 0.47432953
0.070522919 0.14697632 0.44114181
0.072430849 0.14587913 0.44246462
0.075748496 0.14430025 0.44583461
0.078895822 0.14227936 0.4491339
0.082286403 0.14081413 0.45254895
0.085544586 0.13890472 0.45592871
0.088849314 0.1373769 0.45927683
0.092061117 0.13564141 0.46257979
0.095362544 0.1338139 0.46598342
0.098685488 0.13204569 0.46939534
0.10189892 0.13041966 0.47267839
0.10381676 0.12899719 0.47511417
0.072098196 0.15147448 0.44189405
0.074061304 0.15040417 0.44308424
0.077326849 0.14889774 0.446392
0.080551237 0.14703074 0.44973227
0.084002025 0.14525649 0.45326334
0.08719793 0.14375851 0.45650518
0.090646021 0.142157 0.45999995
0.093888745 0.14019617 0.46337551
0.097007632 0.13847484 0.46658996
0.10041738 0.13684249 0.4700554
0.10360106 0.13522692 0.47330895
0.10552891 0.13386792 0.47566989
0.073836342 0.15615405 0.44257972
0.075891785 0.15528142 0.44381952
0.07918299 0.15337278 0.44722962
0.08260268 0.15182945 0.45068681
0.085589916 0.14987242 0.45382589
0.089176312 0.14826024 0.45745039
0.092388146 0.14670315 0.46071848
0.095593244 0.14468455 0.46407062
0.098842345 0.14317535 0.46736372
0.10218865 0.14145808 0.47078723
0.10535447 0.13982862 0.47402704
0.10722525 0.13850957 0.47647086
0.075565375 0.16081175 0.44326311
0.077656828 0.15969323 0.44458547
0.080781341 0.15820965 0.44775862
0.084133655 0.15631314 0.45122272
0.087434262 0.15456213 0.45461065
0.090802878 0.15304619 0.45801538
0.093981415 0.15125176 0.46129918
0.097240433 0.14958775 0.46463171
0.10067234 0.14784801 0.46813861
0.10390642 0.14635755 0.47141421
0.1071116 0.14436589 0.47476113
0.10908111 0.14330027 0.47712007
0.077465817 0.16575411 0.44392416
0.079308569 0.16449386 0.44517082
0.082567915 0.16285554 0.44849867
0.08573886 0.16121836 0.45174468
0.089193657 0.15941195 0.45528573
0.092488781 0.15788285 0.4586252
0.095685899 0.15607494 0.46192878
0.098943979 0.1541682 0.46530792
0.10227223 0.15266019 0.46867386
0.10556059 0.15080591 0.47207069
0.10884569 0.14889602 0.47547537
0.11077659 0.1479539 0.47775635
0.07886634 0.16967729 0.44455427
0.08105538 0.16918686 0.44586498
0.084256798 0.16733395 0.44918129
0.087578535 0.16593276 0.45252031
0.090889335 0.16385207 0.45598212
0.094279006 0.16237694 0.4593983
0.097456038 0.16045871 0.4627049
0.10068131 0.15889917 0.46598589
0.10399386 0.1571465 0.46938518
0.10720593 0.15543158 0.47268435
0.11061993 0.15360793 0.4761911
0.11251784 0.15234807 0.47848743
0.081080809 0.17535713 0.44528425
0.082852878 0.17351788 0.44667664
0.08606527 0.17189759 0.44995761
0.089289613 0.17044371 0.45321709
0.092630744 0.16851875 0.45667642
0.095892325 0.1668427 0.46001369
0.099130549 0.1652977 0.46330377
0.10237455 0.16341011 0.46666619
0.10569949 0.16196914 0.47001594
0.10914771 0.16016072 0.4735513
0.11216018 0.158491 0.47665748
0.11424261 0.15747806 0.47917318
0.082596049 0.17950277 0.44591564
0.084541693 0.17823514 0.4473125
0.087707028 0.17674395 0.45052481
0.09102194 0.17479913 0.45396385
0.09440995 0.17310101 0.45742211
0.097764671 0.17147627 0.46083528
0.10100256 0.16991444 0.46412835
0.10419437 0.16803846 0.46744031
0.1075073 0.16652977 0.47079223
0.1107327 0.1646318 0.47413951
0.11414184 0.16291709 0.47762048
0.11590269 0.16158983 0.47981891
0.084408998 0.1840356 0.4464536
0.086283565 0.18298616 0.44799075
0.089505076 0.18139479 0.45127448
0.092809699 0.17956018 0.45468247
0.096132129 0.17799851 0.4580535
0.099358395 0.17605855 0.46140981
0.10271136 0.17459819 0.46478921
0.10600847 0.17268303 0.46820602
0.10916305 0.17096193 0.47145334
0.11247633 0.16948178 0.47480002
0.11570856 0.16747496 0.4781749
0.11783595 0.16692966 0.4806715
0.086001568 0.18873654 0.44729221
0.087899871 0.18787968 0.44852525
0.091237843 0.18584801 0.45200253
0.094517268 0.18433352 0.45532468
0.097846121 0.18267158 0.45872125
0.10100735 0.18078123 0.46200782
0.1043258 0.17906421 0.46540558
0.10760894 0.17742312 0.4687559
0.11105828 0.17579406 0.47225723
0.11429671 0.17410411 0.47557586
0.11745372 0.1724768 0.47880709
0.11936682 0.17095304 0.48115087
0.087610662 0.19302793 0.4479062
0.089752182 0.19238777 0.44935286
0.093142986 0.19058943 0.45283329
0.096271813 0.18894783 0.45604134
0.099439189 0.18720669 0.45930439
0.10278342 0.18553931 0.46271622
0.10590835 0.18362132 0.46597472
0.10929792 0.18197338 0.46942458
0.1126371 0.18040878 0.47281167
0.11598388 0.17867939 0.47623795
0.11911079 0.17690511 0.47947019
0.12100913 0.17558274 0.48180333
0.089394256 0.19740583 0.44839397
0.091577291 0.1968483 0.45016471
0.094542712 0.19514693 0.45323366
0.097777814 0.19347398 0.45654589
0.1010452 0.19182847 0.45988253
0.10443451 0.19010124 0.46334767
0.10774698 0.18831758 0.46675292
0.11100457 0.18672913 0.47006938
0.11423356 0.18502915 0.47338125
0.11761298 0.18330306 0.47683704
0.12096874 0.18150811 0.48028445
0.12297222 0.18079844 0.48272198
0.090947181 0.20204853 0.44924161
0.093185693 0.20180692 0.45069376
0.096280947 0.19968654 0.45394987
0.099757276 0.19821192 0.45744589
0.10299496 0.1963605 0.4607954
0.10631368 0.19459255 0.46420336
0.10956079 0.19310625 0.46749017
0.11267715 0.19118305 0.47074178
0.11602858 0.18949793 0.47416371
0.11930783 0.18777543 0.47752637
0.12256771 0.18625033 0.48086914
0.1245203 0.18492973 0.4831394
0.093308143 0.20417596 0.45094025
0.097005926 0.20221579 0.45494381
0.10015228 0.20059405 0.45803633
0.10351943 0.19884489 0.46143866
0.1066727 0.19715755 0.46496058
0.10985059 0.19553351 0.46798903
0.11330944 0.19374341 0.47143838
0.11634146 0.19213539 0.47472644
0.11984834 0.19028747 0.47844815
0.12281872 0.18877836 0.48121861
0.12532386 0.18755472 0.48322073
0.037311517 0.063638642 0.43113375
0.038239412 0.060461234 0.43229783
0.041339517 0.058794852 0.43581125
0.044721447 0.057061791 0.43906662
0.04797487 0.055349119 0.4425078
0.051500838 0.053580899 0.4456386
0.054741457 0.051865254 0.44913238
0.057908244 0.050150275 0.45280823
0.061061949 0.048541363 0.45579487
0.064286113 0.046816811 0.45939091
0.067738503 0.045047082 0.46271786
0.070845939 0.046106424 0.46529889
0.039115034 0.068164475 0.43167734
0.072631329 0.051063031 0.4661063
0.040870089 0.072951168 0.43240103
0.074334621 0.055423096 0.4666633
0.042587526 0.077579409 0.43308076
0.075937405 0.060067385 0.46746308
0.044403937 0.082267471 0.43369436
0.077789329 0.064653844 0.46799031
0.045841362 0.086761758 0.43457916
0.079507321 0.069551997 0.46880689
0.047755886 0.091765702 0.43525782
0.081328645 0.07412181 0.46935549
0.049410716 0.096045017 0.43582103
0.082799897 0.078500576 0.4701485
0.051338367 0.10074298 0.43633112
0.084549747 0.083349593 0.47090897
0.053037167 0.10551812 0.43710381
0.086170912 0.087829888 0.47160733
0.05452469 0.1102346 0.43805283
0.087953284 0.092561215 0.47227615
0.056251936 0.11462629 0.4386026
0.089811072 0.097468004 0.47296068
0.058029257 0.11940992 0.43930298
0.091481283 0.10182976 0.47355086
0.059705049 0.1240173 0.44001275
0.093275115 0.10638885 0.47412086
0.061535154 0.12868777 0.44060403
0.095054463 0.11103334 0.47474843
0.063354164 0.13335577 0.44120488
0.0967158 0.11559103 0.47544703
0.06497924 0.13801757 0.44199181
0.098461606 0.12040421 0.47619322
0.066722512 0.14270255 0.44267523
0.10014509 0.12504432 0.47691211
0.068296894 0.14728352 0.44347051
0.10197078 0.12980911 0.47755572
0.070093781 0.15183896 0.44403565
0.10367185 0.13450496 0.47828582
0.071930408 0.15657219 0.44465253
0.10521994 0.13908927 0.47910848
0.073437996 0.1612086 0.4455412
0.10708052 0.14365524 0.47961682
0.075329073 0.16587244 0.4460696
0.10892362 0.14835589 0.48021078
0.076902211 0.17041597 0.44684702
0.11048475 0.15302737 0.48106506
0.078611881 0.17487806 0.44744977
0.11223651 0.15767631 0.48172182
0.080443434 0.1797933 0.44816422
0.11410601 0.16234949 0.48227605
0.082304925 0.18440934 0.44869718
0.11560304 0.16702826 0.48319662
0.084102675 0.18904752 0.4493036
0.11739942 0.17153651 0.48373821
0.085606471 0.19355813 0.45013195
0.11911783 0.17617014 0.48441973
0.087397903 0.19809778 0.45069438
0.12076174 0.18093565 0.48524112
0.089023679 0.20296656 0.45158601
0.09507525 0.20296898 0.45469362
0.10505778 0.19713828 0.46917218
0.10868503 0.19532011 0.47238716
0.11577331 0.19206181 0.4766629
0.11860153 0.19075732 0.47839922
0.12005071 0.18932629 0.48448166
0.12279654 0.1856975 0.48567915
0.09171699 0.20440792 0.45338148
0.094742715 0.20273359 0.45713684
0.098254763 0.20092826 0.46055526
0.10156931 0.19924271 0.46365729
0.10448782 0.19769479 0.46682295
0.10785714 0.19595467 0.47015822
0.11101565 0.19425118 0.47377703
0.11459447 0.19244072 0.47706166
0.11764643 0.19078973 0.48059192
0.12140936 0.18891375 0.48385775
0.12314552 0.18797149 0.48588693
0.03409807 0.064339072 0.43462622
0.035129722 0.061089348 0.43587837
0.03808495 0.059473895 0.43941104
0.04138314 0.057756659 0.44277021
0.044782747 0.056019314 0.44601005
0.047997821 0.054298595 0.44960299
0.051429071 0.052522819 0.45302454
0.054561261 0.050896414 0.45618469
0.057900205 0.049139667 0.45970988
0.060866542 0.047535278 0.46313918
0.064373903 0.045763567 0.46634075
0.067506075 0.046804175 0.46889314
0.035695814 0.069003575 0.43544123
0.069387995 0.051476099 0.46948162
0.037638649 0.073570274 0.43586966
0.0709472 0.056097593 0.47031236
0.03919933 0.078487523 0.43684947
0.072769262 0.060818374 0.47093707
0.040960312 0.083075143 0.43746606
0.074559778 0.065482602 0.47156382
0.042494357 0.087616116 0.43828034
0.076021418 0.069925576 0.47239888
0.044296023 0.092221498 0.43886623
0.077914901 0.074613459 0.47293714
0.046080638 0.096963465 0.4395383
0.079525739 0.079292439 0.47374678
0.047918901 0.10148975 0.44004822
0.081097052 0.083886072 0.47455144
0.049544148 0.10591537 0.44071481
0.082948305 0.088562362 0.47512504
0.050990559 0.11061238 0.44169402
0.084537938 0.09313105 0.47589919
0.052936073 0.11541768 0.44224131
0.086413175 0.097885266 0.47648904
0.054685783 0.12012446 0.44292954
0.088136569 0.10263977 0.47722721
0.056386031 0.12453862 0.44351706
0.089883812 0.10711587 0.47780043
0.05814784 0.12941241 0.44427848
0.091514744 0.111844 0.47861543
0.059897322 0.13398083 0.44489649
0.09332028 0.11653167 0.47923943
0.061738361 0.13867664 0.44549
0.095057458 0.12116416 0.47990206
0.063328519 0.143181 0.44623092
0.096871495 0.12573701 0.48045936
0.06486477 0.14783011 0.44709808
0.098455653 0.13052772 0.48135182
0.066761285 0.15258235 0.44766617
0.10030015 0.13512081 0.48188969
0.068471178 0.15697065 0.44823113
0.10217915 0.1399318 0.48250479
0.070086874 0.16185749 0.4491418
0.10369653 0.1444497 0.4833236
0.071963757 0.16646668 0.44965622
0.10540488 0.14907742 0.48401192
0.073519245 0.17112873 0.45051122
0.10699142 0.15367833 0.48480549
0.075326234 0.17578909 0.4511199
0.10893017 0.15844074 0.48533753
0.076996058 0.18032724 0.45180026
0.110705 0.16307139 0.48596248
0.078740373 0.18507951 0.45251688
0.11240643 0.16755581 0.48658463
0.080601394 0.18979886 0.45310289
0.11402618 0.1723434 0.48744082
0.082384855 0.19456528 0.45378852
0.11571254 0.17692162 0.48812541
0.083903849 0.19908401 0.45460618
0.11753304 0.18172762 0.48879504
0.085835099 0.20378065 0.45511207
0.10346607 0.19715758 0.47306269
0.10840836 0.19453412 0.47843811
0.11065586 0.1933209 0.48102018
0.11567041 0.19123046 0.48258379
0.11895611 0.18952914 0.48586619
0.11929071 0.18627572 0.48939472
0.088465169 0.20501953 0.45743313
0.091713838 0.20331199 0.46085143
0.094973966 0.20164563 0.46396029
0.097884506 0.20007503 0.46730047
0.10132896 0.19829829 0.47069556
0.10490709 0.19647609 0.47406188
0.10792395 0.19490114 0.47716305
0.11133641 0.19313438 0.48057067
0.1144186 0.1914584 0.48419484
0.11747993 0.18981186 0.48767114
0.11993587 0.18868002 0.4891724
0.030571766 0.065012209 0.4384101
0.031682588 0.061799243 0.43975464
0.034666613 0.060223982 0.44294092
0.038101375 0.058442548 0.44639212
0.041301809 0.05676512 0.44972724
0.044455107 0.055099525 0.45310092
0.04764007 0.053398043 0.4566389
0.05094745 0.051691849 0.45989966
0.054337431 0.049945168 0.46322736
0.057654593 0.048239648 0.46645883
0.061040934 0.046472691 0.46993384
0.064215675 0.047516182 0.47246927
0.032325394 0.069662407 0.43906569
0.066119783 0.052223701 0.47305152
0.034252949 0.074330255 0.43956056
0.067734078 0.05698695 0.47390062
0.035743259 0.078962147 0.44046381
0.069470987 0.06148389 0.47449452
0.037457656 0.08359962 0.4411512
0.071222678 0.066075549 0.47512221
0.039212819 0.088381886 0.44187251
0.072924934 0.07073573 0.47583303
0.041042984 0.093044981 0.44246
0.074652292 0.0754852 0.47656479
0.042561412 0.097597398 0.44329533
0.076407686 0.080065973 0.47718331
0.04447474 0.10226903 0.44380599
0.078197777 0.084715962 0.47780323
0.046158299 0.10673903 0.44443825
0.079902366 0.089281604 0.47846365
0.04775076 0.11154263 0.44532919
0.081471644 0.093865238 0.47926524
0.049640447 0.11618979 0.44585046
0.083245486 0.098662749 0.47997609
0.051303376 0.12073728 0.44654229
0.084845245 0.10322379 0.48073643
0.05303032 0.12547399 0.44726798
0.086616129 0.10797118 0.48142469
0.054760147 0.12994076 0.44785342
0.088124573 0.11249235 0.48225385
0.056670189 0.13484603 0.44848621
0.089966893 0.11707829 0.4827902
0.058248393 0.13961625 0.44937408
0.091719642 0.12180482 0.48348549
0.059859909 0.1440178 0.4500418
0.09349075 0.12656161 0.4841783
0.061741956 0.1488004 0.45063946
0.095172584 0.13114104 0.4848679
0.063463457 0.15321511 0.45120656
0.09692622 0.13584206 0.48554936
0.065054491 0.15805964 0.45211974
0.09859623 0.14031985 0.48619881
0.066856682 0.1625151 0.45262879
0.10035953 0.1449904 0.48685533
0.068478987 0.16709355 0.45337602
0.1019133 0.1497182 0.48774546
0.070322245 0.17187685 0.45401192
0.10382342 0.15444669 0.48828816
0.071982883 0.17657201 0.45478114
0.10557071 0.1588763 0.48883769
0.073771074 0.18129528 0.45544019
0.10719842 0.16363423 0.48967099
0.075462297 0.18585385 0.45611006
0.10885449 0.1682578 0.49040824
0.077321127 0.19050169 0.45666179
0.11067042 0.17294386 0.49102131
0.078984179 0.19515717 0.45740846
0.1123438 0.17756452 0.49174017
0.080627277 0.19989569 0.45821688
0.11408555 0.18226036 0.49243057
0.082290769 0.20456383 0.45896956
0.1001171 0.19806966 0.47531411
0.1013243 0.19734985 0.4771651
0.11117666 0.19200616 0.48865658
0.11444703 0.19012496 0.49320251
0.11584845 0.18681982 0.49302375
0.084957212 0.20581558 0.46087655
0.088053323 0.20421681 0.46393955
0.091481306 0.20242104 0.46750587
0.094605044 0.20075439 0.47096112
0.097754508 0.19909108 0.47432891
0.10159986 0.19720466 0.47745743
0.10464552 0.19554619 0.48105475
0.10785373 0.19387496 0.48432806
0.11099064 0.19223474 0.48757008
0.11438988 0.19047995 0.49092981
0.11638778 0.18944339 0.49293956
0.027166579 0.06589023 0.4421801
0.028136374 0.062603623 0.4432379
0.031505696 0.060848299 0.4466767
0.034764435 0.059135243 0.45010707
0.038013436 0.0574206 0.4535729
0.041197926 0.055769682 0.4567678
0.044474065 0.054034874 0.46030235
0.047748178 0.052337222 0.46358898
0.051046658 0.050619096 0.46695349
0.054289825 0.048904628 0.47043285
0.057732206 0.047159821 0.47361541
0.060539275 0.047902599 0.47612655
0.029029217 0.070497461 0.44270745
0.062536865 0.052836232 0.47685978
0.030773908 0.074914984 0.44325334
0.064196244 0.057579614 0.47765478
0.032447115 0.079669572 0.44404054
0.066092566 0.062194038 0.4781529
0.034128886 0.084290728 0.44475147
0.067773312 0.066919237 0.47891781
0.035842266 0.088916287 0.4454338
0.069555372 0.071492836 0.47950667
0.037556157 0.093682669 0.44618732
0.071357474 0.076336578 0.48021346
0.039277405 0.098278672 0.44684693
0.073088035 0.080854505 0.48082423
0.041069418 0.1030031 0.44750282
0.074560136 0.085400037 0.48170131
0.042695634 0.10756895 0.44823983
0.076403797 0.090006426 0.48224673
0.04436896 0.11207287 0.44889933
0.07823813 0.09484686 0.48292041
0.046359092 0.11666254 0.44929332
0.079865485 0.099497497 0.48369944
0.048108324 0.1215276 0.45006257
0.081504695 0.1040277 0.48440564
0.049615808 0.12609923 0.45091838
0.083185613 0.10865937 0.48512274
0.051424257 0.13084225 0.45156771
0.085020676 0.11332323 0.48570582
0.053215757 0.13546553 0.45217267
0.086696699 0.11788367 0.48639145
0.055107102 0.14012298 0.45269755
0.088428363 0.12252232 0.4870626
0.056649823 0.14486611 0.45360625
0.090099394 0.12709397 0.48775882
0.058395073 0.14949405 0.45425871
0.091802813 0.13190874 0.48854721
0.060360443 0.15420848 0.45474035
0.093569838 0.13645822 0.48913845
0.061818458 0.15877405 0.45564136
0.095271088 0.1412448 0.48991457
0.063460104 0.16328934 0.45633757
0.097066872 0.14589027 0.49052662
0.065252408 0.16801718 0.45699495
0.098690011 0.15027465 0.49117425
0.067014016 0.17273186 0.45767558
0.1002881 0.15508464 0.49206296
0.068651706 0.17725731 0.45838079
0.10203974 0.15970558 0.49270561
0.07047949 0.18179455 0.45890653
0.10392839 0.16447952 0.49329242
0.072148733 0.18654877 0.45969743
0.10535673 0.16894405 0.49417096
0.073809758 0.19121659 0.46045235
0.1072537 0.17350677 0.49464214
0.075618729 0.19581243 0.46102628
0.10911977 0.17815389 0.49518645
0.077260628 0.20046833 0.46179381
0.11060252 0.18267122 0.49603873
0.07900241 0.20510995 0.46245658
0.088462949 0.20265147 0.47356319
0.093008742 0.20070751 0.47531372
0.094081365 0.19988348 0.47821441
0.10370011 0.19484839 0.48819482
0.10838646 0.19274399 0.49068272
0.11181217 0.19084057 0.49498746
0.11248215 0.1876802 0.49670404
0.081677184 0.20647632 0.46466532
0.084806055 0.20484713 0.46785268
0.088112116 0.20315744 0.47100452
0.091161944 0.20150633 0.47454086
0.094563603 0.19977348 0.47774497
0.098094471 0.19796814 0.48111618
0.10118203 0.19630416 0.48464513
0.10444545 0.19458924 0.48807621
0.10785819 0.19283238 0.49141565
0.11085948 0.19124566 0.49463639
0.1129983 0.19015038 0.49669001
0.023921639 0.06654501 0.44568008
0.024760712 0.063317478 0.44690666
0.028200239 0.061530814 0.45038143
0.03131495 0.059886694 0.45370635
0.034506332 0.058203459 0.45710391
0.037768353 0.056523338 0.46030173
0.041352369 0.054700609 0.46365702
0.044430651 0.053026926 0.46727529
0.047604922 0.051370867 0.47053099
0.050867405 0.049617682 0.47422516
0.054004416 0.047979984 0.47745001
0.057089355 0.04828877 0.47962463
0.025692577 0.071063131 0.44625154
0.059102178 0.053528775 0.48056415
0.027477875 0.075658031 0.44684809
0.060837843 0.058369882 0.48133445
0.02910817 0.080408111 0.44767487
0.062651128 0.06286034 0.4818505
0.030837432 0.085039571 0.44834471
0.064343095 0.067700863 0.48266315
0.032481164 0.089814529 0.44917107
0.066034257 0.072327718 0.48336783
0.034194823 0.094328463 0.44979629
0.067848712 0.076906607 0.48392776
0.036001757 0.098784342 0.45030096
0.069669664 0.081455685 0.4844662
0.037731975 0.10372069 0.45112506
0.071090393 0.086064726 0.48542571
0.039424777 0.10836723 0.45183814
0.073139995 0.090739399 0.48580492
0.041077264 0.11294958 0.45255789
0.074847013 0.095425941 0.48652449
0.043034181 0.11751305 0.45297095
0.076449797 0.099991575 0.48728424
0.04471752 0.12221964 0.45372385
0.078211322 0.10476708 0.48799592
0.046411246 0.12682629 0.45441574
0.079883382 0.10936426 0.48870414
0.048195664 0.13133661 0.45497009
0.081536248 0.11396395 0.48943236
0.04985607 0.13614559 0.45579746
0.083331496 0.11865821 0.49006975
0.051631395 0.14067066 0.45636821
0.084923632 0.12339085 0.49092492
0.053375658 0.14551581 0.45713216
0.086786181 0.12804352 0.49147546
0.055191528 0.1501089 0.45769796
0.08853396 0.13263485 0.4921068
0.05678425 0.15483344 0.4585484
0.090254746 0.1373437 0.49282432
0.058433179 0.15935047 0.45923841
0.091961384 0.14202696 0.49354258
0.060106266 0.1639833 0.45996374
0.093714051 0.14666876 0.49419484
0.061845955 0.16835424 0.46049079
0.095429264 0.15120664 0.49483076
0.063600682 0.17336628 0.46132952
0.097045764 0.1558924 0.49563825
0.065318763 0.17799097 0.46200681
0.098936334 0.16063246 0.49620596
0.067024127 0.18268427 0.46273142
0.10049684 0.16507441 0.49694401
0.068747491 0.18730563 0.46340188
0.10220487 0.16987661 0.49772146
0.070596933 0.19197285 0.46397263
0.10390619 0.17444184 0.49838486
0.072256513 0.19655332 0.46468452
0.10587931 0.17908612 0.49882326
0.073930189 0.20112839 0.46537989
0.10745458 0.18356773 0.49956709
0.0756547 0.20573935 0.46604392
0.078569852 0.20661113 0.47159874
0.085098334 0.20380537 0.47420776
0.089872554 0.2016927 0.47652984
0.10332604 0.19382551 0.4961049
0.10631289 0.19244988 0.49792466
0.10914836 0.18833672 0.50034153
0.07814762 0.20727362 0.46815476
0.081495456 0.2055181 0.47164917
0.084606104 0.20386125 0.47507083
0.087884814 0.20215328 0.4784162
0.091273494 0.20045362 0.4814271
0.094533987 0.19874904 0.48479527
0.097793087 0.1970274 0.48828334
0.10114594 0.1952876 0.491658
0.1046948 0.19348107 0.49499208
0.10780575 0.19181238 0.49849388
0.10978749 0.19083886 0.50011504
0.020662801 0.066997878 0.44909084
0.021458194 0.063991502 0.45066178
0.024681116 0.062292673 0.4540858
0.028188448 0.060530782 0.45722058
0.031359807 0.058836732 0.46074235
0.034589328 0.05713588 0.46416345
0.037891358 0.055449568 0.46730235
0.041123502 0.053733382 0.47082126
0.044553101 0.051977731 0.47410995
0.047475517 0.050407402 0.4774183
0.050806649 0.0486653 0.48086357
0.053803995 0.049046136 0.48321459
0.022235451 0.071814843 0.45000792
0.05581475 0.054461971 0.4842473
0.024056811 0.076331139 0.45052928
0.057670128 0.059093703 0.4847942
0.025750278 0.081149906 0.45132938
0.059284471 0.063677885 0.4855521
0.027574535 0.08576227 0.45189679
0.06087504 0.068208955 0.48630619
0.029247709 0.090381078 0.4526149
0.062786564 0.072875217 0.48681587
0.03093102 0.095106654 0.45337749
0.064525917 0.07773269 0.48759091
0.032801144 0.099820107 0.4539516
0.066427395 0.082358196 0.48808965
0.034514476 0.10432373 0.4545719
0.06773296 0.086777046 0.48906475
0.036085498 0.10885328 0.45534429
0.069486693 0.091306299 0.48965868
0.037886124 0.11348954 0.45594692
0.071282029 0.096062675 0.4903276
0.039656647 0.11835913 0.4566977
0.073231362 0.10090606 0.49089056
0.041257378 0.12282141 0.45740685
0.074656777 0.10551957 0.49184775
0.043096196 0.12751506 0.45800143
0.076529905 0.11005227 0.49232695
0.044809937 0.13222101 0.45872432
0.078260913 0.1147934 0.49305087
0.046633441 0.13689232 0.45932248
0.079877399 0.11934105 0.49378812
0.048395764 0.14146091 0.45992804
0.081645124 0.12391667 0.49439198
0.049901772 0.14631829 0.46093073
0.083341956 0.12871799 0.49517995
0.051682394 0.15069032 0.46141842
0.085088573 0.13323227 0.4957732
0.053263806 0.15538487 0.46226463
0.086854592 0.13794923 0.49645069
0.054964177 0.16021481 0.46306369
0.088569447 0.14273983 0.49721557
0.056765284 0.16459888 0.46353748
0.090329468 0.14704826 0.49769098
0.058549233 0.16947028 0.46427608
0.091932409 0.15183641 0.49856383
0.06030475 0.17421955 0.46498027
0.093691736 0.1564053 0.49917248
0.061949756 0.17881262 0.46571279
0.095566168 0.16105954 0.49971223
0.063736863 0.18336499 0.46628591
0.097254574 0.16579992 0.50047737
0.065421775 0.18797824 0.46698976
0.098873377 0.17051582 0.50129801
0.067073002 0.19259174 0.46772662
0.10064457 0.17521766 0.50196272
0.068937421 0.19720329 0.46825442
0.10239073 0.17970026 0.50254029
0.07067734 0.20199041 0.46899307
0.10415178 0.18442497 0.50322658
0.072265759 0.20666875 0.46982419
0.07392814 0.20828988 0.47189638
0.077867895 0.20644979 0.47447097
0.099426828 0.19474396 0.49970341
0.10547405 0.19243354 0.50015557
0.1057232 0.18900952 0.50402659
0.075009555 0.20792302 0.4716619
0.078241266 0.20621277 0.47514156
0.081279501 0.20462476 0.47827756
0.084539272 0.20290802 0.48173055
0.087829217 0.20117465 0.48522058
0.091089711 0.19947767 0.48853716
0.094455168 0.19772579 0.49196231
0.097741768 0.19604659 0.49509183
0.10107327 0.19428599 0.49866226
0.10421653 0.1925976 0.50221664
0.10615159 0.19160955 0.50405425
0.017276753 0.067897789 0.45285326
0.017477486 0.06666512 0.45589933
0.020690035 0.064998224 0.45922434
0.024035415 0.063129477 0.46250722
0.027313616 0.06150867 0.46572852
0.030725585 0.059584305 0.46916947
0.034015443 0.057824966 0.47248381
0.03717668 0.05610466 0.47570324
0.040551849 0.054133486 0.4787541
0.043889932 0.052338101 0.48221642
0.047223683 0.050670527 0.48552117
0.049806956 0.049957555 0.48733601
0.018915551 0.07266894 0.45368248
0.019048095 0.071995594 0.45714203
0.022198029 0.070290059 0.46038201
0.025474213 0.068537809 0.46374768
0.028806083 0.066909373 0.46714047
0.032035891 0.065089263 0.4704766
0.035352357 0.063533381 0.47384101
0.038734764 0.061712213 0.47731814
0.041980118 0.060204048 0.4806076
0.045226507 0.058387242 0.48395836
0.048618495 0.056620043 0.48743379
0.051795874 0.055231512 0.4882971
0.020712402 0.077151641 0.45421067
0.020779783 0.076578341 0.45784375
0.024020337 0.075016387 0.46113929
0.027160212 0.073311165 0.46436998
0.030511323 0.071484491 0.4678193
0.033659115 0.069724068 0.47106808
0.037124727 0.068150565 0.47457355
0.040369529 0.066358425 0.47791803
0.043789353 0.064940915 0.48135075
0.046940964 0.062958501 0.48464647
0.050307136 0.061259333 0.48808476
0.053519133 0.059965804 0.48905119
0.022425056 0.081688285 0.45484844
0.022528568 0.081435926 0.45850751
0.025462169 0.079642795 0.46156505
0.028917553 0.078009494 0.46507278
0.032258473 0.076225579 0.46850434
0.035599541 0.074409798 0.47194228
0.038835548 0.072803698 0.47524226
0.042099345 0.070776001 0.47865033
0.045365978 0.069355845 0.48194224
0.048668377 0.06759131 0.48533446
0.051935472 0.065921441 0.48867559
0.055074979 0.064637981 0.48982498
0.024225678 0.086589873 0.45558614
0.02401383 0.086106613 0.45896468
0.027209155 0.084186032 0.46228862
0.030683186 0.082606584 0.46580303
0.033981286 0.08086846 0.46918613
0.037274409 0.079150826 0.47256061
0.040574513 0.077397473 0.47594857
0.043734707 0.075447232 0.4792459
0.047071986 0.073754013 0.48265636
0.050468512 0.072311461 0.48607248
0.053669646 0.070686668 0.48934394
0.056692347 0.069164604 0.49053815
0.025903145 0.091131695 0.45626089
0.025690723 0.09058249 0.45963675
0.028981235 0.088854782 0.46301082
0.032280855 0.087229237 0.46637329
0.035567537 0.085640371 0.46971667
0.038983412 0.083854169 0.47321784
0.042233612 0.081923954 0.4765943
0.045694374 0.080299355 0.48010531
0.048925746 0.078555286 0.483428
0.052266847 0.077139258 0.4867878
0.055387635 0.075185671 0.49004942
0.058460105 0.07392697 0.49128535
0.027755696 0.09581653 0.45683756
0.027503978 0.095346242 0.46037835
0.030758994 0.093374565 0.46376735
0.034046046 0.091821849 0.46710402
0.037391566 0.090195291 0.47050905
0.040863745 0.088411808 0.47406164
0.044000529 0.086617209 0.47730693
0.04733932 0.084891699 0.48072514
0.050590478 0.083292186 0.48403782
0.053992547 0.081690587 0.48749015
0.057014279 0.079973124 0.49061421
0.060278017 0.078659177 0.49187079
0.029306814 0.10033891 0.45762572
0.029240988 0.10001264 0.46106863
0.032509126 0.098010309 0.46447575
0.035815686 0.09646631 0.46782869
0.03903953 0.094748706 0.47113928
0.042437151 0.092956901 0.47462469
0.045767408 0.091262184 0.47802898
0.049052242 0.089534916 0.48139772
0.052297078 0.087730385 0.48474467
0.055629686 0.086230211 0.48811308
0.058815751 0.084386423 0.49141344
0.062030341 0.083151773 0.49248853
0.031290963 0.10506018 0.45809254
0.030861394 0.10454718 0.4616771
0.034207784 0.10272975 0.46512029
0.037516147 0.10119644 0.46847281
0.040979803 0.099439457 0.47201234
0.044199903 0.097830996 0.47529811
0.047349818 0.095886514 0.47858486
0.050971907 0.094387427 0.48222014
0.054028291 0.092455991 0.48541802
0.057353944 0.090858959 0.48879895
0.060606629 0.089151002 0.49213424
0.063801743 0.08788763 0.49319473
0.032963578 0.10966066 0.45880187
0.032692764 0.10911508 0.46247372
0.036014229 0.10751633 0.46585113
0.039234087 0.10549185 0.46921805
0.042635523 0.1041809 0.47261295
0.045878567 0.10242593 0.47594854
0.049289297 0.10046837 0.47947848
0.052582495 0.09884008 0.48283559
0.055732545 0.097270906 0.48604906
0.058931407 0.095515177 0.489344
0.062330514 0.093738109 0.49282795
0.065287888 0.092435807 0.49399218
0.034484319 0.11422031 0.45963866
0.034415595 0.11382142 0.46314311
0.03777032 0.11204395 0.46658617
0.040973578 0.11022609 0.46989733
0.044357263 0.1087193 0.4733142
0.047551032 0.10694416 0.47660825
0.051015817 0.1053879 0.4801096
0.054325983 0.10356563 0.48352027
0.057492323 0.10179887 0.48678741
0.060629062 0.10003395 0.49002686
0.063997984 0.098276645 0.49347907
0.067319989 0.097193539 0.49448061
0.036165185 0.11888848 0.46037441
0.036232449 0.11836205 0.46393168
0.039532065 0.11686514 0.467269
0.042760205 0.11501466 0.47060952
0.046140924 0.11344727 0.47403547
0.049407225 0.11169675 0.47739166
0.052617982 0.10999953 0.48068616
0.055802628 0.1082381 0.48396915
0.059134334 0.10658281 0.48736706
0.0623959 0.10485683 0.49071407
0.065760486 0.10325 0.49413285
0.068822786 0.10153416 0.49522126
0.037879251 0.12361872 0.46110934
0.037980996 0.12306289 0.46462587
0.041219924 0.12123039 0.46797282
0.044431508 0.11962073 0.47125098
0.047701616 0.11790443 0.47460398
0.051146403 0.11626481 0.47810316
0.05444961 0.11450843 0.48149455
0.057488933 0.1127712 0.48463869
0.060967624 0.11117202 0.48816127
0.064029478 0.1093975 0.49133351
0.067372784 0.10756413 0.49477693
0.070738509 0.10649333 0.49584925
0.039717533 0.12830459 0.4617005
0.039841272 0.1279034 0.46539587
0.042742167 0.12604424 0.46843612
0.046113107 0.12445912 0.4718565
0.049374055 0.12253442 0.47524181
0.05281201 0.1208093 0.47875142
0.056082483 0.11922601 0.48207876
0.059408881 0.1174107 0.48550305
0.062471628 0.11584046 0.48863617
0.065935731 0.11401355 0.49218979
0.06930542 0.11245465 0.49560392
0.072327837 0.11114864 0.49672151
0.041515175 0.13295433 0.46231291
0.041241005 0.13253039 0.46578264
0.044624656 0.13074175 0.46925455
0.047900584 0.12912172 0.47259411
0.051131226 0.12722486 0.47594601
0.054578383 0.12569059 0.47942677
0.057855442 0.12393095 0.48279467
0.06100373 0.12207448 0.48606268
0.064309157 0.12046117 0.48942813
0.067720138 0.11881636 0.49289715
0.070973873 0.11699574 0.49625543
0.074171364 0.11566551 0.49722317
0.043237664 0.13762961 0.46301165
0.043133367 0.13696952 0.46666071
0.046436653 0.13532318 0.47003064
0.049738005 0.13352984 0.47342753
0.053005483 0.13192034 0.47675723
0.056249581 0.1301375 0.48009926
0.059530661 0.12840855 0.48346487
0.062832713 0.12698922 0.48678929
0.066117004 0.12518817 0.49017194
0.069365516 0.12328885 0.49354079
0.07274799 0.12175585 0.49696165
0.07556206 0.12034827 0.49812433
0.044733137 0.14214864 0.46385241
0.04486341 0.14150368 0.46737042
0.048029911 0.13987055 0.47061157
0.051472232 0.13824949 0.47410485
0.05479835 0.13657297 0.47750175
0.058031313 0.13476539 0.48083836
0.061239086 0.1331057 0.48412275
0.064480707 0.13129409 0.48746812
0.067809068 0.12999266 0.49079373
0.071164683 0.12801202 0.49427733
0.074414313 0.12630235 0.49761015
0.077323593 0.12493266 0.49872273
0.046471342 0.1466371 0.4644407
0.046530578 0.14639258 0.46795276
0.049838766 0.14478472 0.47131971
0.053103976 0.14289974 0.47470117
0.056460466 0.14107043 0.47815597
0.059704781 0.13948379 0.48145983
0.062996879 0.13770674 0.48484501
0.066248775 0.13609329 0.48816109
0.069575712 0.13433985 0.49157378
0.072775066 0.13273489 0.49483973
0.076103553 0.13082144 0.49828517
0.079181314 0.12956849 0.49933755
0.048327222 0.15133646 0.46502155
0.048289835 0.15101814 0.46867156
0.051646218 0.14934003 0.47209671
0.055006441 0.1476317 0.47553131
0.058203377 0.14593777 0.47881243
0.061427511 0.14412455 0.48214197
0.064745866 0.14218941 0.48558226
0.067955106 0.14065021 0.48884448
0.071293816 0.13897417 0.49225292
0.074568748 0.13748166 0.49556661
0.07780803 0.13558494 0.49892646
0.080960505 0.13429293 0.49997321
0.050065856 0.15606135 0.4657298
0.050127223 0.15596268 0.46940008
0.053321484 0.15385312 0.47275999
0.056618825 0.15224485 0.47611701
0.059880972 0.15051797 0.47946474
0.06313473 0.14879462 0.48280403
0.066435829 0.14715347 0.48617095
0.069759406 0.14530797 0.48959854
0.072962105 0.14357817 0.492892
0.07631512 0.14191592 0.49631092
0.079481982 0.14015189 0.499578
0.08275532 0.13914514 0.50072563
0.05165109 0.16072181 0.46655494
0.051780477 0.16038728 0.47006038
0.054947179 0.15870754 0.4733108
0.058328997 0.15688129 0.4767884
0.061533317 0.15521543 0.48007083
0.064854123 0.15345842 0.48347858
0.068147361 0.15167762 0.48686552
0.071398318 0.14989284 0.49021426
0.074519962 0.14824502 0.49341688
0.078072563 0.14664358 0.49700809
0.081218183 0.14492553 0.50024658
0.084450595 0.14360972 0.50135535
0.05346369 0.16526985 0.46710098
0.053465083 0.16497535 0.47071761
0.056650758 0.16330491 0.47398376
0.059842467 0.16162363 0.47725755
0.063230567 0.15986748 0.48072723
0.066719256 0.15800056 0.48431137
0.069865316 0.15625696 0.48755527
0.073208317 0.15451416 0.49098071
0.076504014 0.15295747 0.49432611
0.079794399 0.15130052 0.49768624
0.083012551 0.14945418 0.50101674
0.086330444 0.14834952 0.50198597
0.055012323 0.17009106 0.46804368
0.055302098 0.16970767 0.47148728
0.058466047 0.16791169 0.47475791
0.06174726 0.16617405 0.47812536
0.0649468 0.16452803 0.48139948
0.068255223 0.16275868 0.48479822
0.071548015 0.16112228 0.48815656
0.074980401 0.15932357 0.49167541
0.07815554 0.15781674 0.49489981
0.081421427 0.15593213 0.49828184
0.084723845 0.15408599 0.50169003
0.087828077 0.15287229 0.50272483
0.056915134 0.17459872 0.46848112
0.056860507 0.17437953 0.47201172
0.060080431 0.17269085 0.47531301
0.063292399 0.17083922 0.47863883
0.066517025 0.16910058 0.48195422
0.070023447 0.16745296 0.48551187
0.073359311 0.16566461 0.48893964
0.07669653 0.16391912 0.49236026
0.079944983 0.16222268 0.49568939
0.083176687 0.16058554 0.49899149
0.086215153 0.15880199 0.50214392
0.089507878 0.15760621 0.5035333
0.058652814 0.17929256 0.4691745
0.058560662 0.17902902 0.4726713
0.061849378 0.17715587 0.47607216
0.065137103 0.17557716 0.47941449
0.068360835 0.17370154 0.48275587
0.071800247 0.17215839 0.48623124
0.07504569 0.1703196 0.48958543
0.078356519 0.16859855 0.49297693
0.081637777 0.16679676 0.49635696
0.085046887 0.16513142 0.49982825
0.088122346 0.16339344 0.50300586
0.091583833 0.16219935 0.50394404
0.060366761 0.18390161 0.46984789
0.060493577 0.1834445 0.47359142
0.063622124 0.1817203 0.47681534
0.066946372 0.17999533 0.48022002
0.070153497 0.17818755 0.48353279
0.073373035 0.17668766 0.4867968
0.076741539 0.17487672 0.49025911
0.080027841 0.17302491 0.49365354
0.083242863 0.171574 0.49690384
0.086534157 0.16988321 0.50027138
0.089895077 0.16820869 0.50370002
0.092983827 0.16674052 0.50481546
0.062124368 0.18855432 0.47050089
0.062179655 0.18821263 0.47421482
0.065275967 0.18639512 0.47742724
0.068558507 0.18469369 0.48078883
0.071958348 0.18315679 0.48422647
0.07518068 0.18119489 0.4875834
0.078366399 0.17947423 0.49085939
0.08184664 0.17802177 0.4943547
0.084967524 0.17604665 0.49762061
0.088270433 0.17444733 0.50098103
0.091503695 0.17276379 0.50429362
0.094833352 0.17142028 0.5053556
0.063747168 0.19349042 0.47142965
0.063885227 0.19281244 0.47488913
0.067040056 0.19090641 0.47817284
0.070334144 0.18925294 0.4815357
0.073586494 0.18776825 0.48482704
0.076902106 0.18596447 0.48823911
0.080117039 0.18423516 0.49154377
0.08343111 0.1824916 0.49494267
0.086716115 0.18074037 0.49831623
0.090017341 0.17895462 0.50171155
0.093217492 0.17738605 0.50497109
0.09642788 0.17618424 0.50622952
0.065694295 0.19807144 0.47186121
0.065566137 0.1973483 0.47555315
0.06875775 0.19566751 0.47882679
0.07202439 0.19403285 0.48216063
0.075382285 0.1924141 0.48557556
0.07861127 0.19067456 0.48889518
0.081955269 0.18887477 0.4923327
0.085260004 0.18711996 0.49572518
0.088538527 0.18546906 0.49907315
0.091917552 0.18379854 0.5025177
0.094968863 0.18206099 0.50567299
0.09824343 0.18065274 0.50677073
0.067326553 0.20261182 0.47257936
0.067256644 0.20207982 0.47618783
0.070463106 0.20033902 0.47948688
0.073811255 0.19891067 0.48285559
0.077127025 0.19691372 0.48630559
0.080308333 0.19538076 0.48954082
0.08375062 0.19347712 0.49308932
0.087048858 0.19190204 0.49644068
0.09011142 0.19013058 0.49961296
0.093544468 0.18869779 0.50306088
0.096702777 0.18683238 0.50633991
0.099834159 0.18527555 0.50760746
0.068908945 0.2073451 0.47344434
0.069062591 0.20681711 0.47673097
0.072289526 0.20504048 0.48002696
0.075428739 0.20343092 0.48346415
0.078680836 0.20156021 0.48683074
0.082241401 0.19974495 0.49047109
0.085314848 0.19821592 0.49360603
0.088613577 0.19629252 0.49702594
0.091904223 0.19466747 0.50038004
0.095233105 0.19322716 0.5036459
0.098548226 0.19137999 0.50705206
0.10180663 0.19002974 0.50807136
0.071547419 0.20864734 0.47547787
0.07488136 0.20695676 0.47856519
0.077980489 0.20529667 0.4820385
0.081264958 0.20352989 0.48576972
0.084608249 0.20181994 0.48896503
0.087866627 0.20011674 0.49232957
0.09128876 0.19835411 0.49568495
0.094591364 0.19664377 0.49898604
0.097813599 0.19495752 0.50232625
0.10100206 0.19327776 0.50570685
0.10258864 0.19232534 0.50818288
