# .PCD v0.7 - Point Cloud Data file format
VERSION 0.7
FIELDS x y z
SIZE 4 4 4
TYPE F F F
COUNT 1 1 1
WIDTH 1190
HEIGHT 1
VIEWPOINT 0 0 0 1 0 0 0
POINTS 1190
DATA ascii
0.032258227 0.097337238 0.61293757
0.023829475 0.080205165 0.64036435
0.02996422 0.10204063 0.60411245
0.029161712 0.1014483 0.60481167
0.030481867 0.097640969 0.61212671
0.021584485 0.079770014 0.64055455
0.017292053 0.075989179 0.64561164
0.016911849 0.075490467 0.64666486
0.024095546 0.099986933 0.60651547
0.022918575 0.098160826 0.60895962
0.021673854 0.095755413 0.61355335
0.015053477 0.082218461 0.63498122
0.01326625 0.078809455 0.64000726
0.014072549 0.077425137 0.64264262
0.015979778 0.075698368 0.64606088
0.022478953 0.099903859 0.60618788
0.021693543 0.097769305 0.60927737
0.020059697 0.095876463 0.61263543
0.013380431 0.082141712 0.63469732
0.012494031 0.079527207 0.63828307
0.011654731 0.077996947 0.64115208
0.051515408 0.092580274 0.61711669
0.050845705 0.091280907 0.61995053
0.04425839 0.07801073 0.6408115
0.043483734 0.076438203 0.64285123
0.048656374 0.09483698 0.61608374
0.048183333 0.092534952 0.62027472
0.046251461 0.08986821 0.621746
0.041620459 0.07995338 0.63693351
0.042063009 0.079590634 0.64027512
0.040234774 0.077184401 0.64403486
0.043300103 0.095337108 0.61098695
0.044324867 0.095768817 0.61378717
0.042288452 0.092781328 0.61887795
0.04292414 0.089979962 0.62042373
0.039032597 0.079780541 0.63611913
0.036660902 0.080103628 0.63890123
0.035164438 0.076871246 0.64389998
0.03279233 0.074371949 0.64375293
0.040716171 0.096228503 0.61010677
0.039085697 0.096370369 0.61362457
0.038072504 0.091644056 0.61732888
0.032337688 0.079361588 0.63698411
0.030709863 0.078163579 0.64254642
0.029833706 0.075006418 0.64387029
0.035376608 0.097655408 0.60788953
0.034559771 0.097377606 0.61249864
0.032753196 0.091778532 0.61661857
0.027106777 0.080115311 0.63517046
0.025804847 0.079082385 0.6416741
0.024696182 0.075113341 0.64352024
0.030952364 0.10008921 0.60288751
0.030169092 0.098561741 0.60561287
0.028441753 0.097243577 0.61071026
0.028417245 0.092333183 0.61555421
0.022744641 0.080708735 0.63418448
0.019927032 0.078924902 0.6408273
0.019014172 0.074754216 0.64337134
0.017712206 0.073329963 0.64576113
0.028883256 0.10073163 0.60293388
0.026247717 0.09817601 0.60450286
0.024956323 0.095307253 0.60893649
0.023198567 0.092454575 0.61314279
0.01707999 0.080095492 0.632837
0.016221885 0.077700406 0.63726038
0.015244752 0.074852698 0.64187688
0.01578768 0.07406947 0.64535356
0.022143956 0.098497041 0.60447067
0.021232422 0.095833622 0.60858893
0.019426681 0.093693614 0.61142844
0.012786444 0.080125585 0.63295019
0.012590498 0.078214593 0.63650286
0.010996267 0.076068938 0.64023578
0.052081496 0.090121627 0.61556149
0.051554706 0.088470586 0.61834347
0.044861443 0.075272001 0.63929754
0.043992322 0.074336119 0.64180475
0.04995586 0.090925194 0.61332184
0.05004508 0.086663745 0.61962837
0.047173668 0.086883403 0.62057096
0.042431261 0.077579856 0.63548225
0.044614989 0.075719878 0.63674927
0.04145731 0.072767667 0.64197123
0.043214135 0.093983985 0.61021501
0.04538982 0.091867395 0.61067837
0.04121086 0.086853273 0.6171701
0.043082356 0.086944796 0.61889923
0.038923096 0.077175185 0.63436353
0.036506828 0.076784596 0.63428676
0.035771001 0.072156645 0.64187407
0.032867335 0.073591471 0.64316177
0.040444523 0.092813484 0.60807383
0.040493708 0.091109976 0.6087361
0.037978426 0.088147253 0.61598641
0.032444358 0.076648168 0.6342684
0.0311989 0.07169947 0.64074463
0.029857261 0.072028399 0.64168841
0.036000073 0.09405639 0.60616159
0.035294734 0.090364613 0.60860682
0.034032419 0.088832088 0.61351687
0.028097663 0.075962514 0.63405311
0.026531667 0.072284766 0.63735843
0.025551435 0.071878277 0.6414575
0.031765047 0.095007755 0.60485411
0.030240241 0.09188436 0.60780525
0.028911129 0.089635089 0.61181045
0.02252942 0.076184265 0.63326335
0.021426849 0.073649652 0.63691545
0.02095712 0.072382279 0.64111096
0.026983026 0.094721682 0.60460246
0.027380571 0.093060866 0.60644734
0.02509553 0.090422511 0.61092454
0.018401351 0.076857768 0.63263613
0.01775163 0.07416112 0.63681203
0.016610473 0.073210552 0.63879991
0.051935848 0.087349772 0.61467081
0.051670596 0.086470023 0.61620939
0.049715076 0.086906455 0.61087239
0.049653761 0.083535381 0.61551434
0.046714935 0.083607018 0.61755836
0.04159756 0.073977478 0.63351369
0.043354485 0.071456715 0.63528413
0.041124709 0.068978354 0.63912493
0.04534509 0.086987704 0.60905439
0.042511657 0.083259031 0.61350375
0.044018336 0.082462251 0.61649215
0.039248843 0.073030047 0.63171828
0.036743272 0.070994228 0.63245428
0.036574177 0.068512976 0.63868874
0.040935054 0.087688848 0.60942316
0.040702358 0.085087158 0.61261183
0.03393124 0.071810625 0.63382971
0.032494612 0.070267729 0.6371845
0.049090911 0.08217378 0.60967922
0.04934191 0.080097966 0.61236066
0.042736024 0.066989556 0.63320315
0.04099936 0.066410966 0.63605422
0.04624936 0.082148477 0.60840821
0.04445947 0.079864405 0.61171794
0.044729989 0.080140851 0.61451781
0.039844897 0.070180133 0.63069195
0.038466573 0.067850053 0.63120401
0.038095295 0.065518878 0.63507712
0.043146715 0.079313368 0.60806894
0.036056515 0.06538295 0.63108528
0.035596363 0.064195395 0.63203382
0.048737727 0.077710524 0.60770798
0.049168434 0.076102905 0.609442
0.042567633 0.062774241 0.63084161
0.046759538 0.077547483 0.60541779
0.045791842 0.07480032 0.60967135
0.040167816 0.063164555 0.62822711
0.038755298 0.060706824 0.63238573
0.043002158 0.077314295 0.60431719
0.042046495 0.07570646 0.60704273
0.035340533 0.06221088 0.62770802
0.034744538 0.060703613 0.63108754
0.049153976 0.072183773 0.60712612
0.04257708 0.059481241 0.62838584
0.047517523 0.073527537 0.60254693
0.047363762 0.070737429 0.60701007
0.044802822 0.069035567 0.60801554
0.040143393 0.05925753 0.62332201
0.041522503 0.058417439 0.62672484
0.039047122 0.056069545 0.63014275
0.042611338 0.073849395 0.60085815
0.040683664 0.07164754 0.60559779
0.042016819 0.06895189 0.60719025
0.036937032 0.059448503 0.62243176
0.034493297 0.059798114 0.62491137
0.034108602 0.056080058 0.62935793
0.039759077 0.071857527 0.60000277
0.038934074 0.070335008 0.60271674
0.032292351 0.057164945 0.62370563
0.031563953 0.055634871 0.62677413
0.048351116 0.069610283 0.59971964
0.048783764 0.066939346 0.60446566
0.04570115 0.065050825 0.60650289
0.041177008 0.056161411 0.62098634
0.042420007 0.054339953 0.62456989
0.039612763 0.051616743 0.62810493
0.043697596 0.070453167 0.59703952
0.041624837 0.064985253 0.60591483
0.037383866 0.056683622 0.61941391
0.034199692 0.051010564 0.62808269
0.038845163 0.069225729 0.59702933
0.036953017 0.067229338 0.600622
0.037394959 0.064356431 0.60338199
0.032929778 0.055726975 0.61850214
0.030338854 0.054316863 0.62154031
0.030201929 0.051603779 0.6251846
0.035612077 0.066507764 0.59672832
0.035494834 0.065889634 0.59770006
0.02992389 0.053607292 0.61722934
0.028500779 0.052060612 0.62014872
0.02798884 0.050576173 0.62245595
0.048510477 0.065185875 0.5975911
0.048392214 0.06270007 0.60169411
0.045790464 0.06111744 0.60404253
0.041344438 0.05210001 0.61872327
0.041985661 0.05013451 0.62183225
0.039851978 0.047840744 0.62527055
0.044678345 0.066528864 0.59428096
0.042042963 0.060222909 0.60352522
0.03811406 0.052270547 0.61639029
0.035152677 0.046251886 0.62580067
0.039758332 0.066190064 0.59314436
0.035458721 0.064849079 0.5990383
0.03761825 0.060430966 0.60200334
0.033494927 0.052269325 0.61522615
0.030067671 0.046942666 0.62426388
0.034870092 0.064975776 0.59352601
0.033058096 0.062686704 0.59684986
0.034063864 0.060619168 0.59960228
0.029262776 0.051284678 0.61487645
0.026739739 0.0500746 0.61695302
0.026406087 0.047435265 0.6211592
0.03119522 0.063097231 0.59231508
0.030352019 0.062068388 0.59424931
0.023605671 0.04839652 0.61641878
0.023211431 0.046642344 0.61857307
0.047402054 0.061850995 0.5961991
0.046898037 0.059883684 0.59916437
0.045316815 0.058661208 0.6015811
0.04036098 0.047047429 0.61966783
0.039417285 0.045665987 0.62259418
0.044535983 0.061315469 0.59366292
0.044040434 0.05776342 0.59717321
0.042432465 0.057430968 0.60069174
0.038180925 0.048484012 0.61543566
0.037683766 0.045061633 0.61770898
0.03607231 0.043886829 0.62193775
0.040709894 0.061341904 0.59118491
0.04089424 0.056415267 0.59571958
0.038099758 0.056831531 0.59936994
0.033899281 0.047907483 0.61333233
0.034387417 0.043713782 0.61596084
0.03156551 0.042638924 0.62098485
0.035340097 0.061767198 0.58974385
0.032251976 0.058685631 0.59650487
0.033609755 0.056510888 0.59679055
0.028570682 0.047053669 0.61215639
0.027265616 0.048383921 0.61377192
0.02631598 0.042843789 0.619937
0.030606439 0.060690679 0.58950293
0.028556895 0.058765158 0.59299743
0.030238895 0.0562419 0.59519094
0.025285035 0.04652587 0.61120707
0.022373032 0.04643409 0.61329895
0.02227534 0.043377049 0.61720037
0.027517518 0.057758309 0.59011066
0.020311128 0.043918014 0.61332786
0.020132426 0.043262459 0.61435455
0.039265331 0.056487404 0.59011513
0.038869608 0.054782301 0.59337974
0.037497651 0.052764878 0.59577411
0.03299972 0.043049846 0.61094016
0.032429621 0.041799858 0.61413372
0.030919431 0.039822571 0.61677724
0.03583125 0.05721458 0.58738726
0.037336037 0.05524198 0.59218311
0.03384728 0.052692823 0.59507394
0.029509032 0.043653958 0.60958886
0.030567657 0.041403063 0.61407137
0.027187418 0.038706206 0.61703449
0.03114133 0.056734316 0.58727551
0.028657181 0.054289132 0.5906384
0.030550376 0.052775107 0.5936743
0.025580455 0.043415327 0.60883075
0.02243704 0.04144292 0.61037856
0.022882354 0.039436765 0.61487025
0.027657464 0.056645416 0.58953136
0.020812903 0.042721987 0.61168933
0.020360794 0.041819196 0.61399955
0.057387933 0.047632702 0.59713572
0.057364173 0.046281841 0.60007417
0.05655596 0.043623373 0.60420632
0.055356998 0.04137034 0.60827947
0.052985668 0.038864411 0.61200768
0.052053586 0.036409397 0.61351693
0.055020992 0.048205666 0.59425086
0.051453203 0.038084988 0.61273676
0.048664752 0.036093868 0.61509955
0.046015784 0.033960193 0.61658418
0.05281261 0.048973836 0.59159929
0.045435496 0.034370739 0.6155141
0.044209752 0.033385068 0.61645257
0.04434254 0.049937323 0.58876395
0.044456415 0.049690135 0.59166169
0.043012679 0.046930462 0.5951696
0.038569499 0.038581114 0.60877764
0.038042534 0.036151286 0.6126312
0.036514372 0.034212928 0.61376989
0.041188642 0.051877752 0.58772391
0.04197596 0.051579982 0.59221983
0.038956732 0.047000494 0.59563339
0.0354154 0.040121637 0.60650712
0.035470929 0.038199052 0.61311722
0.032791156 0.035036273 0.61447942
0.036627416 0.052697003 0.5852555
0.034155346 0.047711279 0.59373689
0.030780926 0.039842397 0.6056866
0.027951747 0.034371041 0.61420423
0.033160683 0.052402489 0.58585602
0.031469759 0.050227918 0.5883522
0.031434909 0.048036188 0.59119052
0.026627641 0.03890932 0.60605818
0.024896428 0.037374385 0.60899103
0.024954021 0.035542011 0.61248893
0.058638971 0.044832807 0.59428895
0.058836669 0.043145746 0.59833038
0.058143519 0.040388782 0.60268611
0.056374837 0.038193077 0.6065132
0.054753676 0.035242502 0.61056995
0.053056054 0.033160198 0.61229736
0.054186888 0.047141436 0.59015322
0.055919986 0.046091363 0.5929147
0.055599175 0.042903218 0.59606272
0.05489159 0.039272942 0.60118657
0.053632624 0.03698976 0.60505533
0.050334048 0.035167553 0.60912526
0.049613371 0.033138804 0.61376238
0.046604462 0.030889273 0.61511528
0.051580772 0.047962435 0.58898711
0.050312631 0.045349263 0.59143019
0.048653118 0.042277504 0.59439141
0.047545023 0.039682914 0.59604293
0.044989858 0.034032591 0.607364
0.044230953 0.033109479 0.61154783
0.043428026 0.030765779 0.61542356
0.046572447 0.047428686 0.58643198
0.04737315 0.047130391 0.59051979
0.045064967 0.044069272 0.59527355
0.043230686 0.041056868 0.5962714
0.041215539 0.036631338 0.60343456
0.041470733 0.036642384 0.60684568
0.040623773 0.033174504 0.61230218
0.037954003 0.030581936 0.61399388
0.042881988 0.047627121 0.58442014
0.037993826 0.042413581 0.5938921
0.040136065 0.041793231 0.59531039
0.037734404 0.036790624 0.60287845
0.035169929 0.036547732 0.6029374
0.033919238 0.029736459 0.61286241
0.037112862 0.048033431 0.58379155
0.034956805 0.045214064 0.58573496
0.034948975 0.043446153 0.59103417
0.031307187 0.03550908 0.60348719
0.02835173 0.031674013 0.60701203
0.028657196 0.030946143 0.61108309
0.03274972 0.046419177 0.58749384
0.032360073 0.045701951 0.58975083
0.027686352 0.035310909 0.60471678
0.026755996 0.034287345 0.60664874
0.026390687 0.032911886 0.61023521
0.059492562 0.040970203 0.59198475
0.0606784 0.038727783 0.59606153
0.060149971 0.035998356 0.60041213
0.058494482 0.033891942 0.60435891
0.056545291 0.031331167 0.60835779
0.053527072 0.028895516 0.61107111
0.056504443 0.042569257 0.58727401
0.058027785 0.042270631 0.58942056
0.053826246 0.03875082 0.59463173
0.05405898 0.035810553 0.59796369
0.052656613 0.033636607 0.6027469
0.049845342 0.031371478 0.60490179
0.050532989 0.027876191 0.61239445
0.047913805 0.026437454 0.61312342
0.052389484 0.043068741 0.58489889
0.052318752 0.042038146 0.59268355
0.051018812 0.03943624 0.59454966
0.048336372 0.037022207 0.59589177
0.046190742 0.033117745 0.60213238
0.047428992 0.032329861 0.60603189
0.044381958 0.025966674 0.61320269
0.047686346 0.044242475 0.5830934
0.044495136 0.037349034 0.59522659
0.042349663 0.033450935 0.60095149
0.039014068 0.025253657 0.61257952
0.042521209 0.044841826 0.58186042
0.039397448 0.03776779 0.59119076
0.03867279 0.036392204 0.59330863
0.037330784 0.033547446 0.59780765
0.036253892 0.031762712 0.60088819
0.034051083 0.025693402 0.61120087
0.038372703 0.043845288 0.58167076
0.036664024 0.04161007 0.58453125
0.035956051 0.039548881 0.58919978
0.034760363 0.036822103 0.5933094
0.034330834 0.034097213 0.59757453
0.031807527 0.03121306 0.60155261
0.030048573 0.028473355 0.60522312
0.03077044 0.027186848 0.60921317
0.061601941 0.031476751 0.59879953
0.060847048 0.028328717 0.60107195
0.060336355 0.03647761 0.58960468
0.061619502 0.03417708 0.5936445
0.061192151 0.032110166 0.59767854
0.059686266 0.02995795 0.60220039
0.057791043 0.025915947 0.60629815
0.054582663 0.024299294 0.60923767
0.056836206 0.03861187 0.58508849
0.058625326 0.037647627 0.58672631
0.053274546 0.035044726 0.59435934
0.05285969 0.031738341 0.59564638
0.051566087 0.029550254 0.5995909
0.051743433 0.023407366 0.61051035
0.049200978 0.022017259 0.61083752
0.053318147 0.039383285 0.58329713
0.049582474 0.032063466 0.5942564
0.048465628 0.028873309 0.5990662
0.04473152 0.021545418 0.61091876
0.048282415 0.039257091 0.58108836
0.045266997 0.032146242 0.59181535
0.043419641 0.02850436 0.59846818
0.041177403 0.026340481 0.59779507
0.039280158 0.021394435 0.61013347
0.043735612 0.039681111 0.58026564
0.040963508 0.036186896 0.58165532
0.041531015 0.034004416 0.58915091
0.039730385 0.031621244 0.59213549
0.037801795 0.02937888 0.59578335
0.038597628 0.027939171 0.59890616
0.034609869 0.021985281 0.60466641
0.035255414 0.022057645 0.60815924
0.039939158 0.039817624 0.58121079
0.039115421 0.037784506 0.58332366
0.037890311 0.034884829 0.5872035
0.037058517 0.03277152 0.59065717
0.036091909 0.030139476 0.59519339
0.033765476 0.02719016 0.59913307
0.033259455 0.024831116 0.60299331
0.032121047 0.024457764 0.60632271
0.063783601 0.027199376 0.59221977
0.062654488 0.02687991 0.59570509
0.061698239 0.024949443 0.59867084
0.060656875 0.021739956 0.60138857
0.061295904 0.031805221 0.58732611
0.062227137 0.030527815 0.59098685
0.061933741 0.027483474 0.59561503
0.060432397 0.023733001 0.60037893
0.058708072 0.022397049 0.60377139
0.055274602 0.02009223 0.60675842
0.056817863 0.034151811 0.58249283
0.05884622 0.033167344 0.5841921
0.052397158 0.018545806 0.60775918
0.049566247 0.018250685 0.60826719
0.053480286 0.034425057 0.58115572
0.049375325 0.027780026 0.59308249
0.048374467 0.026083659 0.59583455
0.045391791 0.017634597 0.60777885
0.049004756 0.034310859 0.5797888
0.046452057 0.03250036 0.57932705
0.04530086 0.028235342 0.59086943
0.044204298 0.025483586 0.59530056
0.040539138 0.017466478 0.60618603
0.044835865 0.035378337 0.57962155
0.042891145 0.032876056 0.5806824
0.040159002 0.03038111 0.58452284
0.039099365 0.027379759 0.58908933
0.037333727 0.024974253 0.59267122
0.036563929 0.021413144 0.59675157
0.03644935 0.019419961 0.60133904
0.036808439 0.018736992 0.60506564
0.039098889 0.031361315 0.58449572
0.038050313 0.028791282 0.58809209
0.036733776 0.02437954 0.59298837
0.035166871 0.023555648 0.59721863
0.034671661 0.022363625 0.60015851
0.065455392 0.026971202 0.58628994
0.065388158 0.02561418 0.58949745
0.06493701 0.023266602 0.5937714
0.063324831 0.020749483 0.59791219
0.061603837 0.018065419 0.60158718
0.060096927 0.016442958 0.60410094
0.063134812 0.028525475 0.58435732
0.064173162 0.027560469 0.5880788
0.061076686 0.022244371 0.59920728
0.059403904 0.019077111 0.6031003
0.056759778 0.015573221 0.60514134
0.058463171 0.029890221 0.58009905
0.05928883 0.029900484 0.58172601
0.052042585 0.016210824 0.60590225
0.05092518 0.013593233 0.60572523
0.054166816 0.030053113 0.57888663
0.046050616 0.014044211 0.6049664
0.050766118 0.03010818 0.57830936
0.048197523 0.028862678 0.57849509
0.04105901 0.014478636 0.60102981
0.042601302 0.014433692 0.60377252
0.044594288 0.027793627 0.5798254
0.041939531 0.02598615 0.58237302
0.039646842 0.024195798 0.58615029
0.03812401 0.021391597 0.59108639
0.03799367 0.017867051 0.59498328
0.038794212 0.016389798 0.59888929
0.038635012 0.021879923 0.58588845
0.037521914 0.020066213 0.58958864
0.037021294 0.018031828 0.59206915
0.065499492 0.022113457 0.58789688
0.064888306 0.01893346 0.5912298
0.063919187 0.016470913 0.5952394
0.061979353 0.014945379 0.59916514
0.06246369 0.024333008 0.58234227
0.063777469 0.021375366 0.58537376
0.064137392 0.0182609 0.58833742
0.061995976 0.013763263 0.59544051
0.060006529 0.013010726 0.59881622
0.056783859 0.011872633 0.60151374
0.054438401 0.011741919 0.60485584
0.059018228 0.026741989 0.57866865
0.059276372 0.024047233 0.58005559
0.053305358 0.010195508 0.60065597
0.051273737 0.010752189 0.60391885
0.054429442 0.027040668 0.57758862
0.054571904 0.023624975 0.57782423
0.047723882 0.0097332643 0.59933639
0.047665298 0.010782969 0.60274899
0.051688615 0.026799589 0.57673693
0.049459282 0.024204373 0.5772962
0.046897955 0.020960473 0.57968146
0.042594962 0.012014833 0.59367144
0.043166146 0.010497884 0.59799659
0.043444127 0.011605171 0.60195702
0.04545708 0.024222914 0.57787699
0.043152511 0.022039417 0.58064479
0.04177665 0.01924599 0.58432311
0.040495798 0.01648692 0.58864462
0.039391555 0.014290704 0.59259677
0.039699145 0.012168786 0.5964427
0.039110843 0.02106737 0.58426756
0.037833218 0.018422745 0.58864307
0.037214674 0.016639806 0.59167671
-0.0074778497 0.017230898 0.56887633
-0.0084101111 0.015517971 0.5721755
-0.010852955 0.017462302 0.56829131
-0.011586092 0.015750758 0.57140362
-0.013833985 0.016849395 0.56816828
-0.014376976 0.016047474 0.56976128
0.064847328 0.014015301 0.58964974
0.064248547 0.012997196 0.59192485
0.061628457 0.020381331 0.58134615
0.062925197 0.017295949 0.58336383
0.064034529 0.01536156 0.58693737
0.062142801 0.010982617 0.59319717
0.059542708 0.0096877282 0.59558499
0.056589603 0.0088152392 0.59789681
0.058926724 0.019884095 0.57955843
0.05956696 0.01680382 0.57971132
0.054787628 0.0069860844 0.59548593
0.053421892 0.0083209677 0.59759063
0.054487757 0.020469069 0.57836688
0.053611673 0.016960453 0.57890576
0.049172066 0.0079730386 0.59345019
0.049023986 0.0087650334 0.59666198
0.050879259 0.020870477 0.57814747
0.048793741 0.017455783 0.57952034
0.045895055 0.013232977 0.58218396
0.044675719 0.010788464 0.58596873
0.045237184 0.0098500578 0.59154725
0.045138445 0.0099449931 0.59546041
0.045265056 0.017979126 0.58078456
0.044114567 0.015573313 0.58293396
0.043134395 0.013016111 0.58652347
0.042358909 0.01209583 0.59045601
0.029831421 0.019968767 0.56488848
0.029812876 0.019289255 0.56568044
0.022422545 0.0039691227 0.58998197
0.022081118 0.00360364 0.59097731
0.027547086 0.020329285 0.56422895
0.026100252 0.018761471 0.56647778
0.018727563 0.006598738 0.58468795
0.019668572 0.005290891 0.58796102
0.019524131 0.0038086502 0.59052896
0.023794129 0.019740518 0.56363201
0.021574389 0.018501528 0.56600988
0.020177357 0.016820934 0.56836015
0.015677635 0.007530001 0.58319777
0.015455816 0.0059402054 0.58601052
0.016279317 0.003984428 0.58880085
0.01734544 0.017887626 0.56550431
0.015328854 0.016218495 0.56837636
0.013012629 0.014517904 0.56985432
0.011051726 0.0092133088 0.57770252
0.01154647 0.0085046915 0.5807721
0.011656933 0.0064220643 0.58396596
0.011028003 0.015281267 0.56857497
0.0092006736 0.014402815 0.57059693
0.0075544156 0.010973028 0.57584542
0.0082440786 0.0090419976 0.57863015
0.0049951524 0.014695558 0.56710362
0.0046071038 0.014043241 0.57016385
0.003763251 0.011366616 0.57397097
0.0027081631 0.0092684487 0.5758118
0.0027060807 0.014449141 0.56646281
-0.00033520162 0.01470847 0.56856918
-0.001812838 0.01186783 0.57248825
-6.8645924e-05 0.0094494997 0.57492238
-0.0055816099 0.014913422 0.56809157
-0.0064479709 0.012837154 0.57114917
-0.0099849105 0.016372688 0.56782067
-0.010967135 0.014700883 0.57065552
-0.013598099 0.016200699 0.56741792
-0.014171474 0.01521154 0.56942058
0.065288305 0.0095657678 0.58690858
0.064768232 0.0085294219 0.58898115
0.062507078 0.012621236 0.58123279
0.064086363 0.01089134 0.58466893
0.062183723 0.007009794 0.59038168
0.059346654 0.0059563937 0.59247404
0.058483008 0.013094355 0.57566714
0.059877805 0.013377198 0.57840216
0.055431437 0.0044632675 0.59315312
0.053204492 0.0024070395 0.5929808
0.055185795 0.013680334 0.57456893
0.054048616 0.01443793 0.57754731
0.049730919 0.0054249102 0.5917902
0.049697421 0.0023875674 0.59256005
0.052368332 0.013383691 0.57439202
0.049714331 0.012645862 0.57708561
0.046791915 0.012349094 0.5798524
0.044737507 0.0082653379 0.58657098
0.046084501 0.0054013515 0.58863544
0.047307894 0.0027228342 0.59127253
0.046603091 0.010807722 0.57607502
0.044770285 0.010299182 0.57982749
0.043614566 0.007962496 0.58397645
0.043471776 0.0045533134 0.58607644
0.032023929 0.01792372 0.56275094
0.03027278 0.016959928 0.56552452
0.023440268 0.002592531 0.58826053
0.023540255 0.00028105732 0.59092873
0.02789573 0.018961415 0.56109899
0.027445979 0.01578629 0.56672806
0.024861462 0.013570293 0.56808764
0.020648889 0.0045208512 0.58265531
0.021821555 0.0037975861 0.58606535
0.019070413 0.00039713923 0.5906617
0.023051042 0.017570771 0.56066346
0.020522609 0.018169947 0.56287152
0.020750985 0.013262714 0.56886101
0.017307043 0.0062094023 0.57997626
0.013531618 0.0032994477 0.58656877
0.014885411 0.00054780487 0.58768946
0.020156238 0.015782088 0.56034172
0.017199326 0.015714914 0.56236017
0.016569141 0.013498456 0.56894624
0.014360011 0.011804606 0.56931096
0.012520265 0.0074384334 0.57630086
0.013681784 0.00784506 0.57886189
0.010930557 0.0027552554 0.58347166
0.012730271 0.000404994 0.58535969
0.014135353 0.013949848 0.56313527
0.010902259 0.013383831 0.56542635
0.0095777474 0.010397743 0.57028174
0.0090148486 0.0088913506 0.57298291
0.0069518089 0.0056148553 0.57787144
0.0087444857 0.0035962416 0.58045703
0.0058644228 0.012613869 0.56504148
0.0052550323 0.0091522774 0.56991732
0.0047637857 0.0089372704 0.57000446
0.0027965307 0.0062631043 0.57533449
0.001302164 0.012291822 0.56350827
-0.00034810975 0.010771175 0.56736177
-0.0012228638 0.008975924 0.56974584
-0.0016298369 0.006163721 0.57356155
-0.0032740422 0.011942367 0.56210494
-0.0049360394 0.011567815 0.56599325
-0.0056514964 0.0090750502 0.56857646
-0.0064774156 0.0062189577 0.57175702
-0.006462343 0.011299144 0.56166828
-0.0095445216 0.010542269 0.56373781
-0.010791659 0.0085532898 0.56762195
-0.009581469 0.0061744479 0.57044333
-0.014118664 0.01040767 0.5626905
-0.015161417 0.0089710178 0.56613749
-0.017948568 0.010318472 0.56155187
-0.01906909 0.0089090439 0.56506425
0.066192329 0.0052970489 0.58435887
0.065390542 0.0039676027 0.58677715
0.06378749 0.0089334911 0.57481617
0.063731931 0.0081758918 0.57890725
0.064639613 0.0072325161 0.5820381
0.062848806 0.0033266237 0.5883615
0.060247406 0.0011450062 0.59011477
0.058363568 -0.0016458146 0.59219438
0.06077908 0.010398815 0.57375729
0.061632369 0.010851837 0.57741964
0.05739956 0.0018808274 0.5918138
0.055201191 -0.0012199739 0.59239209
0.055722184 0.011328765 0.57229292
0.052920569 0.012034903 0.57419056
0.048176616 0.0017130701 0.59052306
0.049959015 -0.0010275198 0.59164351
0.051638026 0.010119601 0.57121956
0.049419552 0.010479451 0.57329935
0.044893436 0.0012587225 0.58798689
0.046237186 -0.0012363242 0.58931458
0.046238385 0.0084154187 0.57300782
0.043463945 0.0067667263 0.57681108
0.042138994 0.0041094786 0.5813033
0.04264167 0.00094773248 0.58533078
0.041908219 0.0044262065 0.57514185
0.040877931 0.0024384549 0.57907581
0.037524588 0.013674798 0.55742443
0.037384279 0.013222254 0.56019402
0.028544605 -0.0043543698 0.58657336
0.028321646 -0.0053028623 0.58962739
0.027376175 -0.0074438872 0.59111321
0.034531262 0.014453608 0.55656314
0.034442898 0.014920502 0.56007433
0.031750221 0.011557217 0.56362724
0.025605533 -0.0020471988 0.58519953
0.025246028 -0.0040256726 0.59016818
0.024178546 -0.0071295761 0.5910579
0.031198308 0.015086451 0.55665886
0.028140638 0.014266904 0.55852401
0.027110767 0.0109884 0.56302392
0.025084455 0.010884563 0.56576884
0.020497706 0.001307494 0.58091104
0.02111306 -0.0016377876 0.58301234
0.019316562 -0.0040337788 0.587919
0.021153957 -0.0061766086 0.59022713
0.023529992 0.014658536 0.55857903
0.023351543 0.010822951 0.56119311
0.021208152 0.009777314 0.56564617
0.017006923 0.0018089684 0.57822329
0.017019119 -0.0022002021 0.58192945
0.015198197 -0.0026256647 0.58621895
0.02056434 0.014270698 0.55931455
0.018075727 0.01214406 0.5608229
0.016587649 0.0093846256 0.5641855
0.014003765 0.0091518769 0.56732768
0.012491696 0.0044664154 0.57492793
0.012844898 0.0015387507 0.57677823
0.011925854 -0.0005277954 0.58109045
0.012950893 -0.0011482434 0.58467144
0.011654273 0.0097527346 0.56444544
0.0099873766 0.0074688746 0.56652278
0.0085004158 0.0043647261 0.57177246
0.0079402104 0.0030773683 0.57483816
0.009169288 0.0017882632 0.57893139
0.0066683851 0.0083286101 0.562666
0.0062055588 0.0058931289 0.56746906
0.0057947673 0.0052247951 0.56858128
0.0035566054 0.0016765995 0.57287556
0.0018275753 0.0083854673 0.56127769
3.5971403e-05 0.0057554888 0.56547236
-0.00014473125 0.0049112542 0.56689763
-0.0012163296 0.0018241676 0.57161152
-0.0018501393 0.0082303667 0.56070465
-0.0039812475 0.0073762527 0.56191134
-0.0044925585 0.004739278 0.56504536
-0.0056216493 0.0023699673 0.56991452
-0.0074784905 0.0065806517 0.56194961
-0.0089588463 0.0038076723 0.56595147
-0.0084093884 0.0012086676 0.5674696
0.066975176 0.0014371192 0.58137482
0.066148154 -0.00060095079 0.58465749
0.064334266 0.0058409823 0.57327712
0.0655405 0.0043916935 0.57593471
0.066364937 0.0034542764 0.57940501
0.064218067 -0.0013730852 0.58685344
0.061649915 -0.0035789115 0.58854908
0.059002832 -0.004749733 0.59024835
0.061866779 0.0065746745 0.57125849
0.058255151 -0.0028389404 0.59055483
0.056017466 -0.0053621912 0.59052044
0.057246611 0.00767894 0.56843579
0.050955549 -0.0063714683 0.59040982
0.053370424 0.0067614755 0.56452084
0.051630478 0.0076962048 0.56725764
0.045263834 -0.0058207056 0.58877617
0.045144632 -0.0088831764 0.58931017
0.047635332 0.0056907972 0.56697732
0.045167089 0.0060782721 0.5700295
0.041168835 -0.0024508461 0.58396387
0.042127702 -0.0057047075 0.58551347
0.042900812 0.0097993976 0.55666351
0.04255797 0.0093283793 0.55924511
0.044520397 0.0040407097 0.56633359
0.041831244 0.0039923331 0.56862634
0.039809898 0.0016847858 0.57334936
0.038709216 -0.00045728218 0.5771293
0.038043994 -0.0037499005 0.58110458
0.036686029 -0.0073725027 0.58417493
0.033561148 -0.0093836477 0.58845401
0.032485206 -0.01143803 0.5898791
0.039595477 0.012023329 0.555646
0.039664224 0.011028972 0.55992585
0.037607081 0.0070513664 0.56199878
0.038725473 0.0015587574 0.56866491
0.035736308 -0.0044148164 0.57788539
0.030900581 -0.00663224 0.5840618
0.031041211 -0.0076219002 0.58925402
0.028826766 -0.010262476 0.59109432
0.035730541 0.01236093 0.55475587
0.032931477 0.0094111552 0.55582935
0.032855541 0.0071229311 0.56269932
0.027239673 -0.0050955964 0.58197975
0.023807082 -0.0098936576 0.58652419
0.024987064 -0.0098483916 0.59040856
0.031926926 0.012951235 0.55559313
0.029838189 0.009806239 0.55761015
0.029044963 0.0077489456 0.56062871
0.022578072 -0.0057407441 0.58186752
0.021337599 -0.0070099197 0.58508855
0.021742061 -0.0079502678 0.58922702
0.0064416528 0.0043332586 0.5604924
0.0070182197 0.0020289915 0.56321734
0.0056241788 -0.00030885357 0.56687689
0.0034209639 -0.001715255 0.57023251
0.0042431541 0.0037278878 0.56010008
0.0010201149 0.00260974 0.56094706
-0.00067564473 -4.584901e-06 0.56454992
-0.00020940974 -0.0017801495 0.56851441
-0.0023169667 0.0053807767 0.5592134
-0.0027391203 0.0020648548 0.56003642
-0.0038691685 -9.8010525e-05 0.56442994
-0.0052091852 -0.00090534892 0.56765443
-0.0079188496 0.0023312671 0.55888009
-0.0096442699 0.00018086936 0.56311458
-0.0096044391 -0.00065830722 0.56609744
-0.012468025 0.0014853282 0.55741191
-0.014005989 -0.00033166446 0.56142938
-0.016726933 0.0010116119 0.55586439
-0.018089958 -0.0010175584 0.55968291
0.067976281 -0.0025071688 0.5792731
0.067081772 -0.0047014263 0.5828464
0.064336091 0.0021908479 0.57124263
0.065869443 0.00022908393 0.57338822
0.066844724 -0.0017296728 0.5768488
0.064910792 -0.0062865987 0.58360022
0.062042892 -0.0077550351 0.58593428
0.05936851 -0.0092478646 0.58709759
0.061764508 0.0033919821 0.56425804
0.062475152 0.002377308 0.56844097
0.059619855 -0.010758918 0.58599478
0.056512371 -0.0099077225 0.58817178
0.053897802 -0.012951027 0.59014678
0.058791365 0.0044798842 0.56256187
0.058818329 0.0051093223 0.56627893
0.051498253 -0.009565156 0.58969122
0.050494183 -0.013025532 0.59048003
0.053883318 0.0049267216 0.56191957
0.045843694 -0.012072408 0.58914506
0.048435017 0.0055270968 0.55502462
0.048654657 0.003459611 0.55959398
0.047677688 0.0027386816 0.56341451
0.041351229 -0.010472268 0.58433074
0.040686451 -0.013566713 0.58676171
0.03822045 -0.016188616 0.58957213
0.045308001 0.0074310889 0.55407625
0.045025896 0.0062164208 0.55919701
0.043415941 0.0022517545 0.56233245
0.041941382 0.0025442606 0.56555039
0.038175371 -0.0027132444 0.57183051
0.038086094 -0.0036814176 0.57249594
0.037223995 -0.0074389339 0.58102113
0.037253648 -0.010280529 0.58261859
0.036432065 -0.012023695 0.58781111
0.034450993 -0.015277457 0.59029531
0.040872872 0.0078412397 0.55323452
0.038748868 0.0027722484 0.56060457
0.038702443 -0.00010140799 0.5652799
0.037921086 -0.002734608 0.56926984
0.036444254 -0.0054211468 0.57380044
0.034743067 -0.0076782568 0.57813555
0.032463159 -0.010147841 0.58141959
0.030082304 -0.014466536 0.58924121
0.03728123 0.006991799 0.55328816
0.034907326 0.0053239902 0.55537438
0.033672981 0.0032871952 0.5590905
0.027341489 -0.010314934 0.58037567
0.026191335 -0.012478842 0.58424729
0.027273908 -0.014111205 0.58725488
0.03140818 0.0064775934 0.55721593
0.030961245 0.0051315567 0.55852574
0.024551023 -0.004385367 0.56552535
0.023816552 -0.0055665728 0.56755179
0.024258215 -0.009228684 0.58105451
0.023614395 -0.0097097978 0.58301014
0.020812627 -0.0026604468 0.56369549
0.019598112 -0.0051563811 0.56754965
0.018309154 -0.0031213239 0.56347245
0.017587386 -0.0052331639 0.56660056
0.0057520308 0.0012428435 0.55887073
0.0058107823 -0.0014001234 0.56001127
0.0043012574 -0.0039214548 0.56475455
0.0030953661 -0.0043846928 0.5671609
0.004749801 0.00074062776 0.55843568
0.0022243746 -0.0023504524 0.55923474
0.0010026172 -0.0047661941 0.56288415
0.001083862 -0.0045501934 0.56659508
-0.00068816543 -0.0043880893 0.55861211
-0.0015980825 -0.0056674117 0.56172323
-0.013053477 -0.00036549009 0.5556758
-0.015994824 -0.0026470358 0.5598523
-0.016494229 -0.0009815665 0.55463028
-0.018002443 -0.0025733514 0.55865872
0.067991085 -0.0061097844 0.57823908
0.067431599 -0.0074308477 0.58023417
0.065484822 -0.0036848271 0.5715971
0.065845884 -0.0066451309 0.57509494
0.064765446 -0.009654169 0.57955265
0.061848279 -0.011050949 0.58320808
0.061838008 0.0014278525 0.5636341
0.062824056 -0.0014556339 0.56550926
0.063861057 -0.0043101693 0.56879622
0.059341054 -0.013215408 0.58319265
0.05655174 -0.014297723 0.58609784
0.05449805 -0.014127444 0.58891886
0.058791526 0.00074028689 0.56087619
0.059953444 -0.0017991373 0.56221682
0.052794542 -0.016460247 0.58588529
0.050580576 -0.016112626 0.58799601
0.054167926 0.00045773666 0.5548532
0.055707097 0.0012901286 0.55750805
0.046300933 -0.017899547 0.58836389
0.043960005 -0.019989064 0.58802193
0.050269015 0.0027885279 0.55319774
0.05068548 0.0023934478 0.55735326
0.046411812 0.00042568427 0.56191367
0.040203553 -0.012261719 0.58212733
0.04176756 -0.016139876 0.58727533
0.039809793 -0.019425362 0.58890277
0.046567768 0.0041695749 0.55088627
0.043936137 -0.00056245271 0.56109118
0.038495176 -0.0088885929 0.56937611
0.037890885 -0.012898903 0.58059275
0.035049919 -0.019808492 0.58949572
0.041742064 0.0037391121 0.55011898
0.038569987 -0.0013911882 0.55956286
0.038570762 -0.0042289542 0.56248236
0.03769229 -0.0067382874 0.56712735
0.036370341 -0.0091550369 0.57096714
0.034537546 -0.012105052 0.57487452
0.033163868 -0.013093811 0.57838386
0.030300783 -0.019410016 0.58737493
0.038072903 0.0031311875 0.5508337
0.036473863 0.0013112826 0.55297071
0.036010351 -0.0003831191 0.55658412
0.030029589 -0.0084781526 0.56422412
0.029293407 -0.0099814609 0.56697047
0.029112952 -0.0144809 0.57933444
0.027742414 -0.016930588 0.58213514
0.027827485 -0.018329358 0.58504081
0.02660061 -0.0054636607 0.5605033
0.027727718 -0.0065912269 0.56371164
0.026031803 -0.009167444 0.56789494
0.023786038 -0.011964955 0.56873888
0.023300134 -0.004522671 0.55927384
0.022263754 -0.0037389854 0.56147057
0.020526092 -0.0085389353 0.56833887
0.020241145 -0.011815536 0.56889355
0.018463954 -0.0045368811 0.55630392
0.016837001 -0.0055222837 0.56067765
0.015591636 -0.0084097879 0.56525844
0.015027199 -0.011888106 0.56838977
0.016088199 -0.0064216638 0.55627835
0.01409829 -0.0077130958 0.56007451
0.013416138 -0.0099415202 0.56328106
0.013095461 -0.011828718 0.56627619
0.0018326864 -0.0058724908 0.55745709
0.00086552277 -0.0079912767 0.56069809
-0.001698859 -0.0069517852 0.55586004
-0.0028320812 -0.0085834665 0.55903012
-0.0047639757 -0.0082084499 0.55494285
-0.0058760643 -0.009773599 0.55773014
0.064011671 -0.01068496 0.57368881
0.063597038 -0.012471011 0.5762217
0.06216104 -0.0058401292 0.56403369
0.062405564 -0.0083439723 0.56695253
0.062851749 -0.01136622 0.57096583
0.061396673 -0.014998164 0.57617593
0.058622673 -0.016226342 0.57957417
0.056508861 -0.017436437 0.58255762
0.057760499 -0.0030446444 0.55930901
0.059361335 -0.0057239067 0.56126106
0.060396791 -0.0095229074 0.56399965
0.055814821 -0.018769186 0.57880324
0.052888032 -0.019073023 0.58244574
0.050067667 -0.018924205 0.58486003
0.054279257 -0.00078954268 0.55386811
0.05588698 -0.0030418709 0.5561052
0.057187043 -0.0063084224 0.55859321
0.04976308 -0.021015409 0.58241493
0.047152929 -0.021222431 0.58523303
0.044093341 -0.021903135 0.58729768
0.051425301 -0.00061647501 0.55230546
0.050804518 -0.0040266449 0.55322301
0.041644394 -0.022961825 0.5833562
0.041126378 -0.022264434 0.58701116
0.046723109 -0.00092921592 0.54966408
0.047700573 -0.0048644859 0.55243546
0.043016903 -0.0075966492 0.55614525
0.042450815 -0.0093704984 0.56140745
0.040926602 -0.010327473 0.5628165
0.038126104 -0.015315764 0.57076752
0.038758174 -0.016571127 0.57252479
0.036804408 -0.020462085 0.57643813
0.03856767 -0.023341214 0.58192724
0.035834886 -0.02348515 0.585572
0.042296477 -0.00098114926 0.54898089
0.040436793 -0.0043552872 0.55086267
0.039773375 -0.0061713792 0.55572456
0.039795075 -0.0068658954 0.56109571
0.037427016 -0.0099827023 0.56393272
0.0354302 -0.013339221 0.56903005
0.036115587 -0.014923938 0.57346326
0.033472911 -0.019117657 0.57628888
0.031733871 -0.02240153 0.57986128
0.031862788 -0.023034226 0.58407271
0.038819686 0.00038169604 0.55009151
0.038066924 -0.0021156976 0.5517292
0.03721682 -0.0035587298 0.55446589
0.032030422 -0.010720639 0.55894887
0.032597847 -0.010803644 0.56272215
0.031490631 -0.013439666 0.5668993
0.029294001 -0.016188938 0.56787008
0.030268842 -0.018013302 0.57780528
0.029462907 -0.020084556 0.58047867
0.028688485 -0.00897469 0.55782884
0.029803015 -0.0090417909 0.5609706
0.027617499 -0.01314786 0.56743383
0.025431037 -0.015618946 0.56813306
0.024428513 -0.0076958332 0.55510205
0.020392973 -0.015770823 0.56811219
0.020334125 -0.0058271196 0.5530594
0.020048719 -0.0068612341 0.55334932
0.015481085 -0.015473763 0.56721258
0.015826501 -0.0087181972 0.5541364
0.012702111 -0.010614168 0.55682385
0.011752669 -0.013362437 0.56105304
0.012920961 -0.014629971 0.56456476
-0.0023379996 -0.0098596886 0.55437821
-0.0033928864 -0.011300861 0.55670655
-0.0043306574 -0.010326619 0.55341053
-0.0055448711 -0.011892316 0.55629992
0.060206402 -0.011665627 0.56689185
0.061342742 -0.014061514 0.57072103
0.060766499 -0.015845325 0.57350868
0.058006275 -0.017193373 0.57590288
0.058154568 -0.0089664366 0.56061196
0.058174454 -0.011652246 0.56369793
0.057279356 -0.015568018 0.56771284
0.056074671 -0.018182553 0.57139939
0.054316483 -0.019476799 0.57637817
0.052256584 -0.02089306 0.57929635
0.054429028 -0.0070881383 0.55509025
0.054868083 -0.0095490208 0.55789185
0.053788088 -0.013303499 0.56138909
0.052870635 -0.016684586 0.5653227
0.051658727 -0.019308273 0.56919569
0.04995013 -0.021043377 0.57398522
0.048560139 -0.022497039 0.57855815
0.046313509 -0.023749672 0.58169031
0.051549811 -0.0071277614 0.55414283
0.050374169 -0.010540709 0.55630803
0.049832609 -0.013747569 0.5586887
0.04886464 -0.018460823 0.565579
0.049617562 -0.018987399 0.56675977
0.04579705 -0.02247845 0.57259876
0.044164006 -0.023309324 0.57682604
0.043334275 -0.023875054 0.58096027
0.045097955 -0.0040435828 0.54921496
0.045911625 -0.0058690887 0.55209041
0.045318548 -0.0091622807 0.55530858
0.043492191 -0.01274565 0.55906206
0.042391486 -0.016045876 0.55975384
0.039946213 -0.020685909 0.56714278
0.03987658 -0.020608932 0.57117981
0.038925495 -0.022209622 0.57594925
0.037643671 -0.023338106 0.57992291
0.034972966 -0.024746045 0.58235908
0.043804009 -0.0038930699 0.54889387
0.042756088 -0.0053086188 0.55026686
0.040279523 -0.013524684 0.56000733
0.038349528 -0.014853619 0.55983055
0.036547117 -0.019411989 0.56637126
0.03753132 -0.019148724 0.56879038
0.033785656 -0.023965796 0.580419
0.033776194 -0.013916176 0.55744731
0.035131417 -0.013692521 0.55907255
0.032155938 -0.017827174 0.56698668
0.031154187 -0.019802567 0.56661344
0.029138966 -0.012195999 0.55385584
0.025152218 -0.0202375 0.56730157
0.026061438 -0.012480629 0.55232978
0.021805886 -0.020848062 0.56633902
0.020466808 -0.012315005 0.55161804
0.016551428 -0.019923907 0.56405008
0.015634552 -0.0127172 0.55124998
0.012401968 -0.014462953 0.55330873
0.010905847 -0.01800574 0.55902439
0.012455437 -0.019669071 0.5619663
0.011434019 -0.016026542 0.55451578
0.010781385 -0.017106928 0.5567295
0.050918732 -0.017445631 0.56404054
0.049536861 -0.020127304 0.56837028
0.048899904 -0.015616979 0.56016111
0.048231587 -0.017452789 0.56287283
0.046771217 -0.020403288 0.56759751
0.045497004 -0.022024572 0.57036322
0.045991007 -0.015714422 0.55948544
0.043310773 -0.017787125 0.56213003
0.042330958 -0.019920485 0.56557018
0.042969257 -0.021848416 0.56929427
0.038377304 -0.018073723 0.56030303
0.037065648 -0.020356562 0.5636636
0.033935018 -0.017272413 0.55531001
0.03531336 -0.019395776 0.55752105
0.033916265 -0.022320021 0.56271929
0.031010332 -0.023093827 0.56461233
0.029043691 -0.016668126 0.54877603
0.029735127 -0.016131667 0.55149955
0.025816575 -0.024386425 0.5651508
0.023931272 -0.025979135 0.56606716
0.028457187 -0.016008686 0.5490554
0.026380315 -0.01601984 0.55042326
0.022101402 -0.024540454 0.56434989
0.023273114 -0.025885133 0.56601983
0.020778518 -0.016904067 0.549734
0.017322361 -0.023956008 0.56148392
0.016349662 -0.017120777 0.54915285
0.013227426 -0.019146109 0.55147433
0.011984233 -0.021977959 0.55593312
0.013403431 -0.023735078 0.55945015
0.011921696 -0.017576218 0.55320841
0.011316746 -0.018924942 0.55517256
0.033051737 -0.022870686 0.55601352
0.032007843 -0.024886478 0.55939943
0.029920027 -0.021242637 0.55107713
0.030575886 -0.024447002 0.55335087
0.029230945 -0.027255422 0.55815315
0.026966847 -0.027461505 0.56120479
0.026274957 -0.02126666 0.54890645
0.026127815 -0.029258247 0.55769795
0.022647448 -0.028492272 0.56056786
0.021468684 -0.021431804 0.54822862
0.019337315 -0.024034422 0.54810894
0.016762696 -0.028555673 0.5555352
0.018189322 -0.027935397 0.55858976
0.017582126 -0.020786606 0.54834896
0.015887465 -0.023428001 0.54969668
0.014567651 -0.025977319 0.55378085
0.015096035 -0.026601624 0.55741578
0.028305389 -0.026994942 0.55301636
0.028010175 -0.028070983 0.55516547
0.026300561 -0.024497973 0.54888278
0.02455451 -0.028666027 0.5501889
0.023694638 -0.030586932 0.55289924
0.022769772 -0.030364435 0.55719358
0.023418434 -0.024652872 0.54790992
0.020980947 -0.028869927 0.54909801
0.019733295 -0.030763634 0.55190575
0.02008659 -0.030207604 0.55641478
0.017537281 -0.026677717 0.54991269
0.017065901 -0.028222281 0.55209053
0.038734242 -0.037329379 0.55541015
0.03862102 -0.038298894 0.55662155
0.037056983 -0.037175618 0.55449247
0.023675181 -0.032299589 0.54915071
0.023447532 -0.033166412 0.54994881
0.021620702 -0.03248914 0.54767555
0.020796426 -0.033766676 0.54980171
0.01839428 -0.032324523 0.54782993
0.018253721 -0.032833692 0.54858375
0.04314154 -0.039277013 0.55620211
0.042931262 -0.04001959 0.55717528
0.040029943 -0.039008681 0.5540328
0.03960808 -0.039861858 0.55657333
0.035654929 -0.038148608 0.54893768
0.035598245 -0.038887717 0.55230647
0.036453538 -0.040110607 0.55513984
0.032725405 -0.038792551 0.54686725
0.032578558 -0.03993661 0.54985404
0.026469212 -0.037654005 0.54532063
0.025270116 -0.03862226 0.54701877
0.022475012 -0.036808316 0.54457533
0.02188427 -0.037996184 0.54690874
0.035506286 -0.040688947 0.54711002
0.035622749 -0.041925471 0.54952496
0.032380849 -0.041036129 0.54473722
0.031788602 -0.042528097 0.54761398
0.027722955 -0.041284982 0.54294848
0.027162425 -0.041504495 0.5457443
0.024078876 -0.040490821 0.54319483
0.023972888 -0.040772956 0.54493243
