# .PCD v0.7 - Point Cloud Data file format
VERSION 0.7
FIELDS x y z
SIZE 4 4 4
TYPE F F F
COUNT 1 1 1
WIDTH 1190
HEIGHT 1
VIEWPOINT 0 0 0 1 0 0 0
POINTS 1190
DATA ascii
0.059317552 0.14240085 0.5585404
0.081447572 0.12834392 0.57926345
0.049762405 0.14386453 0.55510187
0.050067734 0.14309463 0.55599505
0.057622973 0.14168637 0.55926359
0.080521293 0.12694225 0.5808264
0.083349802 0.1225218 0.58637196
0.084097356 0.12209302 0.58724356
0.049083836 0.13973688 0.56029183
0.050951213 0.13802454 0.56235927
0.054544982 0.13615023 0.56582475
0.071882486 0.12501976 0.58200359
0.075922154 0.12209633 0.58590382
0.078834206 0.1217339 0.58685255
0.083061501 0.12172928 0.58751094
0.047988925 0.13884653 0.56114972
0.050664213 0.13716336 0.56332415
0.052946974 0.13533568 0.56632036
0.070783883 0.12411581 0.58293182
0.073963828 0.12205558 0.58540618
0.07618615 0.12083161 0.58760631
0.075105801 0.14808439 0.54716665
0.077295594 0.14713398 0.54928064
0.094135702 0.136152 0.56510711
0.095831528 0.13477881 0.56667936
0.071784213 0.14851038 0.54893285
0.075480357 0.1470197 0.55161685
0.076617703 0.14405657 0.55332994
0.089082494 0.13591957 0.56468022
0.0918331 0.13639113 0.56660521
0.094516881 0.13409713 0.56989193
0.065000065 0.14553872 0.54918134
0.067343339 0.14687839 0.55052018
0.071102157 0.14421326 0.55473399
0.073784314 0.14235674 0.55471355
0.087144166 0.1344098 0.56584364
0.08762753 0.13405152 0.56946403
0.091731876 0.13141318 0.57318807
0.091414727 0.1281081 0.5741213
0.062545314 0.14493988 0.55054575
0.06403853 0.1449012 0.55412656
0.068168417 0.14097515 0.55627513
0.084200472 0.13104117 0.57091635
0.087723345 0.13019773 0.57559633
0.089564249 0.1272826 0.57637161
0.057377681 0.14327465 0.55299228
0.060276292 0.14344481 0.55667424
0.064642355 0.13846171 0.559448
0.079675294 0.12891455 0.57341039
0.08396662 0.12852995 0.57855773
0.086404376 0.12489317 0.57966316
0.050321527 0.14243107 0.55312252
0.052473214 0.14121114 0.55518568
0.055667959 0.14013661 0.55958378
0.061230231 0.13671404 0.56180263
0.076286294 0.1272016 0.5758462
0.080162808 0.12547718 0.58194923
0.083288625 0.12187874 0.58335656
0.084869742 0.12044567 0.58556592
0.048914175 0.14201947 0.55471814
0.049677994 0.13883765 0.55700541
0.05333915 0.13651295 0.56028354
0.056573585 0.13394311 0.5637266
0.072452798 0.1237687 0.57863891
0.076138273 0.12205614 0.58172494
0.080093682 0.11992931 0.58491987
0.083181702 0.12010783 0.58677137
0.047222797 0.13717552 0.559861
0.050783675 0.13515301 0.56270951
0.052716732 0.13294105 0.5654065
0.070122778 0.12179056 0.58165658
0.073352471 0.12065852 0.58380127
0.076032348 0.11869556 0.58697057
0.075423092 0.14595631 0.54512835
0.077812441 0.14476015 0.54702657
0.094626904 0.13380623 0.56300658
0.096315064 0.13301983 0.56511587
0.072310053 0.14526291 0.54521853
0.078672975 0.14270762 0.5485236
0.077633843 0.14170687 0.55118829
0.089571424 0.13399841 0.56256664
0.092504099 0.13363764 0.56151652
0.095713496 0.13049717 0.56659514
0.065011725 0.14419466 0.5483892
0.067490466 0.14346945 0.54672837
0.071935579 0.13828342 0.55290037
0.074151486 0.13954309 0.55284011
0.087009102 0.13180181 0.56409371
0.085780278 0.13031186 0.56559932
0.092743427 0.12727177 0.57026833
0.091388687 0.12736638 0.57347828
0.062484816 0.14150733 0.54852509
0.063732892 0.14017145 0.54855096
0.068727382 0.13767472 0.55459189
0.083560966 0.12827592 0.56832922
0.089603163 0.12452644 0.57250232
0.089370072 0.12434146 0.57414865
0.058112212 0.14015749 0.55052829
0.06107194 0.13705401 0.55183768
0.064490028 0.13598095 0.55573839
0.081288785 0.12559699 0.5709883
0.084364928 0.12224843 0.57348382
0.086871974 0.12214227 0.5768944
0.054409858 0.13875854 0.55273867
0.057014577 0.13584775 0.55509079
0.06007931 0.13396712 0.55824327
0.077529341 0.12302798 0.57429659
0.080599613 0.12094638 0.57698321
0.083841406 0.12035291 0.57991028
0.051691875 0.13621376 0.55576348
0.053944431 0.1352831 0.55637968
0.056979358 0.13269685 0.56042051
0.074486911 0.12155652 0.57683951
0.078249112 0.11963865 0.57954139
0.07942789 0.11862171 0.58147371
0.075948104 0.14333656 0.5439626
0.077269278 0.14271617 0.5450024
0.072242819 0.14125085 0.54274726
0.076959506 0.13910744 0.54521185
0.07672064 0.13813698 0.54865003
0.089325577 0.13015001 0.56093055
0.092666402 0.12910344 0.56036556
0.095214963 0.12657179 0.56396568
0.068493605 0.13894765 0.54449284
0.071687073 0.1351551 0.54863369
0.074976645 0.13569187 0.54948592
0.087176889 0.12791367 0.5610705
0.087198541 0.12509894 0.56281435
0.092576407 0.12394917 0.56666273
0.065979794 0.1375391 0.54792398
0.069240466 0.13572954 0.54968017
0.086231016 0.12471701 0.56587762
0.08846619 0.12328443 0.56881893
0.073159382 0.13665745 0.54123998
0.076100856 0.13544314 0.54243797
0.092845827 0.12458913 0.55830222
0.094132267 0.12376221 0.56132555
0.070693865 0.13507688 0.54229528
0.073029384 0.13282895 0.54527307
0.075020373 0.13367876 0.54709029
0.088055417 0.12555259 0.55928612
0.088679738 0.12297602 0.56003618
0.092222765 0.12145321 0.56242394
0.069983393 0.13110386 0.54351574
0.088346981 0.11968578 0.56102246
0.089282423 0.11860546 0.56171501
0.073562056 0.13229048 0.53907233
0.075731769 0.13140231 0.53960162
0.092967942 0.12045637 0.55579633
0.07092502 0.13082184 0.53880054
0.07458663 0.1287238 0.54176146
0.08962258 0.1192116 0.55571765
0.092840873 0.11713785 0.5589844
0.068160176 0.12865922 0.54055047
0.07025145 0.12728854 0.54271263
0.08698824 0.11602192 0.55843198
0.089694031 0.11502062 0.56082457
0.075840287 0.12760615 0.53709155
0.092713743 0.11718887 0.55331975
0.071120277 0.12720676 0.53535527
0.075402081 0.1254914 0.53789532
0.075433463 0.12298591 0.53994161
0.087905034 0.11497436 0.55142564
0.091433115 0.11548506 0.55264163
0.093490265 0.1128775 0.55614746
0.067055598 0.12488122 0.5376128
0.07028012 0.12288624 0.54169333
0.073337331 0.12145796 0.54125369
0.085406847 0.11347462 0.55304414
0.085626177 0.11305312 0.55651069
0.090179488 0.11042345 0.55897963
0.065748647 0.12166646 0.53850263
0.067866817 0.12042917 0.54058748
0.084721804 0.10953021 0.55656308
0.087145776 0.10839309 0.55882549
0.071342729 0.12372369 0.53191268
0.076097161 0.1224366 0.53427577
0.076643586 0.11970186 0.53734857
0.088219143 0.1123806 0.54837877
0.092233688 0.11200954 0.54958302
0.094354376 0.10894117 0.55330867
0.066492714 0.12179677 0.53343362
0.073985651 0.11762233 0.53971022
0.084768198 0.11077305 0.55000359
0.091587193 0.10586168 0.55684829
0.06432265 0.11844628 0.53645319
0.066671714 0.11644779 0.53976393
0.070128784 0.11464766 0.5406993
0.082068168 0.10768892 0.55219066
0.08337824 0.10577245 0.55573219
0.087061197 0.1039903 0.55771214
0.063514203 0.11451969 0.53781664
0.064404443 0.11409751 0.53842443
0.08043959 0.10421914 0.55286658
0.082378723 0.10271448 0.55549639
0.08436957 0.10158749 0.55709493
0.071903914 0.11960477 0.52929521
0.075817928 0.11810715 0.53163302
0.076715052 0.11591734 0.53466433
0.088529326 0.10855623 0.5457477
0.091939338 0.10769506 0.54700083
0.09417741 0.10529888 0.55030012
0.066848561 0.11838882 0.52993637
0.074658275 0.11328804 0.53665632
0.085015401 0.10677849 0.54637957
0.092632078 0.10180121 0.55350435
0.063456617 0.11558065 0.53243077
0.065784454 0.11341148 0.53913146
0.071029797 0.11111982 0.53867388
0.081622146 0.10439937 0.54872841
0.088410325 0.099736705 0.55607551
0.061535396 0.11229227 0.53574896
0.063870706 0.11003205 0.53875047
0.067279488 0.10919291 0.53948402
0.07945241 0.10149263 0.55114627
0.080037475 0.099615224 0.55402297
0.083971813 0.097901106 0.55654335
0.059469808 0.10872643 0.53698105
0.06081203 0.10777298 0.53865445
0.078659028 0.096594438 0.55540085
0.080728136 0.095263228 0.55675006
0.071790189 0.11595774 0.52830833
0.074461147 0.1145304 0.53024369
0.075815752 0.11314489 0.53270966
0.090886027 0.10388571 0.54589009
0.093024194 0.10275114 0.54823595
0.068650618 0.11370598 0.52838546
0.072411992 0.11100605 0.53032118
0.074128881 0.11056785 0.5337761
0.086064696 0.10337028 0.54478687
0.088900462 0.10056825 0.5458982
0.091487318 0.099522457 0.54964972
0.064766563 0.1114978 0.52929008
0.070235781 0.10810623 0.53114843
0.07105054 0.10777912 0.53568023
0.08245682 0.10049054 0.5461207
0.08643388 0.097547114 0.5466243
0.088858336 0.096154459 0.55177617
0.060570896 0.10908596 0.53205985
0.064955451 0.106132 0.53812557
0.066879012 0.10494034 0.53688681
0.079037935 0.097037576 0.54874635
0.078851521 0.097851798 0.55106688
0.08510334 0.093676522 0.55468428
0.058238335 0.10588215 0.53487396
0.060399298 0.10385384 0.53824091
0.06399598 0.10284282 0.53801918
0.076773189 0.094868593 0.55020988
0.076655373 0.093777701 0.55362457
0.080693193 0.091760933 0.55567509
0.058242604 0.10199492 0.53671759
0.076642141 0.090634689 0.55446368
0.077553242 0.090160668 0.5551427
0.065365866 0.10643363 0.52839994
0.068190679 0.10533578 0.53052992
0.069999337 0.10335748 0.53265131
0.082434595 0.095452309 0.54394263
0.084910259 0.094653651 0.54624909
0.086798608 0.092687905 0.54864669
0.061214283 0.10497318 0.529028
0.066291913 0.10480402 0.53085691
0.067503385 0.10145378 0.53464299
0.0792711 0.094096303 0.545533
0.08400365 0.093422085 0.54738468
0.085391968 0.090007722 0.55111212
0.058731962 0.10232797 0.53204119
0.060788859 0.099622652 0.53549224
0.064645827 0.099729434 0.53594542
0.076653257 0.091907404 0.54763567
0.076859891 0.088986993 0.55039167
0.081147954 0.088236943 0.55272579
0.0584087 0.10099834 0.53596061
0.07630451 0.089553952 0.55270725
0.078072593 0.088958748 0.55440319
0.08433231 0.10852864 0.51880783
0.086978748 0.1078562 0.52054101
0.090604849 0.10588908 0.52332973
0.09379153 0.10407828 0.52643949
0.096194431 0.10143663 0.53005195
0.097822338 0.09913443 0.53115809
0.08073464 0.1074107 0.51856238
0.096196428 0.10016604 0.53142059
0.097180776 0.097537391 0.53449368
0.097690642 0.094699644 0.53683054
0.077302374 0.10657658 0.51841575
0.096434392 0.094596542 0.53658259
0.096845895 0.093328252 0.53783828
0.070160195 0.10292833 0.52246404
0.072364919 0.10326831 0.52433348
0.075243674 0.10080639 0.52710062
0.08601094 0.09383931 0.53759623
0.089497171 0.092154428 0.54005367
0.090303265 0.089954183 0.54143143
0.06680952 0.10294057 0.52435267
0.070532873 0.10383004 0.52685612
0.073274314 0.099035285 0.53020799
0.081975088 0.09329322 0.53853995
0.087493621 0.092797339 0.54262567
0.088357389 0.089033872 0.54465795
0.062169973 0.10107327 0.52595162
0.068949781 0.097059675 0.53234124
0.07893762 0.090725705 0.54107201
0.085759193 0.08613003 0.5476169
0.060787085 0.09928818 0.52866578
0.062558874 0.097041197 0.5310387
0.065502323 0.095618993 0.53251332
0.077294625 0.088025212 0.5439471
0.079066046 0.086387828 0.54679942
0.082363896 0.085433826 0.54875141
0.084277891 0.10620534 0.51532817
0.087970458 0.10553688 0.51759458
0.091861233 0.10357739 0.52043641
0.094532035 0.10150518 0.52377838
0.097781293 0.098889224 0.52700174
0.098969437 0.096586213 0.52886891
0.07786911 0.10538991 0.5160476
0.081238382 0.10577515 0.5165289
0.084681734 0.1034098 0.51817977
0.089490689 0.10082075 0.52135849
0.092514001 0.098920316 0.52436072
0.094335444 0.096491948 0.52900302
0.098084778 0.095197886 0.53222877
0.098352894 0.092067555 0.53469324
0.075232759 0.10467038 0.51721275
0.07739801 0.10223415 0.51915753
0.079911679 0.099306256 0.52162069
0.081603065 0.096824929 0.5229128
0.090622336 0.092687443 0.53116846
0.093541682 0.092253402 0.53436553
0.096851222 0.090516776 0.53704697
0.070883624 0.10140716 0.5187403
0.074328594 0.10223206 0.52095211
0.077732205 0.099316992 0.52510113
0.078745581 0.096019194 0.52633899
0.084607601 0.092477992 0.53163564
0.087136395 0.093196526 0.53382421
0.092028663 0.090739645 0.53736627
0.092875846 0.087530941 0.5397532
0.067325696 0.099492133 0.5199151
0.073552832 0.094313681 0.52858686
0.076017998 0.095031619 0.52795994
0.082204372 0.090879001 0.5336656
0.080922432 0.089470357 0.53540093
0.090206429 0.084702671 0.54152793
0.063485175 0.09701588 0.52351528
0.064896204 0.093896583 0.5256725
0.069391683 0.093278378 0.5289306
0.079613395 0.086846262 0.53817624
0.082137898 0.082744628 0.54173577
0.085485473 0.082961664 0.54417366
0.064362481 0.094202153 0.52867895
0.066045709 0.093787692 0.53033882
0.078542762 0.085180447 0.54145348
0.079832427 0.084190086 0.54318607
0.082753479 0.083447218 0.54559511
0.08485391 0.10286923 0.51224661
0.089369252 0.10219227 0.51373261
0.093336165 0.10033336 0.51646483
0.09611439 0.09841238 0.51983321
0.098966949 0.095968977 0.52333182
0.1002662 0.092908055 0.52670038
0.079174057 0.10203086 0.51140219
0.081661552 0.10286104 0.51177716
0.084532864 0.09873578 0.5174284
0.088304043 0.096877471 0.51888657
0.091839857 0.095161736 0.522645
0.0927874 0.092249468 0.52552575
0.099975631 0.09084361 0.52942222
0.099663824 0.088490531 0.53137857
0.074990913 0.10011343 0.51268607
0.080866322 0.10053223 0.51787955
0.082604297 0.097991183 0.51944935
0.083120055 0.094870582 0.52164483
0.088031135 0.091559321 0.52651423
0.091805652 0.092134498 0.52818227
0.097957455 0.086432353 0.53373528
0.070579462 0.098600239 0.51492357
0.080365047 0.093227953 0.52388448
0.084911868 0.08983326 0.52839839
0.094841622 0.083178028 0.53680313
0.066566586 0.09647131 0.51773828
0.074505091 0.090490885 0.52467149
0.076196164 0.089325093 0.52630979
0.079864301 0.087008581 0.52967334
0.082215294 0.085489035 0.53212249
0.090910316 0.08098121 0.53934169
0.064561039 0.093621343 0.52020699
0.06660524 0.091376409 0.52282989
0.070398092 0.090065703 0.52606118
0.073822506 0.087852985 0.52908295
0.077782638 0.086029857 0.53168952
0.080443852 0.083032578 0.53549021
0.083251849 0.080467418 0.53858984
0.087023027 0.080383569 0.54055649
0.095023513 0.096828669 0.51329881
0.097593002 0.094142295 0.51464975
0.08565101 0.098970525 0.50897175
0.090220548 0.098282799 0.51035213
0.09372773 0.096989892 0.51295131
0.097012937 0.095199063 0.51660472
0.10062259 0.091517039 0.51978815
0.10161065 0.089113876 0.52363479
0.079584159 0.098387286 0.50873691
0.082158849 0.098679245 0.50842255
0.085679531 0.095223323 0.51674902
0.087818317 0.092390202 0.51714885
0.090833165 0.090568766 0.52024943
0.10131444 0.087223873 0.52624565
0.10074218 0.084879674 0.52788293
0.076022573 0.09708713 0.5100807
0.084870674 0.090886846 0.5185014
0.089035667 0.088431358 0.52184534
0.098514445 0.082378983 0.53088117
0.071720012 0.094223276 0.511962
0.080714449 0.088503122 0.51977903
0.085964352 0.085630685 0.52479136
0.085201964 0.082586139 0.52535033
0.094988838 0.079543449 0.53402543
0.068417631 0.092304952 0.51459724
0.069396317 0.088216051 0.51663399
0.075936683 0.087889522 0.52092189
0.078082256 0.085494697 0.52365881
0.080558874 0.083275817 0.52697504
0.083831385 0.082944661 0.52825522
0.088287674 0.076909676 0.53357053
0.091064408 0.077879347 0.53556341
0.066901028 0.090796746 0.51787597
0.068825215 0.089014687 0.51942456
0.072148889 0.086598903 0.52226698
0.075044148 0.084975094 0.52472997
0.078853391 0.083025917 0.52791268
0.08162646 0.080058441 0.53153706
0.085097633 0.0784458 0.53400135
0.086962126 0.078160912 0.53699517
0.093527518 0.093021885 0.50625473
0.09548258 0.092814893 0.5093627
0.097885162 0.091206357 0.51161593
0.10063424 0.088408664 0.51345623
0.086663641 0.094988376 0.50564593
0.090316787 0.09495426 0.50724387
0.094749264 0.092981666 0.50993395
0.09891627 0.089852408 0.51337749
0.10092542 0.088469692 0.51658976
0.1021267 0.085373446 0.52046186
0.079734504 0.094073147 0.50590926
0.082494795 0.094470993 0.50546932
0.10190912 0.082852408 0.52275741
0.10081651 0.081350528 0.52497327
0.076813318 0.092505604 0.5073275
0.085833959 0.086881846 0.51682776
0.087957919 0.085417882 0.51901841
0.098418131 0.078765817 0.52734202
0.073408186 0.090061449 0.50941151
0.07246381 0.087212674 0.5104115
0.081806622 0.084973276 0.51818573
0.085522845 0.082841173 0.52135646
0.094668135 0.076058283 0.52951467
0.070490524 0.088990897 0.51239282
0.071259968 0.086093143 0.51386917
0.073535345 0.083310299 0.51780838
0.077477872 0.081003085 0.52098906
0.080071628 0.078708529 0.5241102
0.084083602 0.075969875 0.52662551
0.088120587 0.074983686 0.52941138
0.091236703 0.075205393 0.5315848
0.072489522 0.083653733 0.51874304
0.075566649 0.081557356 0.52134597
0.080223203 0.077966116 0.52460015
0.082680143 0.077245057 0.52840441
0.084994003 0.076488048 0.53049779
0.090404771 0.092589125 0.50095654
0.093218312 0.091937296 0.50290412
0.097005054 0.090431839 0.50561994
0.1001258 0.08820954 0.50899684
0.10293342 0.085711166 0.51208669
0.10457507 0.084031463 0.51447529
0.087064862 0.092506111 0.50156802
0.09068162 0.092803143 0.50320792
0.099115416 0.088666357 0.5117783
0.10231731 0.085810415 0.51487291
0.10382833 0.081885874 0.51727074
0.080866702 0.090749651 0.50213158
0.082463451 0.091428474 0.50269586
0.10144621 0.080345273 0.52116805
0.10186073 0.077524088 0.52119589
0.07754685 0.088656269 0.50426501
0.098408297 0.075485624 0.52410555
0.075219974 0.087001413 0.50620103
0.074469745 0.084745541 0.50779212
0.092670195 0.072829254 0.52489245
0.095473528 0.073990658 0.52572632
0.073866218 0.082352184 0.51092321
0.074973226 0.079977289 0.51407588
0.077136673 0.078000076 0.51783615
0.080992296 0.075708844 0.52163512
0.085216291 0.073271558 0.52359539
0.089057177 0.073045313 0.52540547
0.077416718 0.075474963 0.51780385
0.080194801 0.074020237 0.52069968
0.082557626 0.072452828 0.52228171
0.09371274 0.088685766 0.5009011
0.097120024 0.0862225 0.50288016
0.10048343 0.084327847 0.50573987
0.10283033 0.082771622 0.50942385
0.087139137 0.088215932 0.49965057
0.091310665 0.086800277 0.50015849
0.094971977 0.084787697 0.50123423
0.1007534 0.081114233 0.5065586
0.10234376 0.080108255 0.51007682
0.10294173 0.078070506 0.51387787
0.10403381 0.077428743 0.51776159
0.081571512 0.088041499 0.50002575
0.083884329 0.086071834 0.50017828
0.10114387 0.074832372 0.51526737
0.10205036 0.074919403 0.51904285
0.078120984 0.085950568 0.5024823
0.079882212 0.083104134 0.50174838
0.097309276 0.071574092 0.51805794
0.099202894 0.073043339 0.52070498
0.076101437 0.084303215 0.50370836
0.076401725 0.081104375 0.50501037
0.078084812 0.07750313 0.50765061
0.089462802 0.070152313 0.51817518
0.093487136 0.069855973 0.52042264
0.09592703 0.071628198 0.52323234
0.074567184 0.079334259 0.5081498
0.076190926 0.076837204 0.51112771
0.079242036 0.074407488 0.51395851
0.082781777 0.072163269 0.51717752
0.085911281 0.070425369 0.52015215
0.089721166 0.069398843 0.52210641
0.076906733 0.074716724 0.5161671
0.080435358 0.072582342 0.5194481
0.083008468 0.071272284 0.52155215
0.041821577 0.046783373 0.53643709
0.044374723 0.045431845 0.53895563
0.039425232 0.045291737 0.53839153
0.041957907 0.04400301 0.54064506
0.037947565 0.043335337 0.5401988
0.039117344 0.04266075 0.54148412
0.098173164 0.081676766 0.50066346
0.099885978 0.08090663 0.50240827
0.087729298 0.084232539 0.49860665
0.091237277 0.082523391 0.49839479
0.095220387 0.081989944 0.49965698
0.10049728 0.078391284 0.50425512
0.10129515 0.07645791 0.50737989
0.10165522 0.074710377 0.51079208
0.085189089 0.08222051 0.49909839
0.087021187 0.079884529 0.4980458
0.099771649 0.071862914 0.50992632
0.099892311 0.072736986 0.5126279
0.081616893 0.080428578 0.50144249
0.083063573 0.077074036 0.50159222
0.0947726 0.069718398 0.51258403
0.096589886 0.070887901 0.51509291
0.079271138 0.079037078 0.50384909
0.080585852 0.075337648 0.5054239
0.082710445 0.07077878 0.50825799
0.085768625 0.06874299 0.51113725
0.090409316 0.069158763 0.51439404
0.093055308 0.069869682 0.51719135
0.079270571 0.074345283 0.50883108
0.081203528 0.072093174 0.51054084
0.084308282 0.070038944 0.51309526
0.087040983 0.069556177 0.51613051
0.058630768 0.066048302 0.5088383
0.059477337 0.065588534 0.50923991
0.079191417 0.053048834 0.52751547
0.079860926 0.05274358 0.52835178
0.056733597 0.06516961 0.51002645
0.058198798 0.063519768 0.51220357
0.072250612 0.052667957 0.52699149
0.07565096 0.052545212 0.52830744
0.078028694 0.05163832 0.52983588
0.054482181 0.062788457 0.51203865
0.055460554 0.061080996 0.51490992
0.057074741 0.059374593 0.51709682
0.069090456 0.051778689 0.52826136
0.071644396 0.050784562 0.52998692
0.074928403 0.049962714 0.53089738
0.053018715 0.058469512 0.51730454
0.054647855 0.056571063 0.52027828
0.055146441 0.054263569 0.52248466
0.061909258 0.050105847 0.52801239
0.064651839 0.05025591 0.52963257
0.067877173 0.049057912 0.5312795
0.052803159 0.053767592 0.52313358
0.053590879 0.05249548 0.52557492
0.057874389 0.049658924 0.5295279
0.061068792 0.048794426 0.53053164
0.048665099 0.050163578 0.52609849
0.050883483 0.049944628 0.52832824
0.054269917 0.047888923 0.53091222
0.055903185 0.045894608 0.53241533
0.047047887 0.048760943 0.52716076
0.046712171 0.047915295 0.530756
0.049896218 0.045438323 0.53381181
0.053649716 0.044588894 0.53373873
0.04335862 0.045537315 0.53405654
0.045940455 0.043860883 0.53627777
0.040063515 0.04467725 0.53721797
0.042244986 0.043257594 0.53945887
0.037841223 0.042755973 0.53936666
0.03936436 0.041975819 0.54091239
0.098473199 0.077563129 0.49742392
0.10009605 0.076779351 0.49897057
0.091585591 0.077915363 0.49611142
0.095643818 0.077756569 0.49700543
0.1003103 0.074488558 0.50134897
0.10066159 0.072601363 0.50448769
0.085228205 0.075467341 0.49511939
0.087798312 0.076841407 0.49612546
0.099615708 0.069581777 0.5072819
0.099165104 0.066723958 0.5082022
0.082358122 0.074230522 0.49674851
0.083475113 0.074863806 0.49976337
0.095052108 0.067491427 0.51045716
0.096921675 0.06498149 0.51030165
0.080793522 0.072615452 0.49848083
0.081528373 0.071191251 0.50198448
0.081968896 0.070034645 0.50582528
0.08734557 0.066693798 0.51092112
0.090816095 0.065207906 0.51075912
0.094536766 0.063922994 0.51112121
0.079899818 0.06796059 0.5029797
0.081733428 0.067304507 0.5067088
0.085034505 0.065454811 0.50982183
0.087940633 0.062801316 0.51057428
0.059263799 0.064944036 0.50538313
0.060658868 0.063763745 0.50827259
0.07916379 0.052040815 0.52530706
0.082116373 0.050549231 0.52654386
0.055341288 0.06361068 0.5073024
0.060446188 0.061623998 0.51076114
0.060940921 0.058723852 0.51294822
0.072820455 0.05142558 0.52378643
0.076186553 0.051941264 0.52517575
0.079383254 0.048496753 0.52943891
0.052949816 0.060049262 0.5099842
0.052820716 0.05975683 0.51337904
0.059325784 0.05665388 0.51621854
0.06832774 0.050848529 0.5246104
0.072134428 0.047689959 0.5310691
0.074897259 0.046141557 0.53027576
0.051902983 0.057082273 0.51131982
0.051697738 0.055978835 0.51472014
0.056947205 0.054901436 0.51918876
0.056722142 0.052458122 0.52055329
0.062534183 0.049021013 0.5256241
0.0647972 0.05036217 0.52669811
0.068753347 0.045458805 0.5305751
0.072124764 0.044600166 0.53010213
0.051314935 0.05314184 0.51693577
0.051368158 0.051523823 0.52059662
0.055358604 0.049154818 0.5241617
0.057606924 0.048052803 0.52606249
0.06133743 0.045090251 0.53008693
0.065046683 0.044635534 0.53017908
0.048628844 0.048416946 0.52359062
0.053243838 0.045977272 0.5265702
0.053126264 0.04557481 0.52691567
0.056952283 0.043254558 0.53132117
0.045151051 0.045723449 0.52557015
0.047606714 0.044295456 0.52900761
0.049586929 0.042741884 0.53083432
0.053283364 0.040776309 0.53309411
0.041768666 0.043022081 0.52764267
0.043733336 0.042585835 0.53138053
0.046251744 0.04053843 0.53307295
0.049288642 0.038227819 0.53516912
0.039968889 0.040887631 0.52936739
0.040035762 0.039137438 0.53272718
0.042945825 0.037499689 0.53580081
0.046655245 0.036499552 0.53636962
0.036808744 0.036684327 0.53509492
0.039281156 0.03554517 0.5378558
0.033912838 0.034605496 0.53690183
0.036375601 0.03346451 0.53976744
0.099085562 0.073857158 0.49404293
0.10092369 0.072746761 0.49595255
0.089439221 0.074221924 0.48993376
0.092612587 0.074246541 0.49262509
0.095732801 0.074398771 0.49395066
0.10090053 0.071267799 0.49863464
0.10164659 0.068457365 0.50111371
0.10329228 0.065514565 0.50318581
0.086367458 0.07388857 0.49159873
0.089209914 0.075314626 0.4936561
0.10092171 0.068044715 0.50440651
0.10147703 0.064426452 0.50558203
0.082105987 0.072056659 0.49425679
0.08155933 0.071674407 0.49764854
0.09494447 0.063329756 0.50977296
0.097941436 0.061992895 0.50868934
0.079611234 0.068900593 0.49602032
0.079671472 0.068525136 0.49905878
0.091536097 0.060951613 0.51015395
0.094324507 0.059656128 0.50957078
0.078608274 0.065190233 0.5005464
0.080458224 0.063112967 0.50468683
0.084047824 0.06096549 0.50807792
0.088555552 0.059162896 0.50978118
0.079459041 0.060067289 0.50404638
0.082524486 0.058541402 0.5070067
0.060485922 0.06294252 0.49694616
0.062550135 0.062962972 0.49885243
0.0839139 0.048147094 0.51902729
0.086351573 0.04774873 0.52107066
0.087816171 0.045707744 0.5222432
0.057865907 0.062056608 0.49857682
0.060070757 0.063024752 0.501176
0.062552124 0.059459865 0.504686
0.080286294 0.048520193 0.5206241
0.084447302 0.047497064 0.52384436
0.08585342 0.044462897 0.52446234
0.055792082 0.061049536 0.50106746
0.05575715 0.059221417 0.5042544
0.059792686 0.056677032 0.50730383
0.060632288 0.056105882 0.51056272
0.072939999 0.04827404 0.52193046
0.076064184 0.04637935 0.52227467
0.07956522 0.044307113 0.52633578
0.083160043 0.043718144 0.52617627
0.053048894 0.057396479 0.50753301
0.056484852 0.054446109 0.50856572
0.058874715 0.053300001 0.5128659
0.068885155 0.046598583 0.52257222
0.073270135 0.043776408 0.52418965
0.075449973 0.043290462 0.52830172
0.052081726 0.055790156 0.50997657
0.052694574 0.053038165 0.51222193
0.055446617 0.050530467 0.51491892
0.056310814 0.049653582 0.51880324
0.062875345 0.046200097 0.52399784
0.065669492 0.044153772 0.52435154
0.069097146 0.042677447 0.52747917
0.072455034 0.043241978 0.52911162
0.052712373 0.048568442 0.51855421
0.054252461 0.046165969 0.52059531
0.058481108 0.043686338 0.52451658
0.060889218 0.04283794 0.52671903
0.065016925 0.043008722 0.52841002
0.049314868 0.044679582 0.52039468
0.05350503 0.043183912 0.52346396
0.054352205 0.042604193 0.52435762
0.057689026 0.039221548 0.52802688
0.045614924 0.042207506 0.52275342
0.048723459 0.039812326 0.52626371
0.049996592 0.039242946 0.52717566
0.054073844 0.03688138 0.53044647
0.043229736 0.040241025 0.52483231
0.043265644 0.038706094 0.52692276
0.046348143 0.036725245 0.52882308
0.050183482 0.034984183 0.53240865
0.041694064 0.036376204 0.52915138
0.044904605 0.033970766 0.53228223
0.047429431 0.032243855 0.53234899
0.099144295 0.070372671 0.49053985
0.10188894 0.068786673 0.49289891
0.090038478 0.071539298 0.48777142
0.093218148 0.071312994 0.48844719
0.096527234 0.071489729 0.49006587
0.10269412 0.067588121 0.49555576
0.10342903 0.064762473 0.49796653
0.10366294 0.06279543 0.50067604
0.086920612 0.070662469 0.4882316
0.10261216 0.064148568 0.50184608
0.10245962 0.060905561 0.50275981
0.081873231 0.068952754 0.48969236
0.10000538 0.057627682 0.50590402
0.077372968 0.065656587 0.48941594
0.077905573 0.066117272 0.49271676
0.095439352 0.055139393 0.50878972
0.097106934 0.052526634 0.5085237
0.076369993 0.062451366 0.49478182
0.076960206 0.062149871 0.4986701
0.088284343 0.055293344 0.50904554
0.091350481 0.05319846 0.50870121
0.064673372 0.061993361 0.49184072
0.066500962 0.061869923 0.49375087
0.07491304 0.059444916 0.49607742
0.075041138 0.058531277 0.4994891
0.07824865 0.056397855 0.50359732
0.081235372 0.054678746 0.50646305
0.085112855 0.052203476 0.50889713
0.088115901 0.048960119 0.51110095
0.090264775 0.046486303 0.51572508
0.091575533 0.044448283 0.51696503
0.061128087 0.062183313 0.49391466
0.064608261 0.062094331 0.49659631
0.066679537 0.058042239 0.49850437
0.074415497 0.054969266 0.50106716
0.081863545 0.049985118 0.50809008
0.084479354 0.046853963 0.51514715
0.088637158 0.04696038 0.51841211
0.089863896 0.043950394 0.52057964
0.058197368 0.060500003 0.49601737
0.058697578 0.0568147 0.49798119
0.064487234 0.055985462 0.50225091
0.080294549 0.046098165 0.51656651
0.083695106 0.041114703 0.52093196
0.08705657 0.042380404 0.52282441
0.056399606 0.059362277 0.49933258
0.058044385 0.05600578 0.50141847
0.060631245 0.054373495 0.50356716
0.077900909 0.043323632 0.51952147
0.080030218 0.042197138 0.52230024
0.083574638 0.042288695 0.52466738
0.049438484 0.040741991 0.51811022
0.052693598 0.039491061 0.51906246
0.055519104 0.037443571 0.5219993
0.057266466 0.03576785 0.52549666
0.048205387 0.039114472 0.51919848
0.047496974 0.036774419 0.52172393
0.050237127 0.034335811 0.52476293
0.054064885 0.033704076 0.52677202
0.043189034 0.037299015 0.52345216
0.04500268 0.034374129 0.52353364
0.048412368 0.032729082 0.52683908
0.050283495 0.031955704 0.52979636
0.04118323 0.031963598 0.52633345
0.044143654 0.030021265 0.52993834
0.046629522 0.029829018 0.53177857
0.037990928 0.028834376 0.52822638
0.04075579 0.027231306 0.53163117
0.034739681 0.026150193 0.5299533
0.037556916 0.02441174 0.53305131
0.099980868 0.06707038 0.48747852
0.10296093 0.065367647 0.4900482
0.090233915 0.068032026 0.48550791
0.09346474 0.067428306 0.48548603
0.097304687 0.066791102 0.48675591
0.10298169 0.06310346 0.49168137
0.10366948 0.060884483 0.49491122
0.10365537 0.058533568 0.49719313
0.083369136 0.066653386 0.48271254
0.087148577 0.066832647 0.48488393
0.10369343 0.057154797 0.49590465
0.10310751 0.056802042 0.49973252
0.10438423 0.053278394 0.50217223
0.08003787 0.065900236 0.4838241
0.082379222 0.067098856 0.486525
0.10122249 0.054997236 0.50428849
0.10275155 0.051667228 0.5047099
0.076650292 0.063862525 0.48683625
0.098797284 0.05006925 0.5071854
0.068509698 0.060623851 0.4859269
0.072753504 0.059727799 0.48845458
0.075206697 0.05930315 0.49159655
0.092204824 0.048504882 0.50729698
0.094911978 0.045934707 0.5087086
0.096670128 0.042989731 0.51172358
0.06525448 0.060633074 0.48785207
0.069226176 0.060333304 0.49130356
0.072286084 0.056686547 0.49364442
0.073589206 0.056799889 0.49694654
0.078224473 0.051561452 0.50263309
0.079071008 0.050796837 0.50292784
0.086234674 0.048611924 0.50853574
0.088632762 0.046443895 0.5089556
0.092588358 0.045445126 0.51270145
0.094668992 0.042125922 0.51501161
0.062007237 0.058752108 0.49039462
0.068239212 0.054638758 0.49575806
0.072766781 0.052938338 0.49835205
0.076296926 0.050981183 0.50102997
0.079841718 0.048743419 0.5045445
0.08293359 0.046737581 0.50817752
0.08506 0.044093803 0.51142871
0.09113203 0.040586248 0.5174557
0.060417693 0.056333818 0.49268579
0.061295956 0.054132469 0.49536014
0.06411656 0.052430388 0.49829757
0.08154422 0.041355096 0.51416516
0.084577262 0.039609592 0.51712292
0.088014573 0.039227076 0.5180825
0.060122039 0.053798772 0.49929416
0.061388481 0.052649975 0.50019056
0.066943742 0.042605426 0.50718373
0.068478912 0.041587345 0.50881094
0.079817183 0.040958494 0.51699489
0.081042469 0.040576436 0.51867509
0.062808856 0.042019464 0.50887454
0.065941162 0.039953444 0.51178646
0.061460052 0.040402383 0.51032203
0.064187847 0.038775515 0.51248503
0.04928894 0.037464164 0.51673555
0.05129474 0.035402786 0.51686585
0.054897029 0.033329204 0.52058858
0.056116685 0.032775465 0.52296871
0.048647627 0.036482327 0.51700145
0.049170949 0.032756433 0.51855546
0.052120071 0.030721018 0.52134943
0.054670975 0.031586573 0.52391219
0.048013829 0.029513832 0.51963675
0.050255056 0.028515395 0.52211136
0.037268888 0.026658021 0.52699161
0.039568339 0.024019141 0.53135616
0.034889355 0.024322983 0.52847385
0.037578553 0.02293062 0.53191864
0.10086378 0.06378299 0.48590952
0.10253674 0.062721014 0.4873628
0.09373223 0.063552745 0.48359308
0.097700223 0.061766233 0.48507375
0.10155828 0.059423786 0.4881916
0.10311311 0.057471614 0.49238619
0.083844796 0.064881563 0.48177078
0.086989887 0.063176014 0.48171979
0.091140233 0.061763164 0.48261762
0.10266416 0.054415163 0.49358112
0.10362472 0.05266574 0.49724287
0.1043807 0.052331906 0.50063723
0.080516607 0.062375002 0.48178214
0.083232343 0.06095767 0.48132172
0.10233919 0.048987791 0.49915552
0.10242902 0.048609201 0.50220937
0.07383956 0.058911886 0.48070619
0.076190054 0.060815476 0.48168686
0.10109209 0.045110039 0.5049684
0.10047373 0.042140428 0.50584137
0.069468394 0.058804397 0.48276919
0.072789364 0.059376162 0.48526758
0.074475124 0.056446958 0.49088112
0.09081424 0.046035975 0.50613725
0.097017825 0.044307373 0.50772321
0.098524921 0.040823855 0.50941718
0.06516932 0.05785542 0.48402092
0.072955698 0.054283492 0.49177143
0.079424158 0.045947514 0.49927068
0.088730745 0.044129979 0.50650567
0.096454449 0.038351316 0.51298851
0.062129553 0.05507616 0.48668492
0.069257684 0.050773695 0.49418473
0.072564736 0.048823528 0.49553993
0.076444931 0.047040794 0.49876645
0.079472065 0.044990145 0.50176036
0.082498297 0.042249165 0.50502509
0.084630892 0.041352179 0.50816
0.092140533 0.036091506 0.51485783
0.060852952 0.05294431 0.48954302
0.062266752 0.050985396 0.49168769
0.065293506 0.049925048 0.49410778
0.070906013 0.041423228 0.50158358
0.073087938 0.04025 0.50363469
0.083652534 0.038407195 0.51125956
0.085938722 0.036125824 0.51355994
0.088644236 0.035457596 0.51518494
0.065045618 0.041772116 0.50205654
0.068424426 0.041881844 0.50324279
0.07155446 0.039576285 0.50669241
0.072134919 0.036243849 0.50815517
0.06192413 0.04081817 0.50368023
0.062537797 0.041386619 0.50609148
0.068514161 0.037601463 0.51090688
0.070198804 0.034728948 0.51071823
0.0571496 0.038013861 0.50492483
0.059745323 0.037149578 0.50883156
0.063543685 0.034855753 0.51217568
0.066968195 0.03212171 0.51391351
0.056642704 0.035259508 0.50608838
0.058766861 0.033859786 0.5097717
0.061623495 0.032164291 0.51193464
0.064382158 0.030897819 0.51378423
0.049269937 0.029218797 0.5167684
0.051943012 0.027489744 0.51917547
0.046658769 0.026345139 0.5178225
0.048973188 0.024946874 0.52040797
0.044863272 0.023655262 0.518987
0.046891589 0.022258434 0.52130872
0.097484544 0.05716496 0.48440769
0.099821828 0.055861913 0.48602533
0.087532192 0.05881669 0.48012516
0.090826526 0.057270102 0.48139161
0.095230862 0.055559091 0.48315626
0.099683851 0.052631155 0.48690474
0.10106342 0.050847899 0.49086308
0.1025126 0.049319871 0.49408779
0.080523126 0.058344979 0.48051581
0.083974503 0.057119098 0.48014596
0.08815892 0.054794014 0.48044431
0.10008508 0.047192097 0.49165198
0.1011402 0.046178445 0.49610007
0.10119271 0.045394488 0.49973157
0.073764905 0.057715576 0.47965655
0.077230409 0.056911394 0.47957918
0.081150413 0.055128302 0.47964808
0.10023715 0.043020256 0.49775821
0.10084804 0.0420973 0.50144225
0.10089028 0.040422797 0.50480109
0.07099995 0.056250405 0.48056495
0.072810866 0.053166699 0.48082542
0.097230583 0.03767262 0.50349849
0.099194124 0.038662426 0.50654453
0.066663042 0.053307742 0.48187542
0.070898592 0.050843123 0.48220417
0.072098657 0.046912745 0.48733023
0.076259293 0.046019889 0.49094263
0.076821417 0.044716965 0.49273452
0.083047286 0.040454816 0.49898085
0.08518929 0.039970241 0.49947119
0.088569947 0.036359444 0.50260234
0.094680339 0.035647705 0.5045222
0.095774293 0.03486418 0.5088768
0.063736886 0.051058486 0.48441374
0.065516405 0.047588419 0.48619595
0.069360845 0.046544064 0.48958793
0.073446706 0.046880584 0.49312702
0.075497888 0.043558318 0.49597761
0.079447247 0.040593803 0.50008255
0.083641149 0.040311322 0.50231093
0.086009286 0.035926241 0.5050891
0.089001201 0.032882873 0.50797981
0.092306398 0.03312324 0.51065767
0.061970148 0.050790161 0.48787576
0.063806966 0.048557989 0.48893833
0.065891817 0.047381539 0.49107471
0.069320142 0.039516341 0.49604201
0.072318815 0.0403632 0.49824587
0.075799629 0.038282335 0.50127524
0.076475047 0.035036676 0.5028035
0.084793963 0.035632912 0.5085851
0.087137952 0.033922993 0.51050037
0.065894768 0.039257936 0.49795812
0.068749025 0.040267445 0.49935517
0.073883429 0.036801431 0.50435859
0.074250609 0.0337543 0.50575715
0.061038136 0.037885554 0.49928015
0.071491927 0.031244725 0.50914788
0.056491587 0.03721945 0.50110054
0.056994688 0.036240552 0.50125396
0.067988269 0.029031241 0.51194954
0.056014769 0.032780223 0.50424737
0.056996979 0.030131562 0.50779682
0.060652178 0.028036961 0.51072818
0.064328752 0.028097393 0.51206344
0.046554424 0.023273105 0.51655298
0.048237834 0.021931252 0.518547
0.044971339 0.02176303 0.51713496
0.047014486 0.020335218 0.51959693
0.091031544 0.053350177 0.48207387
0.095413834 0.052474421 0.48338646
0.097838536 0.051141106 0.48529127
0.098575115 0.049087379 0.4885174
0.084285676 0.053633805 0.47976187
0.087652676 0.051852811 0.48125482
0.091706336 0.048737064 0.48372743
0.09477929 0.046544172 0.48648891
0.097863041 0.045455329 0.49083161
0.099388085 0.043763135 0.49392605
0.077501811 0.052549418 0.47892535
0.080803469 0.051111449 0.47998789
0.084319405 0.047958709 0.48226631
0.08806622 0.045280851 0.48482314
0.09126994 0.043108821 0.48771644
0.094444446 0.041629396 0.49179113
0.097519934 0.040506177 0.49556425
0.099018149 0.038904421 0.49897259
0.075248487 0.05099456 0.48022687
0.077625647 0.047862254 0.48172897
0.080416195 0.045244239 0.4829953
0.086799011 0.04190065 0.48732057
0.088280745 0.042003874 0.4875001
0.091792017 0.038191419 0.49333218
0.094213076 0.037432645 0.49717793
0.09689948 0.03726577 0.50047278
0.066824064 0.049770616 0.48194548
0.070104443 0.049071498 0.48295203
0.073491685 0.046499074 0.48481286
0.076694809 0.043186773 0.48781839
0.078030787 0.039932981 0.48827615
0.083906293 0.036042482 0.49397254
0.086663313 0.036772959 0.49683142
0.090186834 0.035763375 0.50040638
0.092758209 0.034868963 0.50376713
0.09360078 0.032812878 0.5069471
0.065810069 0.0492355 0.48264226
0.066816263 0.047754217 0.48397654
0.075910516 0.041161872 0.49048415
0.075299613 0.03907229 0.49136883
0.080902949 0.03540903 0.49605834
0.083031148 0.036518112 0.49712166
0.091231734 0.032593273 0.50659829
0.070660532 0.037316211 0.49306265
0.072456837 0.038428903 0.493314
0.078180239 0.034816235 0.49985418
0.078236602 0.03257113 0.49981758
0.064791225 0.035998471 0.4941473
0.075562738 0.029484781 0.504291
0.062130358 0.034038372 0.49512652
0.0732916 0.027213335 0.50576735
0.058435809 0.03142184 0.4984937
0.068344444 0.025140999 0.50798851
0.055659704 0.028732844 0.50144506
0.056074131 0.026054615 0.50466859
0.060819067 0.023271708 0.50881577
0.06448473 0.023071192 0.50940371
0.057074387 0.024454352 0.50579876
0.058741748 0.023594365 0.5075233
0.086416028 0.043481339 0.48509085
0.089870848 0.041257877 0.48840272
0.081757911 0.043441877 0.48421344
0.084101044 0.042007074 0.48611641
0.087908253 0.03958226 0.48969218
0.08985588 0.038056739 0.49209651
0.079704173 0.041869916 0.48570973
0.080982722 0.03927036 0.48888487
0.08379478 0.037557099 0.4914349
0.087617718 0.036833204 0.49312449
0.077076063 0.036381848 0.49092293
0.079713523 0.034369163 0.49360955
0.07074099 0.034119383 0.49068955
0.074002959 0.033314131 0.49078101
0.078165799 0.031023573 0.49464738
0.078214809 0.029311351 0.49776068
0.063162535 0.031208912 0.48965049
0.065219507 0.03246884 0.49118838
0.076267809 0.025838304 0.5013777
0.076565288 0.023730306 0.50292647
0.062738299 0.031551041 0.49039873
0.062543198 0.030798566 0.49276102
0.073701501 0.02381577 0.50332481
0.076123096 0.023493227 0.50336528
0.0593265 0.02727451 0.49590284
0.068765938 0.021574112 0.50474244
0.056543801 0.024899306 0.49847469
0.05732812 0.022076622 0.50173914
0.061017431 0.019810895 0.50501043
0.065055147 0.019567065 0.50606334
0.057118077 0.023118259 0.50419831
0.05875627 0.022005597 0.50565481
0.073226914 0.028982518 0.49046898
0.075912997 0.027331382 0.49305281
0.067295834 0.028062593 0.4895733
0.070678525 0.025992669 0.48994845
0.074541464 0.023758534 0.49353233
0.075508803 0.023039814 0.4971419
0.063750632 0.025949135 0.49055511
0.073379897 0.020485111 0.49486777
0.073109508 0.020002488 0.49940982
0.060666632 0.023423951 0.49332985
0.060548902 0.020147704 0.49409339
0.066325597 0.016305398 0.49993169
0.06898766 0.018041465 0.50121611
0.058295656 0.022170886 0.49621853
0.059467521 0.019320175 0.49769005
0.062726021 0.017198052 0.50082058
0.065846264 0.017534461 0.50282866
0.070308268 0.022661056 0.49067116
0.072127871 0.02196214 0.49210787
0.065183051 0.023162354 0.48976478
0.066974878 0.018959824 0.49088517
0.069247968 0.017360907 0.49289811
0.071643509 0.017858554 0.49655321
0.062961422 0.021502025 0.49102366
0.064306453 0.016910855 0.49252319
0.066419326 0.015169498 0.49487472
0.069530554 0.016595107 0.4978835
0.061982486 0.017324384 0.49595195
0.063931979 0.016142171 0.49741924
0.08239466 0.019051384 0.48278564
0.083611161 0.018368546 0.4834742
0.080747075 0.018235445 0.48333219
0.06736967 0.015223511 0.48991668
0.068186998 0.014504243 0.49042147
0.065273218 0.013836637 0.49025473
0.066870928 0.012710117 0.4919897
0.063507833 0.012484927 0.49260357
0.064183921 0.012108397 0.49310195
0.086274073 0.01958086 0.4798677
0.087168679 0.019007448 0.48051083
0.08289776 0.017971948 0.48055458
0.084822133 0.017473649 0.4824008
0.076502591 0.015774395 0.48021841
0.07916075 0.015689824 0.48241505
0.08216729 0.015524264 0.48350513
0.073702216 0.013479333 0.48063573
0.076222084 0.012936089 0.48253489
0.068621233 0.011248384 0.48410484
0.069572404 0.010138825 0.48587206
0.065494314 0.0099685863 0.48651499
0.067327842 0.0090654679 0.48825487
0.076266296 0.013191767 0.47846058
0.078573242 0.012593959 0.47976252
0.073012881 0.011008851 0.478872
0.07536152 0.0099357851 0.48091772
0.069270045 0.0082894713 0.48075715
0.071014687 0.0083179362 0.48302311
0.067056581 0.0073012747 0.48360229
0.068340801 0.007307183 0.48481089
