# .PCD v0.7 - Point Cloud Data file format
VERSION 0.7
FIELDS x y z
SIZE 4 4 4
TYPE F F F
COUNT 1 1 1
WIDTH 1294
HEIGHT 1
VIEWPOINT 0 0 0 1 0 0 0
POINTS 1294
DATA ascii
0.0036429707 -0.016977705 0.5327642
0.0062292945 -0.017482156 0.53253913
0.011085931 -0.018471429 0.53321487
0.015937328 -0.019414244 0.5338819
0.020817421 -0.020248467 0.53466994
0.025678327 -0.021158883 0.53537095
0.030489223 -0.022060394 0.5360986
0.035536364 -0.023169387 0.53675979
0.040417813 -0.023936529 0.53756928
0.04519739 -0.024987809 0.53821659
0.049859665 -0.025895089 0.53886962
0.053003311 -0.026515368 0.53952593
0.004173317 -0.012485184 0.53529811
0.0067895707 -0.01276922 0.53534776
0.011607205 -0.013806958 0.53599137
0.016364623 -0.01481732 0.5366354
0.021277148 -0.015698083 0.53739578
0.026192516 -0.01673926 0.53806281
0.030965371 -0.017879283 0.53863472
0.035907455 -0.018672649 0.53945416
0.040806629 -0.019532248 0.54022354
0.045581639 -0.020654613 0.54080641
0.050394803 -0.02154379 0.54153603
0.053418346 -0.022529598 0.54212183
0.0045833699 -0.0086062811 0.53781986
0.0072073266 -0.0086619686 0.53786707
0.011958249 -0.0094990879 0.53861105
0.016823733 -0.010548878 0.53926003
0.021800036 -0.011627506 0.53992093
0.0265832 -0.012556061 0.54061967
0.03130161 -0.013489168 0.54129887
0.036311649 -0.014452614 0.54203612
0.041144095 -0.015479911 0.54268974
0.045943335 -0.016348111 0.54342806
0.050909966 -0.017499106 0.54404396
0.053933926 -0.017995574 0.54483432
0.005080739 -0.004275199 0.54035985
0.007561638 -0.0045303963 0.54038411
0.01238816 -0.0052173138 0.54123598
0.017155817 -0.0062242039 0.54188472
0.022255288 -0.0075404756 0.54243815
0.02711858 -0.0082040504 0.54331321
0.031806879 -0.0092462562 0.54392058
0.036807671 -0.01027309 0.54461819
0.041593917 -0.011255948 0.54528588
0.046341643 -0.011996515 0.54608572
0.051389068 -0.013180548 0.54670322
0.054491021 -0.013932165 0.54742533
0.0055619599 0.00021449476 0.54323262
0.0080775563 -0.00026717782 0.54302055
0.013113927 -0.0010603443 0.54386455
0.017928528 -0.0020619668 0.5445286
0.022606965 -0.0030874982 0.54514319
0.027472453 -0.0039540008 0.54589975
0.032201625 -0.00502133 0.54650295
0.037165262 -0.0060885735 0.54716724
0.041858502 -0.0068465676 0.5479427
0.046928056 -0.0079164077 0.54863298
0.052028939 -0.0089253485 0.54936713
0.054915957 -0.0094132684 0.55002707
0.0059873108 0.003985215 0.54549748
0.0086791255 0.0040245727 0.5456959
0.013449008 0.0030633733 0.54637206
0.018254614 0.0022259504 0.54713011
0.023236709 0.0013388842 0.54790491
0.027873823 0.00031430274 0.5485093
0.032722071 -0.00087241828 0.54907346
0.037739016 -0.0016659275 0.54991221
0.042625681 -0.0027146861 0.55056733
0.047428928 -0.0038111806 0.55117273
0.051997758 -0.0045439601 0.55193061
0.055240043 -0.0049942434 0.55272418
0.0064869234 0.0084350705 0.54818666
0.0089598382 0.0081949867 0.54821664
0.013747098 0.0074528679 0.54902589
0.018592088 0.0064391792 0.54969072
0.023588696 0.0056067668 0.55050141
0.028497057 0.0043125935 0.55101812
0.0332615 0.0036736205 0.55188191
0.038353458 0.0025573522 0.55255079
0.043187954 0.0014529824 0.55315965
0.048030235 0.00053624064 0.55388069
0.052711129 -0.00048795342 0.55449671
0.055885702 -0.00086167827 0.55531275
0.0069786776 0.01308576 0.55120939
0.0094551994 0.012461837 0.55084985
0.014514402 0.011800498 0.55177718
0.019237254 0.010773174 0.55240226
0.024093134 0.009715274 0.55304396
0.028823407 0.0087036118 0.55368018
0.033838511 0.0077774003 0.55444062
0.038732238 0.0067898929 0.55513352
0.043526977 0.0058162659 0.55580878
0.048506357 0.0046898201 0.55644238
0.053376362 0.0037388504 0.55715054
0.056378298 0.0029603317 0.55787539
0.0074477568 0.017332025 0.55382907
0.0099200243 0.016873501 0.55356008
0.014806801 0.015828706 0.55421752
0.019749716 0.014736183 0.55486155
0.024594571 0.013898827 0.55562985
0.029496925 0.012886845 0.55631059
0.034264602 0.011895295 0.55696833
0.039343216 0.010941148 0.55772889
0.044066347 0.010044403 0.55843067
0.048784301 0.0090227872 0.55905783
0.05366566 0.0080564246 0.55975991
0.056759782 0.0074089505 0.56042659
0.0079531549 0.021613553 0.55624425
0.010344367 0.021010794 0.5560987
0.015285129 0.020127468 0.55686498
0.02003881 0.019144014 0.55752385
0.025011467 0.018188946 0.55825627
0.029747987 0.017019913 0.55880171
0.034641355 0.016077809 0.55952114
0.039604299 0.015199959 0.56029642
0.044366479 0.014294401 0.56100321
0.04922425 0.01329942 0.56168234
0.054288603 0.012293458 0.56240875
0.057315461 0.011727236 0.56322253
0.0083418489 0.025542166 0.55898404
0.010873857 0.025224783 0.55870974
0.015748342 0.024475895 0.55953765
0.020478399 0.023451507 0.56016636
0.025356641 0.022439688 0.5608409
0.030480495 0.021268435 0.56148583
0.035090372 0.020283714 0.56210649
0.040050291 0.019671001 0.56303656
0.044876233 0.018524706 0.56361866
0.049728803 0.017689161 0.56439
0.054562628 0.016567148 0.56498837
0.057742074 0.016115058 0.56590748
0.0087915976 0.029759206 0.56169808
0.011108764 0.0295204 0.56129205
0.016189942 0.028694257 0.56212837
0.020841407 0.027721398 0.56276691
0.025809517 0.026774563 0.56350297
0.030836279 0.025538512 0.56408459
0.035718948 0.024750635 0.56489176
0.040589407 0.023908578 0.56566393
0.04532405 0.022708088 0.56619048
0.050163008 0.021806389 0.56691945
0.055044375 0.020776816 0.56758446
0.058141768 0.019864555 0.56823444
0.0093314499 0.034278288 0.56420249
0.011673445 0.033658512 0.56386769
0.016672006 0.03278961 0.56465745
0.021618228 0.031714074 0.56531233
0.026496222 0.030869327 0.56608486
0.031328686 0.02980864 0.56671888
0.036014132 0.028772667 0.56732917
0.04093349 0.028005719 0.56815815
0.046041027 0.027089104 0.56894827
0.050676055 0.025904611 0.56945825
0.055707775 0.025037318 0.57025754
0.058550492 0.024284557 0.5708316
0.0097591393 0.038202703 0.56666434
0.012509679 0.038004391 0.56663585
0.017352285 0.036963359 0.56728405
0.021917259 0.036201023 0.56802362
0.026714204 0.035180941 0.56867218
0.031673558 0.034180634 0.56937462
0.03667032 0.033208527 0.57010335
0.041528143 0.032089345 0.57070959
0.046406679 0.031314693 0.57152349
0.0512615 0.030169472 0.57211369
0.056007139 0.029450715 0.57292581
0.059020869 0.028399996 0.5733965
0.010220956 0.042436458 0.56931734
0.012490721 0.042218082 0.56910408
0.017520921 0.041281827 0.56986254
0.022397716 0.040395446 0.5706104
0.027377358 0.039413303 0.57132876
0.032013163 0.038377963 0.57192647
0.036982395 0.037390128 0.57263881
0.041818939 0.036517106 0.57338405
0.046668991 0.035408393 0.5739944
0.051511489 0.034604736 0.57478189
0.056530051 0.03360527 0.57550019
0.059582353 0.032977961 0.57622212
0.010752097 0.046941571 0.57186317
0.013383441 0.046343669 0.57175767
0.018118436 0.045616195 0.57256192
0.023058215 0.04458084 0.57323867
0.027853066 0.043824479 0.57404155
0.032502815 0.04247836 0.57446051
0.037319221 0.041463859 0.57511741
0.042204715 0.040762916 0.57597637
0.047349297 0.039747939 0.57671833
0.051987261 0.038769901 0.57735026
0.056923889 0.038046256 0.57820916
0.060005419 0.036988899 0.57859832
0.011214799 0.051044829 0.5743289
0.013891105 0.050675042 0.5744319
0.018497845 0.049624063 0.57501292
0.023403557 0.0489069 0.57586759
0.028285803 0.0478236 0.57650125
0.03336627 0.046694331 0.57715952
0.038166419 0.045761496 0.57786012
0.043010049 0.044939704 0.57863724
0.047759518 0.043959171 0.57929671
0.052915484 0.043047667 0.58010238
0.057274714 0.042101428 0.58068055
0.060464121 0.041165277 0.58124334
0.011590548 0.054756425 0.57685786
0.014333397 0.054920763 0.57703888
0.019143863 0.053990193 0.57774353
0.024166115 0.052996494 0.57846618
0.02889836 0.052199557 0.57922894
0.033676319 0.05123882 0.57990742
0.038749315 0.050075345 0.58054364
0.04340817 0.049253941 0.58127296
0.04805214 0.048280388 0.58190906
0.052911364 0.047016323 0.58243066
0.057971574 0.046247967 0.58329546
0.060904346 0.0454273 0.58387417
0.0121371 0.059615158 0.5797869
0.014668701 0.059209824 0.57964349
0.019521983 0.058363065 0.58040845
0.024322545 0.057111867 0.58092231
0.029226797 0.056373529 0.58176416
0.034127839 0.055234671 0.58237016
0.038945362 0.054429665 0.58315033
0.043721542 0.053432666 0.58380705
0.048647359 0.052370533 0.58446449
0.053578548 0.051362447 0.58515507
0.058315702 0.050459437 0.5858568
0.061509296 0.049388513 0.58639407
0.012561157 0.063640185 0.58241373
0.01506318 0.063332871 0.58216602
0.019822342 0.062540211 0.58293825
0.024664061 0.06143254 0.58354706
0.029761689 0.060438737 0.58428931
0.034428254 0.05964271 0.5850355
0.03945753 0.05879645 0.58584654
0.04435803 0.057611197 0.58642513
0.049009576 0.056612179 0.58704823
0.054001205 0.055733651 0.58783054
0.058696233 0.054835074 0.58852398
0.061842531 0.053846791 0.58903545
0.01303431 0.067913122 0.585042
0.015582228 0.06778799 0.58491582
0.020525398 0.066654816 0.58553606
0.025496362 0.065854028 0.58635861
0.030067364 0.064633146 0.58683062
0.035278261 0.063798785 0.58769584
0.039987475 0.062954567 0.58842486
0.044861354 0.061714135 0.58896416
0.049600445 0.060916595 0.5897283
0.054542504 0.059955679 0.59044933
0.0592198 0.059042484 0.5911296
0.062350452 0.058026172 0.59174448
0.013504932 0.072165228 0.587659
0.016192058 0.071834564 0.58744943
0.020761533 0.071039997 0.5881713
0.025778608 0.069926515 0.58882231
0.030674653 0.068929769 0.58951038
0.035569757 0.068144664 0.59032238
0.040325344 0.067092136 0.59094119
0.045135297 0.066163547 0.59164685
0.050195724 0.065196432 0.59239507
0.054908484 0.064412653 0.59316045
0.05977235 0.063195296 0.59371066
0.062870547 0.062458247 0.5943718
0.014025489 0.07673385 0.59036684
0.01651036 0.076196842 0.5900926
0.021311097 0.0752903 0.59080881
0.025997885 0.074371278 0.59148806
0.031112725 0.073350564 0.592219
0.035918392 0.072542995 0.59299457
0.040702917 0.071481757 0.59361577
0.045602821 0.070345171 0.59422278
0.050443113 0.069560699 0.59502095
0.055362202 0.068473645 0.595662
0.060297988 0.067338489 0.59627914
0.063291006 0.066708095 0.59695977
0.014403908 0.08026728 0.59262991
0.01699117 0.080481432 0.59273237
0.02179811 0.079382315 0.59333718
0.026589917 0.078688331 0.59417588
0.031622842 0.07741081 0.59473473
0.036529653 0.076663867 0.59557223
0.041329809 0.075505108 0.59614027
0.046057194 0.074660838 0.59687394
0.050969198 0.073664464 0.59756637
0.055737987 0.072685145 0.59823155
0.060806915 0.071643457 0.59893823
0.063868612 0.070742071 0.59946346
0.015011946 0.085543849 0.5957098
0.017673003 0.084463798 0.59524709
0.022406677 0.083565526 0.59595072
0.0270932 0.082811594 0.59672683
0.032106601 0.08167205 0.59736156
0.03692437 0.080733538 0.59806347
0.041662946 0.079903685 0.59880853
0.046537586 0.078781366 0.59941733
0.051348433 0.07805381 0.60024124
0.056455597 0.077030368 0.60096854
0.060951091 0.076059349 0.60156757
0.064206369 0.07536111 0.6023466
0.015423194 0.089308061 0.59806401
0.018070234 0.088760309 0.59787214
0.022694986 0.087965451 0.59860814
0.02768218 0.086804919 0.59922379
0.032670602 0.085866749 0.59997022
0.037588701 0.084986374 0.60073233
0.042333163 0.084142059 0.60147047
0.047136426 0.083021723 0.60206187
0.051957294 0.082234338 0.60285324
0.056811944 0.081100278 0.60344994
0.061833717 0.080151133 0.60419863
0.064752527 0.079165421 0.60465056
0.015923155 0.093558408 0.60047388
0.018522911 0.09309382 0.60053331
0.023257427 0.092221729 0.60125256
0.028190019 0.091154002 0.60190845
0.03304299 0.090322696 0.60268241
0.037914522 0.08915282 0.60326248
0.042768642 0.088412926 0.60409039
0.047721826 0.08727508 0.60471052
0.052419111 0.086281702 0.60534889
0.05722972 0.085518815 0.606152
0.06213402 0.084292591 0.60670751
0.065287054 0.083990119 0.60771894
0.016349027 0.097718604 0.6032756
0.01876083 0.097530253 0.60319906
0.023810251 0.096298866 0.60378933
0.028590268 0.095501415 0.60456419
0.03348913 0.094585218 0.60530025
0.038258508 0.093447931 0.60587287
0.043164708 0.092482992 0.60658228
0.047997028 0.091577716 0.60730743
0.053038269 0.090708025 0.60810781
0.057831548 0.089754082 0.60879433
0.062496737 0.088841371 0.60947168
0.065667808 0.087723143 0.60988241
0.016787803 0.10165011 0.60566998
0.019446556 0.10167258 0.60580868
0.024476202 0.10064904 0.60651577
0.029110575 0.099719785 0.60717535
0.033831805 0.0987112 0.60781103
0.038752459 0.097792692 0.60855144
0.043485604 0.096626215 0.60909748
0.048457175 0.095731266 0.60986495
0.053332761 0.094900005 0.61064482
0.058279969 0.093928806 0.61136121
0.062961698 0.092885666 0.61196625
0.066059686 0.091921754 0.61248529
0.017281177 0.10578328 0.60796314
0.020115219 0.10577003 0.60838747
0.024562182 0.10476474 0.60895371
0.029344792 0.10382485 0.60964566
0.034158543 0.10291339 0.61036241
0.039159574 0.10195047 0.61109763
0.044083104 0.10092758 0.61177748
0.048862852 0.10006348 0.61251318
0.053647764 0.099099509 0.61319155
0.05863566 0.098136105 0.61392307
0.063619018 0.097110115 0.61461669
0.066686377 0.096639372 0.61552709
0.017695358 0.10987478 0.61075109
0.020325916 0.11025555 0.61108756
0.025089584 0.10891668 0.6115278
0.030107481 0.10818336 0.61240214
0.034960426 0.10709103 0.61302292
0.03988608 0.10608254 0.61371177
0.044614024 0.10530429 0.61448437
0.049338132 0.10413203 0.61502469
0.054274686 0.10319946 0.61576098
0.059132598 0.10222385 0.6164515
0.063910052 0.10140064 0.61724228
0.067019977 0.10048864 0.61769742
0.019895919 0.11207987 0.61256236
0.025486061 0.1108867 0.61349565
0.030070705 0.11002489 0.61407149
0.035027869 0.10905728 0.61475217
0.039853893 0.10798713 0.61562306
0.044432446 0.10716311 0.61613858
0.049499646 0.10619143 0.61680609
0.054086231 0.10521051 0.61757505
0.059346631 0.10411569 0.61840791
0.063593246 0.10337492 0.61884785
0.066991702 0.10291358 0.61898643
0.0029839058 -0.018425269 0.5353545
0.0052098557 -0.020887682 0.53421706
0.0099823587 -0.021964669 0.53510863
0.014872663 -0.022857428 0.53567982
0.019746559 -0.023867492 0.53644443
0.024701087 -0.024669681 0.53685695
0.029592006 -0.025708092 0.53766459
0.034514703 -0.026850678 0.53863567
0.039048158 -0.027659234 0.5391342
0.043979906 -0.028750997 0.54002112
0.048974171 -0.0296642 0.5406068
0.052526683 -0.02825433 0.54228967
0.0034809569 -0.014187204 0.53776759
0.05302351 -0.023786411 0.5451529
0.0039575724 -0.009836169 0.54048008
0.053491347 -0.019732995 0.54751354
0.0044250051 -0.0056115203 0.54308128
0.053921551 -0.015597597 0.55025059
0.0049232049 -0.0012661256 0.54563534
0.05443307 -0.011281876 0.55267054
0.0053029368 0.0026378408 0.54840344
0.054895699 -0.0068966672 0.55552816
0.0058268867 0.0072551072 0.55115509
0.055397652 -0.0026171654 0.55796444
0.0062806169 0.011218872 0.55348986
0.055790417 0.0012474135 0.56058699
0.0068144612 0.015665978 0.55593628
0.056264199 0.0056309402 0.56336427
0.0072731711 0.019961692 0.55869699
0.056703351 0.0096849129 0.56592584
0.0076649245 0.024040602 0.56162405
0.057189785 0.014026657 0.56855685
0.0081398943 0.0281334 0.56398964
0.057697259 0.018537425 0.57127565
0.008623736 0.032501794 0.56667578
0.058154419 0.022563331 0.57367271
0.0090781432 0.036678195 0.56930089
0.058647737 0.026812777 0.57612771
0.0095810797 0.041024953 0.57182378
0.059134804 0.031100407 0.5786792
0.01008049 0.045360692 0.57435596
0.059585474 0.035234883 0.58127224
0.010517556 0.049525671 0.57708627
0.060058616 0.039593652 0.58401972
0.010992257 0.053806223 0.5797143
0.060514897 0.043796085 0.5866679
0.011414493 0.057879604 0.58242095
0.061014667 0.048194967 0.58928525
0.011908861 0.062129505 0.58486921
0.061475575 0.052445628 0.591968
0.012412736 0.066519111 0.58744502
0.061889283 0.056498326 0.59470546
0.012812434 0.070567816 0.59027469
0.062403969 0.060809366 0.5970968
0.013335129 0.074963175 0.59272712
0.062910534 0.065185219 0.59963471
0.013757657 0.079013266 0.59539938
0.063326821 0.069300838 0.60244149
0.014225665 0.083132677 0.5978505
0.063804932 0.073567338 0.60502625
0.014724536 0.087625854 0.60060495
0.064320505 0.077949643 0.60751027
0.015238591 0.091967367 0.60304296
0.064716011 0.082014374 0.61039144
0.015731705 0.096267112 0.60556912
0.065211087 0.086235859 0.61279529
0.016132509 0.10023793 0.60828304
0.065678738 0.09046454 0.61540055
0.016625414 0.10447379 0.61072201
0.066119939 0.094707258 0.61820984
0.01705887 0.10876214 0.61364865
0.023574509 0.1106106 0.61428756
0.040674664 0.10559618 0.61935878
0.045768365 0.10477377 0.61977917
0.054623902 0.10414716 0.61920547
0.05817382 0.10388235 0.61899763
0.062834978 0.10120953 0.62250108
0.066687115 0.099284567 0.6206044
0.019769548 0.11055885 0.6150555
0.024606114 0.10934829 0.61615247
0.029705277 0.10840269 0.61677188
0.034449726 0.10757094 0.61727011
0.038864985 0.10662638 0.61801082
0.04378742 0.10569198 0.61864382
0.04867129 0.10457558 0.61957943
0.053758606 0.10370909 0.62007242
0.05849608 0.10261395 0.62099981
0.06374231 0.10179471 0.6213876
0.066448756 0.10116149 0.62192971
0.0019360026 -0.020778293 0.53940165
0.0043112868 -0.023278672 0.53826189
0.0089611765 -0.02439497 0.53923935
0.013831332 -0.02535573 0.53992456
0.018729391 -0.026237261 0.54047608
0.023651084 -0.027329372 0.54136539
0.028677685 -0.028293155 0.54202741
0.033286326 -0.029190918 0.54265732
0.038284816 -0.030224394 0.5434376
0.042888328 -0.031287886 0.54433757
0.047864489 -0.032128491 0.54480863
0.051427871 -0.030710302 0.54645151
0.0023642164 -0.016635258 0.54216325
0.051971287 -0.026335603 0.54895782
0.0029053809 -0.012252927 0.5444687
0.052387901 -0.022251282 0.55171901
0.0033169761 -0.0079919174 0.54751003
0.052887298 -0.017881602 0.55429822
0.003799187 -0.0037538409 0.55002671
0.053377606 -0.013572656 0.55685681
0.0042091692 0.00026104599 0.55273765
0.053766087 -0.0096782744 0.55955064
0.0047041532 0.0045447014 0.55522847
0.054289103 -0.0052665714 0.5620234
0.0051911157 0.0088946745 0.55786729
0.054721273 -0.0011036806 0.56478506
0.0056993496 0.013162948 0.56024426
0.055142276 0.0029745661 0.56750697
0.0061408421 0.017187994 0.56274945
0.055651918 0.0073429942 0.57001311
0.0065197134 0.021219939 0.56570125
0.056079291 0.011422224 0.57269204
0.0070573241 0.025746092 0.56823111
0.056595199 0.015857533 0.57524717
0.0075336965 0.030045122 0.57087314
0.057062209 0.020162214 0.57796234
0.007999558 0.034127995 0.5732885
0.057542056 0.024322301 0.58038723
0.0084767332 0.038536496 0.57607687
0.057979777 0.028531663 0.58317453
0.0089555951 0.042753279 0.57858735
0.058474489 0.032867469 0.58573967
0.0094615836 0.047124483 0.58112288
0.058948196 0.03711164 0.58832413
0.0098903161 0.051165998 0.58373994
0.059447765 0.041386649 0.5907709
0.010299012 0.055246942 0.58655161
0.059869274 0.045592844 0.59366703
0.010821821 0.059699401 0.58908248
0.060378268 0.049906097 0.59610105
0.011291267 0.063775241 0.59146309
0.060894355 0.054378331 0.59870631
0.011721145 0.068065614 0.59441757
0.061299399 0.058365174 0.60141289
0.012240283 0.072416328 0.59683287
0.06176392 0.062581696 0.6040231
0.01265493 0.076521501 0.59963661
0.062189698 0.066677354 0.60673594
0.013150612 0.080842361 0.60217416
0.062725924 0.071172245 0.60923207
0.013604376 0.084972553 0.60473961
0.063211799 0.075447783 0.61177516
0.014078172 0.08929392 0.60743064
0.063676737 0.079573326 0.6142562
0.014590157 0.093696319 0.60996759
0.064109758 0.083808325 0.61711192
0.015076296 0.098059781 0.61263084
0.064568102 0.087976538 0.61969811
0.015481846 0.10204852 0.61533648
0.065065436 0.092395388 0.62236017
0.016016873 0.10649795 0.61777788
0.041341059 0.10336692 0.62285972
0.048825949 0.10176028 0.62412405
0.05230502 0.10096241 0.62479472
0.057770014 0.10123306 0.62337303
0.062586673 0.10030723 0.62401116
0.065547317 0.096607171 0.6248427
0.018998222 0.1079083 0.61949891
0.023855217 0.10690845 0.62024999
0.028553383 0.10606212 0.62078029
0.03305684 0.10503066 0.62164623
0.03808108 0.10408258 0.62228328
0.043212473 0.10317605 0.62283343
0.047682814 0.10228329 0.62348002
0.052684531 0.10132243 0.62414175
0.057501182 0.10018765 0.62511927
0.062217712 0.099120788 0.6260044
0.065296814 0.098894022 0.62581944
0.00078784674 -0.023417037 0.5437519
0.003264429 -0.025883786 0.54268116
0.0077511817 -0.026824892 0.54340333
0.012797242 -0.027802434 0.54408419
0.017564384 -0.028771617 0.54480165
0.022309292 -0.029769352 0.54556942
0.027173249 -0.030840844 0.54643559
0.031997986 -0.031751622 0.54704785
0.036935292 -0.032678068 0.54766524
0.041752987 -0.033572517 0.54825222
0.04676757 -0.034571685 0.54897386
0.050356306 -0.033123743 0.55059266
0.0012665289 -0.019148186 0.54633588
0.05090487 -0.028707819 0.55310744
0.0018008994 -0.014719024 0.5487538
0.051336586 -0.024491956 0.55594569
0.0021951143 -0.010687891 0.55159736
0.051812716 -0.02032841 0.55840135
0.0026613977 -0.0064603854 0.55421048
0.052291863 -0.016095951 0.56093168
0.0031381287 -0.002111882 0.55691868
0.052753814 -0.011865435 0.5635792
0.0036412207 0.0022305548 0.55943447
0.053222194 -0.0075603388 0.56628543
0.0040459642 0.0062387809 0.56217277
0.053702734 -0.0033311471 0.56880146
0.0045756828 0.010657929 0.56460923
0.054193161 0.00096900016 0.57134694
0.005035134 0.014759533 0.56709534
0.054657616 0.0051454455 0.57390201
0.0054590702 0.018980518 0.56999493
0.055078156 0.0092159919 0.57661653
0.0059816279 0.023364782 0.57243294
0.055560619 0.013589632 0.57931954
0.0064330008 0.02749458 0.57501459
0.055991381 0.017673045 0.58198053
0.0069014858 0.031791747 0.57770902
0.056473829 0.022014406 0.58463895
0.0073758988 0.035931297 0.58014339
0.056875929 0.025995508 0.587358
0.0079002343 0.040486194 0.58280581
0.057384364 0.030302651 0.58978748
0.0083201956 0.044675089 0.58568865
0.05786135 0.034616016 0.59244514
0.0087577123 0.04867404 0.58818537
0.058343686 0.038963154 0.59511232
0.0092753023 0.05313205 0.59076041
0.058800556 0.043128163 0.59770441
0.0097479969 0.057233557 0.59315395
0.059278302 0.047427163 0.60033685
0.010170715 0.061477587 0.59609407
0.059733242 0.051521726 0.6028446
0.010668644 0.065672778 0.59844154
0.060214661 0.05581098 0.60543787
0.011106361 0.069785923 0.60109532
0.060627542 0.05995366 0.60830599
0.011611443 0.074210942 0.60371184
0.061155178 0.06440378 0.61079997
0.012059344 0.078426339 0.60643649
0.061635904 0.068536334 0.61318058
0.012547806 0.082768306 0.60905373
0.062072031 0.072760597 0.61599964
0.013008084 0.086929053 0.61161613
0.062519789 0.076929614 0.61866093
0.013520692 0.091287144 0.61408728
0.063017868 0.081273399 0.62121356
0.013970105 0.09548109 0.61677158
0.063471258 0.085455596 0.6238538
0.014411554 0.099707104 0.61955601
0.063945264 0.089741297 0.62649381
0.014860874 0.10390893 0.62225187
0.039495081 0.10157595 0.62610024
0.041617803 0.10092064 0.62678313
0.056963377 0.097338818 0.62984288
0.062457517 0.09579248 0.63136703
0.064424984 0.093966998 0.62897611
0.017658543 0.10550214 0.62364769
0.022180842 0.10464438 0.62422812
0.027283667 0.10360923 0.62499243
0.032046065 0.10256549 0.62583166
0.036784239 0.10156985 0.62659729
0.042031102 0.10083466 0.62684846
0.046799459 0.099705465 0.62782556
0.051539913 0.098768093 0.62849617
0.05619771 0.097831286 0.62918061
0.061161049 0.096891113 0.6298157
0.064097457 0.096321367 0.63021332
-0.00032509584 -0.025829919 0.54816985
0.0019113962 -0.028317329 0.54687673
0.0068905186 -0.029302318 0.54758173
0.011763381 -0.030306004 0.54833621
0.016646698 -0.031329021 0.54912019
0.021322433 -0.032232981 0.54974806
0.026268305 -0.033283971 0.55056626
0.031076631 -0.034214251 0.55121309
0.035949968 -0.035177566 0.55190188
0.040835328 -0.036208391 0.55269819
0.045741357 -0.037053116 0.5531885
0.049100704 -0.036014363 0.55472898
0.00018948968 -0.021492638 0.55059826
0.049739584 -0.031431269 0.55745953
0.00066960137 -0.017369486 0.55297011
0.050186187 -0.027188348 0.56023139
0.001120449 -0.013108008 0.55573815
0.05071149 -0.022817781 0.56263125
0.0015765266 -0.0089182891 0.55837005
0.051165313 -0.018567234 0.56536335
0.0020427019 -0.004698731 0.56097293
0.05165457 -0.014319327 0.56784451
0.0025064349 -0.0003952086 0.56370944
0.052145272 -0.0098939296 0.57056189
0.002975692 0.0038136058 0.56627589
0.05261898 -0.0057233907 0.57304418
0.0034653628 0.0081595555 0.56889021
0.053008929 -0.0017591715 0.57582468
0.0039045708 0.012268607 0.57152796
0.053517424 0.0025612637 0.57827222
0.0043600993 0.016381521 0.5740571
0.054018572 0.0070124716 0.58095258
0.004916071 0.020818219 0.57633471
0.054456577 0.01117279 0.58366984
0.0053893598 0.02521072 0.57912797
0.054900631 0.015271895 0.5862599
0.0057902206 0.029220901 0.58189607
0.055356234 0.01946713 0.58890277
0.0062848404 0.033592038 0.5845108
0.055860892 0.023814224 0.59141415
0.0067762174 0.03787756 0.5870294
0.056316242 0.027962983 0.59399432
0.0072991196 0.042269349 0.58947545
0.056788065 0.032206081 0.5965904
0.0077081556 0.046411611 0.59236979
0.057241596 0.036357172 0.59918654
0.0081845513 0.050660044 0.59494144
0.057701066 0.040680379 0.60198009
0.0087302374 0.055149421 0.59736389
0.05818592 0.044901036 0.6044541
0.0091152806 0.059113391 0.60017824
0.058645211 0.049205638 0.60722309
0.0095603941 0.063205756 0.60275161
0.05913756 0.053507991 0.60975826
0.010050095 0.067553975 0.60536885
0.059579134 0.05750677 0.61222637
0.010530153 0.071867943 0.60800588
0.060004763 0.061736405 0.61512619
0.010973806 0.075962923 0.61059308
0.060483344 0.065986186 0.61768442
0.011478461 0.080228657 0.61299151
0.061003223 0.070444755 0.62024426
0.011928039 0.084486514 0.61576337
0.06138058 0.074323229 0.62299359
0.012376573 0.088686042 0.61846155
0.061907053 0.078663699 0.62534356
0.012874084 0.092970319 0.62093562
0.062422 0.083027586 0.62780637
0.013316676 0.097146295 0.62364256
0.062815905 0.086984269 0.63054878
0.013791701 0.10139985 0.6262309
0.027824698 0.1000269 0.63071334
0.03296113 0.10010953 0.62965614
0.035534702 0.098913573 0.63113606
0.049838483 0.096021838 0.63326222
0.055507712 0.095773198 0.63264728
0.061012603 0.09437675 0.63392603
0.06330321 0.091593109 0.63330311
0.016717378 0.10297427 0.62792248
0.021337869 0.10206249 0.62857294
0.026101774 0.10120469 0.62911016
0.030840607 0.1001061 0.63004279
0.035721004 0.099242456 0.63056844
0.040811628 0.098323829 0.63114566
0.04558108 0.097236671 0.63205427
0.050458655 0.096233599 0.6328069
0.055423297 0.095306091 0.63342106
0.059944786 0.094351731 0.63415861
0.063034706 0.093789645 0.63451624
-0.0013822955 -0.028237149 0.55220664
0.00081665209 -0.030806309 0.55111593
0.0058799898 -0.031794388 0.55181086
0.01056275 -0.032776266 0.55256402
0.015355742 -0.033777814 0.55332941
0.020104345 -0.034667209 0.55392057
0.025235083 -0.03556709 0.55446005
0.030044919 -0.036699817 0.55543542
0.034744538 -0.037635583 0.55611074
0.039765239 -0.03876739 0.55704671
0.044413723 -0.039695777 0.55771917
0.047949411 -0.03873314 0.55867493
-0.00089559332 -0.024031723 0.55464667
0.048620574 -0.033979572 0.56173187
-0.00040568737 -0.019768383 0.5571447
0.049089938 -0.02961297 0.5645166
3.1423755e-05 -0.015546549 0.55995357
0.049590789 -0.02538747 0.56688571
0.00050260499 -0.011309803 0.56254536
0.050046094 -0.021058856 0.56971586
0.00094358344 -0.0070616342 0.56536382
0.050505087 -0.016857663 0.57234335
0.0014119162 -0.0029080436 0.56786007
0.051004678 -0.012578707 0.57479548
0.0019113636 0.0012914836 0.57020301
0.051506914 -0.0083118342 0.57721239
0.0023772088 0.0057098828 0.57308412
0.051879145 -0.0043541938 0.58010733
0.002836368 0.0099241622 0.57572865
0.052452698 0.00018416345 0.58240336
0.0032837316 0.014065631 0.57835442
0.052915692 0.0044344068 0.58507103
0.0038294923 0.018458184 0.58064204
0.053347364 0.0085231513 0.58773315
0.0042844927 0.02269993 0.5833537
0.053826265 0.012873128 0.59042823
0.004744688 0.026891328 0.58595926
0.054279663 0.01704026 0.59304756
0.005235876 0.031103753 0.58837765
0.054726824 0.021192346 0.59568948
0.0056815948 0.035386451 0.59121096
0.055218093 0.025523178 0.59827167
0.0061695809 0.039599791 0.59365296
0.055643238 0.029701799 0.60110408
0.0066416366 0.043976203 0.59643251
0.056156956 0.034065947 0.60357583
0.0071414225 0.048264802 0.59889668
0.056634843 0.038294852 0.60610998
0.0075669056 0.052439108 0.60172075
0.057101861 0.042570181 0.60878438
0.0080143334 0.056538776 0.60428804
0.057564795 0.04681816 0.6114493
0.0084673977 0.060727939 0.60694027
0.058043323 0.051081195 0.61402631
0.0089467606 0.06481915 0.60927296
0.058511712 0.055250347 0.61654383
0.0094190966 0.069303565 0.61220044
0.058945574 0.059422158 0.61930591
0.009886804 0.073526658 0.61479753
0.059466697 0.063862272 0.62183148
0.010349144 0.077779494 0.61747336
0.059887037 0.067841232 0.62442029
0.010818611 0.082005158 0.62006176
0.060348213 0.072160952 0.62719703
0.011327839 0.086366661 0.62256122
0.060811624 0.076334342 0.62975514
0.01177752 0.090513118 0.62517774
0.061361104 0.080788776 0.63210267
0.012231842 0.09466853 0.62777436
0.061785467 0.084803984 0.63471371
0.012701875 0.098889031 0.6303516
0.017656146 0.098945551 0.63429701
0.025084861 0.099017806 0.63284469
0.030744107 0.098868273 0.63207054
0.053824097 0.092079915 0.63894826
0.057565503 0.09180706 0.63871908
0.062242672 0.089091726 0.63747382
0.015383035 0.10054114 0.63211405
0.020372838 0.09952455 0.63286847
0.025104819 0.098494552 0.63369095
0.029949522 0.097536512 0.63437629
0.034712225 0.096764587 0.63477415
0.039552651 0.095791645 0.63548446
0.044457428 0.094759874 0.63627887
0.0493863 0.093802817 0.63694751
0.054473117 0.092906065 0.63748991
0.059249245 0.091836981 0.63836801
0.061958075 0.091453768 0.63850355
-0.0024402328 -0.030776104 0.55606574
-0.00016358634 -0.033322398 0.55537862
0.004672871 -0.034330361 0.55614656
0.0096124411 -0.035138331 0.55657119
0.014455015 -0.036204703 0.55743289
0.019295951 -0.037209895 0.55819553
0.024049079 -0.038062241 0.55872571
0.028945958 -0.039114673 0.55955505
0.033898324 -0.04001388 0.56012553
0.038395263 -0.041027341 0.56096339
0.043342814 -0.042023361 0.561692
0.046876445 -0.041113719 0.56285059
-0.0020229248 -0.026564263 0.55899894
0.047544539 -0.03625828 0.56607848
-0.0015199496 -0.022316478 0.5613842
0.048056334 -0.031912722 0.56853789
-0.0010637646 -0.01799948 0.56419206
0.048491374 -0.027803026 0.57120556
-0.00056163454 -0.013692221 0.56666577
0.048919752 -0.02374531 0.57384765
-0.00010828348 -0.0095113032 0.56930447
0.049448989 -0.019330902 0.57628089
0.00034635607 -0.0052583255 0.57203424
0.049919233 -0.014951412 0.5790773
0.00086138677 -0.00085159391 0.57455599
0.050445989 -0.010569835 0.58148229
0.0013298038 0.0032956004 0.57704282
0.050784655 -0.0068242066 0.58431727
0.0017519086 0.0073355734 0.57970399
0.051265605 -0.0026270002 0.58678603
0.0022459854 0.011636648 0.58222532
0.051755756 0.0017407574 0.58942729
0.0027260468 0.016050179 0.58500046
0.052293889 0.0062927864 0.5919894
0.0031589651 0.020075846 0.58756638
0.052667543 0.010257114 0.59488374
0.0036642794 0.024443869 0.59010214
0.053186886 0.014559228 0.59723014
0.0041290829 0.028711423 0.59278125
0.0536566 0.018862523 0.59992456
0.0046298783 0.033052988 0.59531188
0.054093018 0.0229524 0.60255516
0.0051128715 0.037280925 0.59780902
0.054577619 0.027189158 0.60505331
0.0055079674 0.041459329 0.60085082
0.055035204 0.031498708 0.60784101
0.0060004927 0.045586444 0.60314149
0.055514149 0.035680912 0.61030298
0.0064228894 0.049733236 0.60594893
0.055995584 0.040000014 0.61293757
0.0068810917 0.054062814 0.60876012
0.056459181 0.044318751 0.61569607
0.0073799929 0.058214717 0.61104071
0.056946248 0.048390388 0.61794788
0.0078643439 0.06264089 0.61380351
0.057373844 0.052611254 0.62082177
0.0083417995 0.066970125 0.61647993
0.057855867 0.056836769 0.62332237
0.0087865554 0.071111508 0.61912376
0.058373384 0.0612121 0.62578315
0.0092778318 0.075351171 0.62157941
0.058829382 0.065478258 0.62852168
0.0097350655 0.079538912 0.62420052
0.059263431 0.06966991 0.63131005
0.010181448 0.083697781 0.62685728
0.059746809 0.073984519 0.63392478
0.010696527 0.088039152 0.62928796
0.060226195 0.078147531 0.63635707
0.011168258 0.092377417 0.63201684
0.060705885 0.082466982 0.63900423
0.011593213 0.096520625 0.63480139
0.013552569 0.097842447 0.63682604
0.018582994 0.097397394 0.6366449
0.052209675 0.089517243 0.64340055
0.058015525 0.090543993 0.64068961
0.061127104 0.086539917 0.64171737
0.014418224 0.098180123 0.63612205
0.019293208 0.097146802 0.63692427
0.023802292 0.096241437 0.63758439
0.028688474 0.095226921 0.63835406
0.033622675 0.094200529 0.63913441
0.038434848 0.09325283 0.63980889
0.043402947 0.09227372 0.64050633
0.048136756 0.091422774 0.6410377
0.05315315 0.090365671 0.64185315
0.057987742 0.089277603 0.64275163
0.060772188 0.08877892 0.64306098
-0.0035474163 -0.033159517 0.56048441
-0.0014992009 -0.035163116 0.56210572
0.0032697897 -0.036114242 0.56281757
0.0081817098 -0.037141725 0.56334531
0.012939023 -0.037985388 0.56398302
0.018000774 -0.039082374 0.564583
0.022853058 -0.040063515 0.56521243
0.027541408 -0.041042533 0.56582755
0.032388397 -0.04204876 0.56610924
0.03736499 -0.043089427 0.56681937
0.042222887 -0.043973297 0.56747955
0.045449071 -0.043925863 0.567734
-0.0031079568 -0.028917858 0.56330442
-0.0010605282 -0.03067171 0.56557846
0.0036249496 -0.031652473 0.56622118
0.0084900893 -0.032654006 0.56689835
0.013380246 -0.033541046 0.5676493
0.018211322 -0.034607749 0.56827939
0.023054449 -0.035435002 0.56905317
0.028081877 -0.036479373 0.56974745
0.032815762 -0.0372766 0.57051045
0.037666887 -0.03833795 0.57114893
0.042686358 -0.039334655 0.57186913
0.046102256 -0.039165642 0.57083368
-0.0026122534 -0.024711115 0.56568348
-0.000557733 -0.026483834 0.56816721
0.0041901926 -0.027327847 0.56890643
0.0088626333 -0.028309871 0.56954497
0.013851942 -0.029363722 0.57022375
0.01855528 -0.030391809 0.57084334
0.023596551 -0.031211441 0.5716731
0.028436376 -0.032251913 0.57232088
0.033360265 -0.032944936 0.57319444
0.038151868 -0.034162536 0.57372576
0.043112636 -0.035104908 0.57446253
0.046582803 -0.034882817 0.57354999
-0.0021446655 -0.020544911 0.56820244
-0.00013619382 -0.022058008 0.57087451
0.0043043718 -0.023146719 0.57139015
0.009354963 -0.024019109 0.57219136
0.01431513 -0.025037907 0.57288319
0.01928745 -0.026083961 0.57356215
0.024046114 -0.026966466 0.57428151
0.02899879 -0.028205749 0.57484198
0.033726953 -0.028924372 0.57564962
0.038630374 -0.029932439 0.57633293
0.043452911 -0.030864816 0.57703966
0.04695379 -0.030739194 0.57629615
-0.0016555022 -0.016086478 0.57097644
1.7127953e-05 -0.017832356 0.57339454
0.0048416462 -0.018990342 0.57396936
0.0098959608 -0.01981378 0.57480031
0.014783943 -0.020799881 0.5754925
0.019657839 -0.021769198 0.57619095
0.024554117 -0.022768034 0.57687783
0.029344657 -0.023956772 0.57742578
0.034266092 -0.02489846 0.57815272
0.039169468 -0.025616476 0.57900631
0.043890364 -0.026520301 0.57970339
0.047384545 -0.026656356 0.57889605
-0.0011993423 -0.011947518 0.57353735
0.00048968941 -0.013744332 0.57591683
0.005364011 -0.014722668 0.57661003
0.010211669 -0.015612142 0.57734847
0.015028933 -0.016472172 0.57809633
0.020086218 -0.017481506 0.57881892
0.024984818 -0.018639389 0.57941306
0.030039052 -0.019503513 0.5802201
0.034843579 -0.02050487 0.58088166
0.039665818 -0.021208614 0.5817225
0.044407025 -0.022406217 0.58225238
0.047890186 -0.022326857 0.58160961
-0.00068944274 -0.0075729005 0.57605028
0.0010292511 -0.0093890354 0.5786134
0.0059496118 -0.010581685 0.57919282
0.010753784 -0.011410711 0.5799554
0.015660761 -0.012294058 0.58071285
0.02078932 -0.013292493 0.58146042
0.025491351 -0.014351517 0.58206147
0.030426854 -0.015320625 0.58277601
0.035202496 -0.016195182 0.5835045
0.040172726 -0.017048545 0.58429599
0.044698052 -0.018059041 0.58487958
0.048363134 -0.017935617 0.58416587
-0.00027361512 -0.0035543256 0.57872564
0.0015074685 -0.0051287189 0.58123827
0.0064561907 -0.0063456222 0.58181083
0.011282134 -0.0071642064 0.58258522
0.016067056 -0.0081440434 0.58325428
0.021102993 -0.0091609564 0.58396691
0.026015971 -0.010104999 0.58469033
0.030882841 -0.011083825 0.58538127
0.035727359 -0.0121349 0.58602405
0.040570296 -0.012911996 0.58682728
0.045354083 -0.014005639 0.58742929
0.048865139 -0.013776721 0.58663309
0.00027799327 0.00095527619 0.58113486
0.0018854607 -0.00099906325 0.58376038
0.0068652295 -0.0020457171 0.58444095
0.01168948 -0.0028548837 0.5852204
0.01679714 -0.0038319156 0.58597505
0.021536266 -0.0047188662 0.58668679
0.026311452 -0.0059042443 0.58723271
0.031525716 -0.0066363215 0.58815885
0.036175899 -0.0078247637 0.58867049
0.041046269 -0.0086858552 0.58943146
0.045864604 -0.0096530393 0.59011668
0.04936029 -0.0094508398 0.5892989
0.00073150452 0.0051248372 0.58375669
0.0025218371 0.0031912848 0.58638531
0.0073874835 0.0023280904 0.58714384
0.012282524 0.0010848641 0.58768702
0.017142788 0.00048028305 0.58859593
0.021966392 -0.00052862614 0.58925802
0.027081413 -0.0016854815 0.58990908
0.031921856 -0.0025782846 0.59064364
0.036556274 -0.0034422614 0.59134161
0.041323423 -0.0044585504 0.59198469
0.046355739 -0.0054626148 0.59270388
0.049720645 -0.0054478329 0.59201491
0.0011368576 0.0091393478 0.58649945
0.0029668389 0.00748365 0.58902037
0.0079423171 0.0064724721 0.58972061
0.012738446 0.0054036528 0.59034038
0.017649461 0.0046286769 0.5911625
0.022417363 0.0035949871 0.59179556
0.0274511 0.0027900003 0.592632
0.032386176 0.0017336756 0.59329522
0.037115708 0.00070298463 0.59392005
0.041806541 -0.00033062696 0.59453315
0.046792679 -0.0013223812 0.59524757
0.050312288 -0.00089391321 0.59444714
0.0015917728 0.013356164 0.58917713
0.0035948195 0.011648435 0.59162813
0.008394165 0.010869104 0.59241861
0.013234496 0.0097761415 0.59303576
0.018164458 0.0089488178 0.59383208
0.023016263 0.0079472587 0.59450579
0.027776716 0.0069828853 0.59517759
0.03252776 0.0059595481 0.59581238
0.037427798 0.0050494894 0.59655231
0.042264298 0.0040682182 0.59723401
0.047188349 0.0032046735 0.5980075
0.050714836 0.0029760301 0.59699851
0.0020562313 0.017638408 0.59187901
0.0040749153 0.015940003 0.59427184
0.0089223497 0.014864068 0.59490079
0.013650991 0.013974801 0.59560835
0.01849483 0.013003122 0.59629756
0.023534186 0.012123704 0.59709179
0.028435586 0.011122741 0.59777874
0.032990918 0.010097999 0.59836179
0.038058631 0.0092583746 0.59918672
0.042656906 0.0082051344 0.59976417
0.047638707 0.0071443543 0.60043699
0.051226474 0.0075777546 0.59968555
0.0025615166 0.022001345 0.59440792
0.0046460396 0.020368177 0.59701937
0.0090693962 0.019217957 0.59749442
0.013993463 0.018373951 0.59827942
0.018903796 0.017222431 0.59888035
0.023966491 0.01626876 0.59963703
0.028760849 0.015411034 0.6003803
0.033714153 0.014363155 0.60105324
0.038236864 0.013484966 0.60171378
0.043371357 0.012448113 0.6024403
0.048283972 0.011626374 0.60323542
0.051679358 0.011688031 0.60248899
0.0030543827 0.026307851 0.59694523
0.004705932 0.02454339 0.59948552
0.0097227488 0.02352706 0.6001935
0.014537906 0.022638705 0.60092413
0.01939887 0.02150641 0.60152352
0.024401711 0.020717565 0.60236138
0.029270759 0.019709829 0.60303599
0.03401079 0.018599574 0.60361683
0.038861312 0.017721474 0.60436273
0.043859214 0.016832449 0.60514051
0.048721194 0.01576896 0.60578048
0.052190326 0.015954614 0.60485274
0.0035225721 0.030564748 0.59958589
0.0054689907 0.028632753 0.6020841
0.010329161 0.027726047 0.60281569
0.015242057 0.026693158 0.6034869
0.020042414 0.025812529 0.60421824
0.024877839 0.024779912 0.60486948
0.029740518 0.023799066 0.60555822
0.034513861 0.023086544 0.60638118
0.039407738 0.022044472 0.60704207
0.044292577 0.020912778 0.60764807
0.049211882 0.020115171 0.60845906
0.052488066 0.019976869 0.60775226
0.0039205393 0.034533396 0.60231656
0.0059879161 0.032778785 0.60465252
0.010667473 0.031862549 0.60533154
0.015696697 0.030998655 0.60613221
0.020597527 0.030069567 0.60686123
0.025427947 0.029014066 0.60749775
0.030170484 0.028081365 0.60818344
0.035013527 0.02702374 0.60882199
0.03977637 0.026416205 0.6097039
0.044829287 0.025231175 0.61032224
0.049644336 0.024262056 0.61100543
0.052962422 0.024219465 0.61025286
0.0043972498 0.038693026 0.60476273
0.006292887 0.037219003 0.60733789
0.011144911 0.036345966 0.60808712
0.016045803 0.035229102 0.60870594
0.021043008 0.034173809 0.60938597
0.025805032 0.033309244 0.61011678
0.030699925 0.032288894 0.61079067
0.035481758 0.031402506 0.61151379
0.040412508 0.03040769 0.61221206
0.045123681 0.029520571 0.61291635
0.050116539 0.028388955 0.61355042
0.053509414 0.028544031 0.61276662
0.0049079526 0.043079123 0.60728604
0.0068150125 0.041447729 0.60995567
0.011755295 0.040521905 0.61069685
0.016711863 0.039570764 0.61142743
0.021453334 0.038607106 0.6120947
0.026274538 0.037545435 0.6127252
0.03126251 0.036393717 0.61334622
0.03596168 0.0355644 0.61408138
0.040878497 0.03463766 0.61481589
0.045644484 0.033858351 0.61559778
0.050516501 0.03272748 0.61620086
0.053978331 0.032891184 0.61536902
0.0053804219 0.047379352 0.60995692
0.0073176734 0.045961507 0.61273563
0.012211792 0.044641532 0.61323351
0.017050037 0.043766506 0.61397797
0.021887621 0.042784564 0.61465955
0.02671312 0.041804358 0.61533898
0.031568527 0.040901758 0.6160717
0.036529548 0.039827593 0.61673123
0.0412919 0.038834088 0.61738646
0.046221897 0.037921317 0.61813259
0.050951079 0.03689304 0.6187588
0.054483868 0.037302561 0.61812866
0.0058046812 0.051509216 0.61272788
0.0077791298 0.050002024 0.61522716
0.012476454 0.049045905 0.6158874
0.017505037 0.047997087 0.61657935
0.022245452 0.047058582 0.61726117
0.027169688 0.046059757 0.61795533
0.03206744 0.04503639 0.6186282
0.036912404 0.044003151 0.61928153
0.041539885 0.043067507 0.61993563
0.046703354 0.042237207 0.62079096
0.051387973 0.041245081 0.62142676
0.054953098 0.041406691 0.62060636
0.0063042464 0.055768281 0.61515254
0.0082194638 0.054187298 0.61779815
0.012937659 0.053242028 0.61847019
0.01766767 0.052288406 0.61914039
0.022677993 0.051300563 0.61986339
0.027859086 0.050233208 0.62058413
0.032553881 0.049219258 0.62120974
0.037501283 0.048235983 0.6219191
0.042318046 0.04740487 0.62268376
0.047165632 0.046487115 0.62340558
0.051991597 0.045396157 0.6240201
0.055497415 0.045817785 0.62318379
0.0067137405 0.05996196 0.61811507
0.0088013485 0.058519296 0.62049204
0.013538783 0.057463221 0.62110406
0.018404903 0.056474954 0.62178928
0.023131719 0.055552714 0.62247711
0.028044695 0.054541439 0.62316102
0.032887653 0.05364164 0.62389219
0.037970833 0.052624106 0.62461674
0.04261405 0.051817335 0.62535053
0.047515675 0.050700895 0.62596977
0.05244977 0.049622945 0.62662011
0.055844493 0.0498285 0.62583673
0.007243108 0.06427478 0.62040639
0.0090481611 0.062757082 0.62304354
0.013817186 0.061801419 0.62372267
0.018637178 0.060705014 0.62433249
0.023430998 0.059707269 0.62499338
0.028552512 0.058830395 0.62581038
0.033507854 0.057807028 0.62649828
0.038448833 0.056820579 0.62720406
0.043257408 0.05586262 0.62789214
0.048022203 0.054952867 0.62859714
0.052593835 0.053888328 0.62916106
0.056317203 0.054069124 0.62860781
0.0077158455 0.06855578 0.62304878
0.00948539 0.066997319 0.62564594
0.014412036 0.065894157 0.62627953
0.019226825 0.065042987 0.62703192
0.024070943 0.063927822 0.62763697
0.029067161 0.0631302 0.62846792
0.033925325 0.062049873 0.6290971
0.038823254 0.061080329 0.62980163
0.04371351 0.060037144 0.63046092
0.048716716 0.059130266 0.63122958
0.053318731 0.058110394 0.63182759
0.056950793 0.058544934 0.63087517
0.0081825107 0.072766043 0.62563533
0.010309407 0.071072616 0.62825215
0.014974428 0.070072614 0.62887824
0.019891052 0.069101751 0.62958682
0.024688361 0.068042144 0.63021231
0.029386001 0.067248084 0.63096774
0.034391731 0.066210344 0.63166028
0.039307244 0.0651251 0.63230145
0.043980695 0.064372294 0.63307482
0.048842162 0.063425675 0.63378334
0.053786919 0.062503614 0.63452786
0.05728022 0.062472016 0.63367003
0.0086624268 0.077039808 0.62821758
0.010684012 0.075412296 0.63089669
0.015342684 0.074327476 0.63147128
0.020196902 0.073370427 0.63217181
0.025139969 0.072572127 0.63298857
0.030014688 0.071382858 0.63355809
0.034751788 0.070394605 0.63420981
0.039766394 0.069680855 0.63509476
0.044515811 0.068464823 0.635616
0.049357839 0.067598306 0.63636649
0.05414205 0.066649072 0.63705337
0.057770543 0.066854782 0.63615263
0.0090936814 0.081365518 0.63121146
0.011146868 0.079610802 0.63348126
0.015913911 0.078459099 0.63404483
0.02076496 0.077544875 0.63476962
0.025499014 0.07676883 0.63554513
0.030434141 0.075729154 0.63621813
0.03521201 0.074737936 0.63687873
0.040122531 0.073749624 0.63757551
0.044998623 0.072750308 0.63825685
0.049908504 0.071723893 0.6389311
0.054607049 0.070868045 0.63965052
0.058198482 0.071052127 0.63901633
0.0096359625 0.085760042 0.63352609
0.011602061 0.083750784 0.63602954
0.016331764 0.082797565 0.63669986
0.021140488 0.081895269 0.63742065
0.026060427 0.081020504 0.63818651
0.030860187 0.080022648 0.6388489
0.035830267 0.078990735 0.63953561
0.040733039 0.077991351 0.64022386
0.045563117 0.077076972 0.64094311
0.050529636 0.076161072 0.64169693
0.055100486 0.075137876 0.64228493
0.05872 0.07525216 0.64139211
0.010077587 0.089859195 0.63613319
0.011996103 0.088059798 0.63866109
0.016767403 0.087057434 0.6393134
0.021603333 0.08634422 0.64015228
0.026611196 0.08513917 0.64074713
0.031272158 0.084310971 0.641473
0.036407448 0.083205111 0.64215922
0.041234374 0.082358643 0.64291751
0.045832418 0.081308112 0.64349651
0.05077903 0.080604002 0.64436948
0.055535302 0.079487629 0.64495099
0.059165001 0.079350956 0.64414942
0.010499584 0.094029807 0.6389764
0.012436453 0.092464857 0.64119089
0.017232819 0.091445766 0.64181489
0.021982932 0.090461202 0.64266735
0.026861629 0.089354567 0.64328641
0.032115623 0.088342376 0.64405847
0.036636598 0.087501101 0.64474028
0.041594967 0.086356454 0.64535773
0.046430908 0.085466042 0.64609259
0.051202282 0.084772289 0.64685047
0.056145988 0.083700627 0.64749491
0.059696525 0.083881602 0.64657819
0.013324581 0.095601372 0.64050686
0.018078787 0.094780825 0.64098519
0.022828439 0.09372326 0.6418494
0.027889611 0.092577897 0.64280009
0.032711551 0.091706477 0.64334887
0.037548035 0.090734906 0.64405775
0.04253003 0.089801587 0.64467835
0.047372445 0.088870145 0.64532101
0.052162401 0.087902986 0.64603102
0.056943446 0.086909056 0.64678603
0.059757002 0.086026616 0.6477136
