# .PCD v0.7 - Point Cloud Data file format
VERSION 0.7
FIELDS x y z
SIZE 4 4 4
TYPE F F F
COUNT 1 1 1
WIDTH 1294
HEIGHT 1
VIEWPOINT 0 0 0 1 0 0 0
POINTS 1294
DATA ascii
0.03234851 -0.022950802 0.51494718
0.034536056 -0.023736577 0.51620871
0.038053855 -0.025090929 0.51949704
0.041579496 -0.02640033 0.52277195
0.045082513 -0.027587809 0.52615589
0.0486033 -0.028861238 0.5294621
0.052069861 -0.03011702 0.53276253
0.055734187 -0.031610187 0.53615135
0.059237901 -0.032728612 0.53954917
0.062696576 -0.034140557 0.54277605
0.066078201 -0.035398334 0.54593343
0.068242289 -0.036222853 0.54824317
0.032178752 -0.018207621 0.51703477
0.034281373 -0.018738821 0.51852632
0.037775859 -0.020141747 0.52177
0.041224528 -0.021511715 0.52497911
0.044761568 -0.022752291 0.52836096
0.048324332 -0.02416482 0.53167778
0.051802915 -0.02567457 0.53484434
0.055347506 -0.026823342 0.53828549
0.058872145 -0.028040444 0.54166603
0.062349606 -0.029531417 0.54484165
0.06581898 -0.030774986 0.54814416
0.067860872 -0.031957738 0.55035514
0.031815078 -0.014058139 0.51908976
0.033962741 -0.014365762 0.52056736
0.03738125 -0.015549816 0.52384418
0.040910702 -0.016968548 0.52711928
0.044521268 -0.01842487 0.53046691
0.047975678 -0.019708794 0.53373003
0.051385857 -0.020993669 0.53694177
0.05500276 -0.02232869 0.54036343
0.058505971 -0.023721334 0.54362273
0.061962586 -0.024941595 0.5469234
0.065577164 -0.02647483 0.5502333
0.067590803 -0.027145827 0.55258077
0.031588271 -0.0094696581 0.5211758
0.033596512 -0.0099628214 0.52257019
0.037045199 -0.010990605 0.52596766
0.040500458 -0.012357473 0.52918607
0.044231635 -0.014075741 0.5325281
0.047702361 -0.01508075 0.53596348
0.05110782 -0.016480636 0.53910649
0.0547277 -0.017882977 0.54249454
0.058192287 -0.019225236 0.54573721
0.061594281 -0.020305701 0.54905206
0.065269783 -0.021879205 0.55240977
0.067342788 -0.022819096 0.55476087
0.031197272 -0.0046742447 0.52351952
0.033322852 -0.0054286867 0.52475154
0.036932796 -0.0065829568 0.52826476
0.040419824 -0.007947024 0.5315212
0.043815974 -0.0093284547 0.53466368
0.04731828 -0.010550912 0.5380156
0.050755803 -0.01198017 0.5411793
0.054355904 -0.013423538 0.54452205
0.057722695 -0.014519367 0.54778796
0.061396629 -0.015971923 0.55121046
0.065083258 -0.01736116 0.55468249
0.067053661 -0.018029487 0.55684566
0.030965023 -0.00067074969 0.52537608
0.03310436 -0.00086918101 0.52701032
0.036554392 -0.0021872595 0.53024954
0.040010866 -0.0033749491 0.53356797
0.04359708 -0.0046264827 0.53700036
0.046964433 -0.0060043968 0.54011166
0.050502211 -0.007568717 0.54331619
0.054098736 -0.0087221749 0.54681444
0.057642721 -0.010141086 0.55010611
0.061135929 -0.011606069 0.55331415
0.064412713 -0.012667362 0.55649561
0.066613719 -0.01331405 0.55896187
0.030680295 0.0040564649 0.52757943
0.032681338 0.0035798103 0.52897316
0.036110975 0.0024952888 0.53231752
0.039620869 0.0011164546 0.53559214
0.04320905 -7.7430159e-05 0.53905851
0.046804428 -0.0017604604 0.54226393
0.050202966 -0.0027331412 0.54563409
0.053899314 -0.0042367764 0.54905427
0.057415355 -0.0057120807 0.55228287
0.06090901 -0.006986931 0.55559599
0.064306661 -0.0083670802 0.55874091
0.066451967 -0.0089283995 0.56118345
0.030244775 0.0090314411 0.53004271
0.032392886 0.0081190765 0.53114039
0.035999134 0.0071045943 0.53472626
0.039426353 0.0057185553 0.53790188
0.042950343 0.0042917244 0.54116625
0.046380386 0.002922006 0.54435414
0.049995285 0.0016265549 0.5477953
0.0535351 0.00027280673 0.55111808
0.057004206 -0.0010600798 0.55437112
0.060623992 -0.0025677942 0.55770105
0.064141929 -0.0038809739 0.56102103
0.066125914 -0.0048370287 0.56332165
0.029938262 0.013551068 0.53218573
0.032061808 0.012815271 0.53334498
0.035605282 0.011400592 0.53663844
0.039194759 0.0099314116 0.53995478
0.042678438 0.0087414235 0.54330319
0.046227854 0.0073609427 0.54662234
0.049680855 0.0060105026 0.54984713
0.053343933 0.0046812892 0.55332512
0.056752 0.0034350678 0.55655569
0.060174976 0.0020554364 0.55972993
0.063703075 0.00072508305 0.56305218
0.065816015 -0.00011975318 0.56534541
0.029776286 0.018071529 0.53417552
0.031743295 0.017220099 0.53540367
0.035300292 0.015975069 0.53880602
0.038742386 0.014634144 0.5420236
0.042332124 0.013310358 0.54542023
0.045789804 0.011771735 0.54854691
0.049322646 0.010466632 0.55188847
0.052894209 0.0092261322 0.55531007
0.056330662 0.0079681017 0.55856675
0.059846651 0.0066085421 0.56185895
0.063507512 0.0052246936 0.56530428
0.065499723 0.0044882335 0.5676778
0.029287223 0.022304296 0.53639722
0.031486336 0.021700695 0.53757477
0.034977462 0.020603642 0.5409829
0.038409237 0.019220311 0.54416525
0.041941907 0.017841473 0.54746604
0.045668516 0.016277019 0.55088747
0.049011078 0.014943447 0.55399472
0.052541278 0.013987053 0.55752516
0.056057598 0.012467369 0.56072962
0.059546366 0.011278842 0.56408471
0.06306456 0.0097846873 0.56730533
0.065146402 0.0091610141 0.5698421
0.028909767 0.02681103 0.53861046
0.03101301 0.026286531 0.53955513
0.034658909 0.025094233 0.54308873
0.038028553 0.023770854 0.5462327
0.041613922 0.022456154 0.54962933
0.045282792 0.020828195 0.55294949
0.04878537 0.019688901 0.55634749
0.0522875 0.018492326 0.55971354
0.055748541 0.016920127 0.56282556
0.059237663 0.01566159 0.5661425
0.062775135 0.014263548 0.56943822
0.064856365 0.013155356 0.57173795
0.028767904 0.031575043 0.54067677
0.030791692 0.030683745 0.54172128
0.034386635 0.029450666 0.54517388
0.037975885 0.027999472 0.54849982
0.041483637 0.026799556 0.55187047
0.04499181 0.025371153 0.55511582
0.048394363 0.023978118 0.55825925
0.051919278 0.022859011 0.56169409
0.055596855 0.021568239 0.56520987
0.058986448 0.020019211 0.5682525
0.062604144 0.018785842 0.57173109
0.064540043 0.017848577 0.57381696
0.028458141 0.0357587 0.54268819
0.030727912 0.035287004 0.54418194
0.034240197 0.03387903 0.54744327
0.037518684 0.032786328 0.55060941
0.040996205 0.03140356 0.55384463
0.044583425 0.030032132 0.55721217
0.0481924 0.028688643 0.56062013
0.051726814 0.027196061 0.5638603
0.055224564 0.026071172 0.56726068
0.058760758 0.024550892 0.57048768
0.062158071 0.023493905 0.57381004
0.064242288 0.02223124 0.57592428
0.028125849 0.040271658 0.54485595
0.030090677 0.039800476 0.54593414
0.033717532 0.038493361 0.54938263
0.037230622 0.037248936 0.55273485
0.040829215 0.035895739 0.55612552
0.044197258 0.034506369 0.55923128
0.047789473 0.033147711 0.56261158
0.051272675 0.031920027 0.56593871
0.054800149 0.030439127 0.56917739
0.058277208 0.029285368 0.57253814
0.061905354 0.027911257 0.57595122
0.063957512 0.02709857 0.57826626
0.027952472 0.045028921 0.54695308
0.030098692 0.044164415 0.54834551
0.033489916 0.043098744 0.55165613
0.037068747 0.041690972 0.55499405
0.040505756 0.040590744 0.55833822
0.043929491 0.038867746 0.56132436
0.047419686 0.037489776 0.5645768
0.050911345 0.036443394 0.56801343
0.054629177 0.035045054 0.57151628
0.057990227 0.033716928 0.57464772
0.061520707 0.032643151 0.57811391
0.063703522 0.031355146 0.58019757
0.02769902 0.049385663 0.54897422
0.02980921 0.048772041 0.55054921
0.033159412 0.047367703 0.55362624
0.036667492 0.04630274 0.55707151
0.040213529 0.044847097 0.56034535
0.043903831 0.043330241 0.56375134
0.047370654 0.042040702 0.56702554
0.050851177 0.040867459 0.57037961
0.054289918 0.039529916 0.57359517
0.058000326 0.038241673 0.57715005
0.061163373 0.036964487 0.580082
0.063363522 0.035810772 0.58236098
0.027275648 0.053374972 0.55102825
0.029487086 0.053291891 0.55266702
0.032960728 0.052004162 0.55595011
0.03659058 0.05063599 0.55936843
0.039990183 0.049496111 0.56264782
0.043445751 0.048178036 0.56589341
0.047135934 0.046625007 0.56927931
0.050488275 0.04546335 0.57249242
0.053852823 0.044139672 0.57563037
0.05740967 0.042491857 0.57881081
0.061032474 0.041362714 0.58235264
0.063029647 0.040350411 0.5844965
0.026969442 0.058535386 0.55342859
0.029084351 0.057864632 0.5547213
0.032575268 0.056664061 0.55807221
0.036089528 0.055033568 0.56121331
0.039599735 0.053946014 0.56464863
0.043167032 0.052429762 0.56791353
0.04662697 0.051276062 0.57125467
0.050086673 0.049919266 0.57448369
0.053659789 0.048483666 0.57779974
0.057228621 0.047105622 0.58114249
0.06064735 0.04585183 0.58438116
0.062842473 0.044561308 0.58665061
0.026585529 0.062842816 0.55556858
0.028747238 0.062256012 0.55675119
0.032164875 0.061119076 0.56005293
0.035686418 0.059639793 0.56328565
0.039368559 0.058266964 0.56676149
0.042722482 0.057132024 0.56999111
0.046335373 0.055921327 0.57347661
0.049909163 0.054355424 0.57672167
0.053282741 0.053004 0.57985467
0.056874298 0.051761042 0.58329791
0.060263153 0.050514545 0.58650631
0.062446143 0.049306225 0.58872259
0.026282197 0.067389548 0.55771911
0.028447326 0.066995457 0.55901545
0.032042995 0.065482736 0.56231493
0.035608709 0.06432426 0.56577498
0.038959295 0.062740132 0.56875348
0.042696368 0.06153119 0.57238263
0.046087001 0.060342055 0.57562464
0.049650509 0.05871867 0.57882619
0.053054947 0.057577718 0.58211058
0.056624342 0.056249525 0.58548141
0.060003057 0.054988455 0.58867013
0.062113557 0.053769391 0.59096611
0.025979331 0.07191436 0.55986041
0.028270874 0.071291909 0.56117767
0.031557254 0.070164412 0.5643338
0.035201259 0.068668291 0.56769794
0.038744047 0.067304522 0.57101864
0.042254832 0.066167429 0.57442731
0.045708481 0.06475243 0.57761735
0.049181473 0.063466847 0.58090091
0.052833859 0.062124845 0.58435953
0.056218002 0.061000224 0.58762956
0.059771154 0.059402149 0.59083319
0.061875816 0.058467943 0.59313029
0.025721528 0.07675913 0.56208241
0.027845504 0.075944081 0.56324971
0.031308837 0.074682668 0.56653541
0.034695007 0.073414788 0.56972891
0.038393065 0.072012112 0.57320666
0.041845161 0.070856377 0.57653761
0.045320161 0.069430292 0.57974613
0.048886333 0.067916527 0.58301109
0.052359018 0.066783443 0.58637822
0.055931162 0.065321565 0.58967865
0.059522007 0.06380716 0.59297168
0.061546277 0.062991217 0.59522009
0.025412416 0.080533519 0.56392854
0.027544331 0.08050324 0.56541324
0.03104049 0.079035223 0.56862295
0.034466151 0.078001976 0.57199103
0.038145438 0.076329246 0.57529849
0.041658692 0.075232312 0.57873213
0.045158982 0.073700845 0.58191168
0.048562229 0.072510555 0.58516747
0.052116025 0.071146205 0.5885005
0.055567987 0.069808796 0.59173137
0.059237313 0.068386421 0.59516519
0.061356861 0.067274034 0.59734064
0.025145588 0.086121306 0.56645894
0.027427321 0.084726557 0.56760359
0.030842926 0.083478063 0.57084155
0.034204457 0.082387 0.57410407
0.037849769 0.080863193 0.57745451
0.041329652 0.079566523 0.5807398
0.044738524 0.078391001 0.58401024
0.048285063 0.07689403 0.58726192
0.051728904 0.07582368 0.59063041
0.055422042 0.07441853 0.59410113
0.058683258 0.073106557 0.59712672
0.060862232 0.072212443 0.59960544
0.024853086 0.090133026 0.56838286
0.027066423 0.089303553 0.56970829
0.030391183 0.088172376 0.57290643
0.034021433 0.086627692 0.57622808
0.037619602 0.085321039 0.57964385
0.041160446 0.084080547 0.58303016
0.044575542 0.082889184 0.586299
0.04807229 0.081398666 0.58949703
0.051531937 0.080263644 0.59284812
0.055066358 0.078755319 0.59607959
0.058689278 0.077434912 0.59951627
0.060715161 0.076242819 0.60155833
0.024684332 0.094622552 0.5703674
0.026738496 0.093916789 0.57187086
0.03015081 0.092696264 0.57512045
0.033729453 0.091254264 0.5784393
0.037217863 0.090070263 0.58179647
0.040769294 0.088522568 0.58502585
0.044244967 0.087436378 0.58842218
0.047848273 0.085918039 0.59172738
0.05125273 0.084569901 0.59489769
0.054701637 0.083461732 0.59825116
0.058284134 0.081851706 0.60148197
0.060319427 0.081391558 0.60407078
0.024231149 0.099088684 0.57264483
0.026246404 0.098653242 0.57391256
0.029930301 0.097028896 0.57725197
0.033363111 0.09588556 0.58056766
0.03689592 0.094607875 0.58392423
0.040371686 0.093101263 0.5870893
0.043916799 0.091770932 0.59043109
0.047401849 0.090508953 0.59374142
0.051026504 0.089272454 0.59722626
0.054491688 0.087960735 0.60048646
0.057861943 0.086700916 0.60366607
0.06009778 0.085347354 0.60582101
0.02396762 0.10326825 0.57460541
0.026108399 0.10304765 0.57617295
0.029747801 0.10164706 0.57958442
0.03309913 0.10037141 0.58273357
0.036522448 0.099005535 0.5859158
0.040070713 0.09772405 0.58928812
0.043525677 0.096188381 0.59241325
0.047105756 0.094929025 0.59583426
0.050609846 0.093743697 0.59920871
0.054184329 0.092404172 0.60257918
0.05758537 0.091003686 0.60571676
0.059728213 0.089825228 0.60791117
0.023836158 0.10762586 0.57649726
0.025965212 0.10739499 0.57840145
0.029197849 0.10604925 0.58137566
0.032653552 0.10475323 0.58463353
0.036126636 0.10348578 0.58792716
0.039737217 0.10215187 0.59134221
0.043302931 0.10075843 0.59467292
0.046745431 0.09954372 0.59796041
0.0502063 0.098221779 0.60120994
0.053807836 0.096888125 0.60461473
0.057415504 0.095487759 0.60798985
0.059405696 0.094855547 0.61045939
0.023369331 0.11202352 0.57876164
0.025440287 0.11218752 0.58045346
0.028948633 0.11046353 0.5835191
0.032536902 0.10937448 0.58704329
0.036063954 0.10791095 0.59029102
0.039629016 0.10653278 0.59362936
0.043022867 0.1054132 0.59691334
0.046472419 0.10387185 0.60002911
0.050033789 0.10257435 0.60340762
0.053547006 0.10123551 0.60670811
0.056965057 0.10006943 0.61003739
0.059160173 0.098931417 0.61218143
0.024598021 0.11424351 0.58132046
0.028555643 0.112654 0.58523899
0.031921156 0.11143725 0.58828628
0.035523426 0.11009499 0.59163225
0.038898926 0.10869296 0.59507233
0.042297583 0.10750505 0.59806329
0.045997668 0.10614596 0.60145867
0.049242787 0.10484035 0.6046766
0.052995618 0.10336541 0.60832417
0.056171983 0.10228114 0.61106479
0.058848802 0.10151117 0.61307061
0.030188588 -0.023926686 0.51685029
0.032240719 -0.026738461 0.51729155
0.035559632 -0.028138855 0.52072012
0.039176706 -0.02941704 0.52393281
0.042658247 -0.030780399 0.5273062
0.04642776 -0.031999294 0.53041524
0.049896002 -0.033385873 0.53383583
0.053286832 -0.03485392 0.53741753
0.056659516 -0.03602466 0.54036862
0.060110878 -0.037456047 0.54388142
0.063803345 -0.038762491 0.5471645
0.066094324 -0.037477877 0.55041122
0.030013669 -0.019448476 0.51883686
0.065717816 -0.032706849 0.55275708
0.029681269 -0.014812771 0.52105403
0.065516263 -0.028415207 0.55469686
0.029379679 -0.010316998 0.52318227
0.065096989 -0.023983471 0.5569244
0.029148433 -0.0057124309 0.52527946
0.064943165 -0.019429263 0.55891907
0.028632844 -0.0014988296 0.52752167
0.064527661 -0.014737066 0.56124735
0.028362541 0.0033999644 0.52977872
0.064351305 -0.010215143 0.56325299
0.028148359 0.0076009482 0.53169549
0.063917413 -0.0060631298 0.56538355
0.028020503 0.012286153 0.53371525
0.063553557 -0.0013855807 0.56765103
0.027638597 0.016876321 0.53596675
0.063221596 0.0029391721 0.56974274
0.027077233 0.021284398 0.5383358
0.062939093 0.0075527057 0.57189804
0.026885431 0.025614817 0.54028088
0.062655121 0.01234347 0.57412612
0.026575863 0.030262996 0.54247886
0.062420852 0.016614486 0.57609242
0.026242837 0.034716126 0.54462332
0.062222462 0.021110464 0.57811105
0.026032306 0.039316949 0.54669702
0.061973855 0.025658917 0.58020413
0.025812091 0.043908667 0.54877734
0.061647926 0.030066412 0.58232278
0.025406945 0.048367824 0.55100089
0.061295342 0.034715246 0.58456671
0.025106277 0.052921865 0.55315155
0.060955893 0.039197218 0.58672965
0.024686374 0.057288874 0.55535376
0.06070108 0.043863628 0.58887672
0.024492491 0.061784204 0.55736732
0.060354996 0.048397724 0.59106767
0.024261642 0.066434935 0.55948269
0.059908252 0.052749772 0.59329236
0.023753647 0.070798084 0.56177694
0.059771501 0.05729482 0.59526521
0.023604887 0.075434357 0.5637992
0.059560742 0.061926153 0.59735137
0.023199661 0.079773337 0.56597453
0.059089642 0.066350132 0.59963089
0.022961007 0.084143296 0.5679853
0.058812473 0.070883602 0.60174835
0.022648081 0.088922873 0.57023966
0.058638886 0.075512409 0.60379398
0.022490986 0.093504876 0.572249
0.058102693 0.079899371 0.6061278
0.022262845 0.098060891 0.57432336
0.057928335 0.084360093 0.60810667
0.021804523 0.10233016 0.57652712
0.057625402 0.088860407 0.61023819
0.021612048 0.10681045 0.57853311
0.057194479 0.093407348 0.61252439
0.021119814 0.11142042 0.58090985
0.026500592 0.11268878 0.58487433
0.037207104 0.10681173 0.59880662
0.041084867 0.10556032 0.6019997
0.048650373 0.10398202 0.60640585
0.051669184 0.10333918 0.60819161
0.053247888 0.10076599 0.61385113
0.05714317 0.098209709 0.61450994
0.022920603 0.11312822 0.58343887
0.026161885 0.11162046 0.58708328
0.02991838 0.11027671 0.5904541
0.033462845 0.10906222 0.59352195
0.036586471 0.10780518 0.59662002
0.040190615 0.10649201 0.59990478
0.043572281 0.10504831 0.60343385
0.047398973 0.10376494 0.60668713
0.050666776 0.10235541 0.61012775
0.054689165 0.10108721 0.6133768
0.056548234 0.10027635 0.61535317
0.026783824 -0.025539486 0.51982027
0.02895516 -0.028403752 0.52034384
0.03212009 -0.029817982 0.52377987
0.035648741 -0.031144205 0.52708149
0.039284524 -0.03241501 0.53028125
0.0427262 -0.033845395 0.53379059
0.046396758 -0.035193514 0.53715861
0.049747627 -0.036440041 0.54026669
0.053320643 -0.037836462 0.54372287
0.056496751 -0.039205596 0.5470652
0.060246918 -0.040455777 0.5502376
0.062569499 -0.039169967 0.55345631
0.026351104 -0.021096401 0.52206665
0.062406 -0.034548104 0.55553633
0.026293591 -0.01649652 0.52397734
0.061954249 -0.030161705 0.55778021
0.025717845 -0.011894315 0.52643973
0.061714593 -0.02552963 0.55989736
0.025475593 -0.0073992927 0.52850455
0.061468419 -0.020959472 0.56199664
0.025033642 -0.0030879974 0.53070778
0.060997996 -0.016767167 0.56418228
0.024823202 0.0014467798 0.53275484
0.060841378 -0.012111831 0.56622052
0.024538355 0.0060695112 0.53491628
0.060415171 -0.0076495931 0.56846774
0.024396848 0.010570996 0.53687668
0.059986945 -0.0032754242 0.57068163
0.024092015 0.014858719 0.53892469
0.059794392 0.0013435967 0.57274354
0.023499146 0.019225512 0.54131061
0.059394445 0.0057117343 0.57492495
0.023343051 0.024000477 0.54339647
0.059192043 0.010403197 0.57702643
0.023039367 0.028574605 0.54555839
0.058842674 0.014994629 0.57924384
0.022811931 0.032903526 0.54754072
0.058634419 0.019399561 0.58123636
0.022449128 0.037606951 0.5498175
0.058206815 0.023910772 0.58350474
0.022203896 0.042080421 0.5518769
0.057965223 0.028507885 0.58560991
0.021993188 0.046706874 0.55396104
0.057680923 0.03301977 0.58772624
0.021621028 0.051028628 0.55609429
0.057496238 0.037539076 0.58973968
0.021135362 0.055419948 0.55837613
0.056996863 0.042064879 0.59209019
0.020954372 0.060124014 0.56045997
0.056833047 0.046618994 0.59409547
0.020747235 0.064440504 0.56241572
0.056610215 0.051354174 0.59623623
0.020237591 0.069056958 0.56481355
0.056161929 0.055637721 0.59843504
0.02009828 0.073644161 0.56680608
0.055851776 0.060127128 0.60056978
0.019625723 0.078057572 0.56908286
0.055435173 0.064516619 0.60277748
0.019397125 0.08263579 0.57116669
0.055290725 0.069255963 0.60483664
0.01908768 0.087034687 0.5732643
0.055043634 0.073791385 0.60692286
0.018759495 0.091638297 0.57546413
0.054787535 0.078172117 0.60895652
0.018558117 0.096295059 0.57755059
0.054323886 0.082719132 0.61127758
0.01826179 0.10093477 0.57973111
0.054013461 0.087158054 0.61339229
0.017814724 0.10522 0.58192927
0.053736169 0.091850981 0.615574
0.017690903 0.10990661 0.58394527
0.03553801 0.10507016 0.60224915
0.040827736 0.10293517 0.60750884
0.043234076 0.10190481 0.61002642
0.04857726 0.10141967 0.61180842
0.052092154 0.10012613 0.61503905
0.053507473 0.096315101 0.617612
0.019486777 0.1112539 0.58691162
0.022963118 0.10990025 0.59026378
0.02644974 0.10868075 0.59333402
0.029565966 0.10734801 0.596591
0.033250391 0.10601185 0.59993577
0.037076846 0.10469313 0.60326362
0.040304676 0.10346772 0.60630971
0.043955166 0.1021249 0.60966367
0.047255695 0.10067599 0.6131922
0.050533127 0.099290147 0.61658418
0.053154539 0.098734751 0.6181289
0.023088071 -0.027378663 0.52300847
0.025312504 -0.030209657 0.52364266
0.028505933 -0.031473108 0.52676415
0.03218041 -0.032833908 0.53015947
0.035604935 -0.034153454 0.53343225
0.038979564 -0.035491444 0.53673697
0.042388875 -0.036899243 0.54019397
0.045926694 -0.03818259 0.54340637
0.04955278 -0.039491728 0.5466857
0.053100824 -0.040762048 0.54987198
0.056723941 -0.042134974 0.55328566
0.059085269 -0.040825959 0.55649608
0.022812169 -0.02284305 0.52512538
0.058928274 -0.036162786 0.55858308
0.022696989 -0.018179784 0.52712286
0.058469687 -0.031637043 0.5608902
0.022174191 -0.013831317 0.52942693
0.0582426 -0.027223792 0.56290603
0.021865742 -0.0093308464 0.53156435
0.057989646 -0.02273198 0.56498098
0.021535322 -0.0046982877 0.53377819
0.057659827 -0.018223025 0.56714451
0.021327971 -0.00010276958 0.53584635
0.057316426 -0.013632648 0.56935525
0.02086607 0.0042065345 0.53806996
0.057071667 -0.0091462992 0.57141924
0.020735523 0.0088631548 0.54008108
0.056831118 -0.00458676 0.57350826
0.020468269 0.013221614 0.5421176
0.056543648 -0.00014494359 0.57559979
0.019971453 0.017762247 0.54447138
0.056117684 0.0042206049 0.57780778
0.019828422 0.022385482 0.54648232
0.05579887 0.0088765733 0.5800187
0.019508356 0.026786614 0.54859209
0.055411957 0.01324584 0.58218676
0.01916996 0.031367447 0.55079365
0.055111527 0.017863449 0.58436275
0.018948818 0.035754118 0.55279249
0.054653231 0.022143476 0.58657074
0.018716028 0.04057828 0.55497968
0.054490346 0.026690971 0.58857232
0.018219579 0.045085255 0.55731946
0.054181229 0.031281445 0.59074664
0.017911674 0.049346428 0.55936009
0.053877018 0.035906035 0.59292942
0.017703822 0.054063011 0.56147748
0.053561706 0.040342826 0.59504855
0.017496701 0.058406364 0.56344402
0.053264257 0.044915359 0.5972032
0.016981151 0.062975779 0.56582922
0.052980598 0.049270537 0.59925586
0.016834794 0.067402005 0.56776452
0.052705418 0.053827334 0.60138053
0.016462319 0.071798787 0.56992823
0.052203324 0.058287349 0.60370743
0.016216649 0.076490268 0.57207572
0.052045576 0.06298317 0.60576326
0.01583175 0.080997139 0.57429695
0.051857073 0.067354366 0.60772121
0.015558297 0.085608661 0.57644182
0.051413711 0.071885094 0.61001414
0.015260886 0.090036511 0.5785383
0.051054753 0.076336965 0.61218566
0.015087727 0.094639868 0.58057326
0.050823886 0.080939755 0.61428177
0.014721989 0.099119529 0.5827632
0.05048291 0.085400939 0.61643791
0.014301738 0.10364632 0.58502996
0.050176162 0.089961872 0.61859787
0.013931057 0.10813546 0.58722895
0.03198979 0.10397008 0.60407025
0.033285156 0.10321613 0.60584652
0.043834876 0.098624885 0.61704034
0.047341228 0.096784785 0.62142438
0.049948085 0.094439864 0.62063348
0.015776763 0.10963275 0.58981061
0.019088663 0.10842682 0.59282738
0.02275661 0.10701606 0.59632748
0.026100317 0.10564165 0.59970456
0.029470827 0.10430606 0.60300362
0.033580046 0.10310027 0.60613304
0.036841545 0.10166156 0.60963446
0.040273961 0.10036904 0.61285132
0.04363035 0.099087283 0.61603451
0.04726648 0.097764671 0.61934382
0.049403835 0.096972138 0.62132084
0.01942257 -0.028989054 0.5262565
0.021562044 -0.031849511 0.52657533
0.025166841 -0.033207439 0.52995473
0.028653964 -0.034565929 0.53331864
0.032130949 -0.035940103 0.53671426
0.035537653 -0.037199665 0.5398578
0.039043922 -0.038602505 0.54331809
0.042546522 -0.039898295 0.54655176
0.046075504 -0.041226819 0.54985827
0.049546372 -0.042607058 0.55326587
0.053227298 -0.043851495 0.55641627
0.055372577 -0.042934008 0.55946475
0.019270312 -0.02441268 0.52825844
0.055203471 -0.038083352 0.56176937
0.019084429 -0.020051977 0.53020936
0.054796908 -0.033542275 0.56402737
0.018686485 -0.015493631 0.53246516
0.054674178 -0.028938437 0.56600899
0.018353403 -0.011026552 0.53461528
0.054295983 -0.024396459 0.56823719
0.018049026 -0.0065354127 0.53674459
0.054080065 -0.019897718 0.57027555
0.017685426 -0.0019416399 0.53897816
0.053768963 -0.015189517 0.57249928
0.01740119 0.0025332347 0.54107952
0.053526845 -0.010765206 0.57453561
0.017130934 0.0071481131 0.54322231
0.053023048 -0.0064914934 0.57678938
0.016767574 0.011538338 0.54537374
0.052852806 -0.0019282512 0.57880515
0.016476041 0.015914682 0.54744327
0.052574277 0.0027988292 0.58100188
0.016454531 0.020562474 0.54933494
0.052176069 0.0072513856 0.58321542
0.01608327 0.025251258 0.55161482
0.051840398 0.011624295 0.58533043
0.01560263 0.02956729 0.55386108
0.051502034 0.016098458 0.58748907
0.015340389 0.034206521 0.55600512
0.051299095 0.020697746 0.58955407
0.015112522 0.03874759 0.55807322
0.050986197 0.025116928 0.59166348
0.014966736 0.0433794 0.56009054
0.050693959 0.029629666 0.59378862
0.014447458 0.047843266 0.5624373
0.050371479 0.034053687 0.59591019
0.014172893 0.052357178 0.56454408
0.049977232 0.038675699 0.59818763
0.014074524 0.057079259 0.56654733
0.049756993 0.043147001 0.60021955
0.013548626 0.061358217 0.56882679
0.049372602 0.047747087 0.60247773
0.013221622 0.065721914 0.57092887
0.049139477 0.052307095 0.604559
0.012950202 0.070339456 0.57307404
0.0488501 0.056563478 0.60657799
0.012654676 0.074927181 0.57523274
0.048356015 0.061112482 0.6089322
0.012319548 0.079295635 0.57734543
0.048090588 0.065625519 0.61102891
0.012163255 0.083798155 0.57932198
0.047892801 0.070340171 0.61313486
0.011761633 0.088353619 0.58158046
0.04738104 0.074526146 0.61536187
0.011388705 0.092840895 0.58378112
0.047280859 0.07909286 0.61730456
0.011189376 0.09737356 0.58581549
0.047115002 0.083700478 0.61933351
0.010803001 0.10183956 0.58802181
0.046633478 0.087960735 0.62155825
0.010519279 0.10636111 0.59014142
0.019583412 0.10428394 0.60164922
0.024429169 0.10370022 0.60356897
0.025587836 0.10248756 0.60629487
0.035879809 0.098540381 0.61609161
0.040879603 0.09764336 0.61869502
0.044549678 0.09591341 0.62286955
0.046329893 0.09285526 0.62379807
0.012311302 0.107871 0.59304118
0.015658811 0.10661258 0.59617394
0.019194551 0.10537624 0.59928668
0.022460125 0.10396403 0.60273266
0.026097879 0.10270874 0.60589993
0.029874079 0.10138616 0.60922897
0.033179723 0.099978596 0.6126709
0.036671847 0.098619968 0.61603576
0.040322211 0.097306609 0.61932743
0.043534227 0.096028939 0.62248164
0.045821723 0.095222801 0.62450874
0.01600671 -0.030655807 0.52921659
0.01799413 -0.033563036 0.52968955
0.021673817 -0.034933839 0.53310674
0.025007103 -0.03625223 0.5363642
0.028422385 -0.037599098 0.53969336
0.031911574 -0.038856979 0.54284501
0.035744205 -0.040170658 0.5461632
0.039040543 -0.041617196 0.54968607
0.042436756 -0.042903412 0.55288446
0.04592948 -0.044375751 0.55648965
0.04928587 -0.045650057 0.55965722
0.051875781 -0.044911459 0.56231952
0.015803553 -0.026204703 0.53122222
0.051588092 -0.039847948 0.56490219
0.015581729 -0.021688346 0.53327394
0.051213864 -0.03518552 0.56717461
0.015144196 -0.017161608 0.53555906
0.051063392 -0.030726556 0.56912738
0.014852674 -0.012655688 0.53768069
0.050647151 -0.026093397 0.57143271
0.014417585 -0.0081020035 0.53997409
0.050320741 -0.021615978 0.57357991
0.014160814 -0.0036917627 0.54202026
0.050133899 -0.017092008 0.57559752
0.014018858 0.00073790178 0.54395223
0.049965981 -0.012585396 0.57758808
0.01359898 0.0054659136 0.54629958
0.049385589 -0.0082994644 0.57992822
0.013265802 0.0099587142 0.54846019
0.049385548 -0.0035506636 0.58183771
0.012920855 0.014378265 0.55060381
0.04904915 0.00098057836 0.58401716
0.01287833 0.018985096 0.55250138
0.048663225 0.0053551793 0.58618629
0.01251054 0.023515273 0.55471379
0.048341829 0.0099870302 0.58839029
0.012195172 0.027979698 0.55684406
0.048009519 0.014430281 0.59053004
0.012008359 0.032434035 0.5588336
0.047657579 0.018862687 0.5926863
0.011574978 0.037023436 0.56113952
0.047403254 0.023457777 0.59480423
0.01137311 0.04148249 0.56314701
0.046936203 0.027946662 0.5971055
0.011005482 0.046153534 0.56541592
0.046764601 0.032555979 0.59914124
0.010813994 0.050688762 0.56744295
0.046507999 0.037044968 0.60121888
0.010350958 0.055172127 0.56973779
0.046175458 0.041601505 0.60340446
0.010030266 0.0595419 0.57183564
0.045840099 0.046130102 0.60558176
0.0096838363 0.064011723 0.57400107
0.045566827 0.050658982 0.6076932
0.0095128659 0.06833528 0.57592124
0.045301393 0.05508766 0.60975599
0.0090845898 0.073134467 0.57830608
0.044877797 0.059558582 0.61200392
0.0087851342 0.077628076 0.58043116
0.044696238 0.064249873 0.61408317
0.0084442794 0.08216314 0.58261693
0.044321865 0.068506703 0.6161927
0.0081513273 0.086657822 0.58473551
0.043937411 0.073122635 0.61845726
0.0079608746 0.091269061 0.58679205
0.043646954 0.077561989 0.62055099
0.0076235831 0.095691934 0.58892894
0.043585829 0.082238227 0.62249619
0.007302206 0.10012019 0.59105098
0.043208923 0.086533621 0.62462389
0.0070147924 0.10460807 0.59316099
0.0090488344 0.10475698 0.59915721
0.016008686 0.10387762 0.60200107
0.021100914 0.10305558 0.60445917
0.035530493 0.095108181 0.62329257
0.03871854 0.094435319 0.6251657
0.042824764 0.091116011 0.62687469
0.0085785966 0.10622911 0.59598076
0.012160872 0.10484634 0.59940946
0.015490443 0.10348599 0.60275495
0.018998284 0.10216497 0.60604262
0.022621041 0.10099268 0.60903239
0.026109651 0.099661142 0.61233962
0.02959751 0.098277748 0.61575627
0.033184387 0.09694691 0.61907589
0.036979489 0.095641091 0.62237227
0.040309865 0.094246119 0.62579101
0.04242764 0.093620867 0.62741184
0.012663024 -0.032478396 0.53203726
0.014504543 -0.035311103 0.53288782
0.017953534 -0.036668196 0.53624338
0.021703254 -0.037889514 0.53935474
0.025098 -0.039290812 0.54279602
0.028553989 -0.040646411 0.54614937
0.03208537 -0.041877307 0.54925001
0.035544753 -0.043275066 0.55269295
0.039212737 -0.044565838 0.55593944
0.042341392 -0.045884378 0.55916816
0.045905601 -0.047246546 0.56255078
0.048377421 -0.046529867 0.56538498
0.012141383 -0.027941132 0.53441602
0.04801308 -0.041340515 0.56810141
0.011987763 -0.023458062 0.5363819
0.047843415 -0.036751136 0.57012707
0.011582199 -0.018839721 0.53866988
0.047460798 -0.032355435 0.57230115
0.011390648 -0.014284961 0.54070491
0.047077715 -0.028014008 0.57445395
0.011050247 -0.009825265 0.54285985
0.046947699 -0.02336248 0.57646245
0.010674378 -0.0052813217 0.54508638
0.046570107 -0.018685726 0.57874417
0.010484317 -0.00062284246 0.54716146
0.046447653 -0.014070438 0.58073008
0.010231595 0.0037796907 0.5492003
0.045836527 -0.0099986829 0.58301675
0.0098302532 0.0081071109 0.55136681
0.045612015 -0.0055508539 0.58504379
0.0096057151 0.012663625 0.55343759
0.045331422 -0.00091057643 0.58720779
0.009253121 0.017369762 0.55570459
0.045162871 0.0038945712 0.58931905
0.0089090327 0.021667931 0.5577985
0.044585109 0.0081868432 0.59165895
0.0086970925 0.026291359 0.55988282
0.044474602 0.012716006 0.59359753
0.008358974 0.030841131 0.56207156
0.044138264 0.01730274 0.59579921
0.0081416955 0.035438221 0.56415093
0.043773215 0.021673325 0.59794456
0.0079088081 0.039920289 0.56620061
0.043542571 0.026164066 0.59999537
0.007305576 0.044442911 0.5686602
0.043147653 0.03077196 0.60226786
0.0071737347 0.048794288 0.57054996
0.042922609 0.035204221 0.60428917
0.0067124758 0.053248417 0.57283109
0.042630371 0.03979649 0.60644627
0.0063088466 0.057879444 0.57512218
0.042257443 0.044408511 0.60869706
0.0061917133 0.062253091 0.57700527
0.042132642 0.048700076 0.61055529
0.0058513395 0.066969395 0.57926333
0.041652512 0.053236414 0.61288953
0.0055352477 0.071578234 0.58145243
0.0414166 0.057716716 0.61494178
0.0051785219 0.076000631 0.58360976
0.041255817 0.062335048 0.61696959
0.0049764845 0.080487281 0.58562851
0.040878594 0.066893101 0.61920327
0.0046497886 0.084950686 0.5877704
0.040444441 0.071387425 0.62147176
0.0042904117 0.089392051 0.58993816
0.040163621 0.07597214 0.62361366
0.0041380422 0.093972728 0.59194195
0.039951567 0.080381095 0.62561184
0.0037908219 0.098598763 0.59417105
0.039651249 0.084975734 0.62777847
0.0033432259 0.10304573 0.59643477
0.0041136285 0.10445203 0.59910208
0.0083198389 0.10348921 0.60173202
0.031405289 0.093405142 0.62630564
0.037840024 0.093439475 0.62714493
0.039226975 0.089343354 0.62998551
0.0052624065 0.10459442 0.59896404
0.0087210834 0.10321364 0.60237104
0.011971874 0.10197397 0.60545045
0.015460229 0.10060574 0.6088351
0.0189809 0.09922269 0.61225575
0.022469182 0.097913444 0.61551577
0.026069785 0.096561283 0.61888242
0.029584695 0.095333859 0.62197345
0.033150055 0.093917608 0.62547046
0.036515109 0.092501178 0.62893951
0.038584605 0.091780558 0.63075489
0.0090067545 -0.034060251 0.53528696
0.0095214732 -0.035994731 0.53790057
0.012953438 -0.037297517 0.54116845
0.01658952 -0.038716838 0.54436624
0.020068733 -0.039923701 0.54755825
0.023779672 -0.041415557 0.55090308
0.027319763 -0.042768322 0.55414981
0.03073146 -0.044104885 0.55729485
0.034447663 -0.04553327 0.56025034
0.038038537 -0.04694498 0.56363654
0.041582864 -0.048198033 0.56690514
0.044138074 -0.048433136 0.5688777
0.0085685095 -0.029512594 0.53758126
0.0087768584 -0.031104647 0.54072154
0.012171259 -0.032438561 0.54388815
0.015693324 -0.033805598 0.54718322
0.019215778 -0.035051536 0.55054539
0.022723872 -0.036486298 0.55378711
0.02620486 -0.037665371 0.5571385
0.029845804 -0.039088104 0.56053954
0.033246595 -0.040228404 0.56382006
0.036767799 -0.041658647 0.56707937
0.040396165 -0.043029852 0.57049429
0.043813858 -0.043354981 0.57148564
0.0084054321 -0.025070108 0.53954089
0.0085052559 -0.026650399 0.54286128
0.011922708 -0.027841654 0.54613292
0.015308254 -0.029176131 0.54928905
0.018924173 -0.030606708 0.55265701
0.022337969 -0.031992383 0.55581737
0.025955228 -0.033175286 0.55932325
0.029465504 -0.034582488 0.56258267
0.032982618 -0.035622705 0.56605196
0.036485687 -0.037216663 0.56920028
0.040065303 -0.03852614 0.57259321
0.043471564 -0.038786225 0.57371294
0.0081380522 -0.020644026 0.5416047
0.0081420634 -0.02193642 0.54503882
0.011382619 -0.023371108 0.5479731
0.015014157 -0.024611074 0.55146396
0.018604673 -0.026002349 0.55482435
0.022207655 -0.027423548 0.5581826
0.025638254 -0.028656671 0.56144631
0.029256234 -0.030283608 0.56470853
0.032641411 -0.031339388 0.56801766
0.036190987 -0.032715738 0.57133919
0.039673265 -0.034006134 0.57463074
0.042999554 -0.034339182 0.57591516
0.0078010047 -0.015894786 0.54387254
0.0076225242 -0.017420562 0.54692757
0.011139591 -0.018952679 0.55012602
0.01476646 -0.02014045 0.55364025
0.018302079 -0.021492342 0.55695921
0.021825444 -0.022825405 0.56027448
0.0253687 -0.024191437 0.56359446
0.028866762 -0.025754429 0.5667541
0.032418996 -0.027060784 0.57011724
0.035925586 -0.028126523 0.57356042
0.039333157 -0.029380191 0.57678628
0.042644929 -0.029979505 0.57803231
0.0074973991 -0.011488171 0.54596704
0.0073447451 -0.013071416 0.54900235
0.010869741 -0.014414165 0.55231416
0.014363084 -0.015660139 0.5556429
0.017830992 -0.016872743 0.55896074
0.021487452 -0.018259767 0.56239927
0.025055878 -0.019796256 0.56565434
0.028688718 -0.021027589 0.56915146
0.032168724 -0.022390764 0.57240033
0.035616934 -0.023436306 0.57578748
0.039082091 -0.025005806 0.5789057
0.042332612 -0.025367714 0.58026779
0.007302478 -0.0068620853 0.54803431
0.007073842 -0.0084401071 0.55124044
0.010662504 -0.010015149 0.55449754
0.014116742 -0.01119376 0.55781841
0.017650312 -0.012436762 0.56119496
0.021354586 -0.013816424 0.5646925
0.024772055 -0.015235152 0.56783891
0.02833811 -0.016571721 0.57120132
0.031779308 -0.017797364 0.57448131
0.035352297 -0.01901209 0.57791877
0.038640045 -0.02036815 0.58095062
0.042086665 -0.020715199 0.58234984
0.0068849251 -0.0025530159 0.55021071
0.0067744665 -0.0039067976 0.55339181
0.010386389 -0.0055095255 0.55666041
0.013854176 -0.0066782758 0.56000227
0.017317399 -0.0080172196 0.56324518
0.020960182 -0.0094110649 0.56666422
0.024506902 -0.010719428 0.57001996
0.028026802 -0.012062248 0.57332587
0.031541906 -0.013481092 0.57658446
0.035015333 -0.014606435 0.57995665
0.038494624 -0.016067181 0.58315098
0.041874189 -0.016307374 0.58438981
0.0068018255 0.0021864176 0.55220467
0.006424943 0.00049265474 0.55541188
0.010033179 -0.00092963502 0.55877554
0.013498398 -0.0020881929 0.56212008
0.017185008 -0.0034436733 0.56561059
0.020602716 -0.0046803802 0.56885749
0.024089633 -0.0062388424 0.57200682
0.027813887 -0.0073384531 0.57568145
0.031214567 -0.0088926293 0.57873404
0.03471946 -0.01010959 0.58209199
0.038203984 -0.011437008 0.58536571
0.041577883 -0.011705169 0.58657998
0.0064686593 0.0066324286 0.55434644
0.0062456061 0.0049414635 0.55765468
0.0097475313 0.003722541 0.56100816
0.013326128 0.0020948723 0.56422472
0.016786017 0.0011532195 0.5676825
0.02028037 -0.00021919608 0.57094276
0.023998721 -0.0017676912 0.57436353
0.027487556 -0.0030167922 0.57768536
0.030829251 -0.0042225532 0.58086193
0.034285553 -0.0055994578 0.58407599
0.037923917 -0.0069793239 0.58749765
0.04109006 -0.0073999055 0.58876109
0.0060059205 0.010948513 0.55657369
0.0059184507 0.009511102 0.55979413
0.0095184576 0.0081270598 0.56316942
0.01300263 0.0066921525 0.5663836
0.016522951 0.0055649504 0.56980866
0.019982349 0.004169371 0.57301605
0.023592217 0.0030026026 0.57652223
0.027170891 0.0015726611 0.57984775
0.030603239 0.00018261373 0.58302706
0.034009181 -0.0012082271 0.58617562
0.037613697 -0.0025721081 0.58956718
0.041035276 -0.0026174188 0.59079301
0.0056520314 0.01544914 0.55875945
0.0057370774 0.013933044 0.56201982
0.0091806063 0.012807947 0.5653578
0.012699009 0.011344504 0.56859559
0.016240221 0.0101601 0.57201326
0.019753043 0.008793842 0.57529813
0.023197006 0.0074729398 0.57852882
0.026643179 0.0060894638 0.58172762
0.030175893 0.0048182718 0.58508772
0.033675097 0.0034746714 0.58836943
0.03721758 0.0022518374 0.59176737
0.040648177 0.0015283711 0.59286922
0.0053039258 0.020016778 0.56096601
0.0054343771 0.018499706 0.56418574
0.0089551825 0.01705407 0.5674361
0.012365963 0.015815519 0.570674
0.015868835 0.014481746 0.57396531
0.019493623 0.013234939 0.57744467
0.023040747 0.011866316 0.58076763
0.026351415 0.010493182 0.58381647
0.029989969 0.0092872679 0.5873341
0.033334635 0.0078810155 0.59040374
0.036946379 0.0064434744 0.59376305
0.040399414 0.0064035207 0.59506667
0.0050947685 0.02463419 0.56304491
0.0051745661 0.023207147 0.56647843
0.0084122987 0.021707632 0.56937385
0.011951894 0.020505723 0.57277995
0.015527511 0.018975332 0.57604665
0.019179482 0.01764759 0.57951266
0.022631161 0.016438846 0.58281398
0.026221225 0.015016839 0.58615696
0.029487565 0.013802622 0.58924228
0.033201642 0.012381461 0.5927282
0.036729999 0.011204086 0.5961349
0.039959639 0.01081812 0.59736377
0.0048616212 0.029198539 0.56512797
0.0045977095 0.027674641 0.56827468
0.0082271453 0.026282582 0.57167941
0.011697787 0.025039773 0.57498378
0.015236322 0.023532961 0.57822084
0.018822372 0.022385355 0.58171022
0.022348065 0.021011446 0.5850057
0.025799477 0.019535553 0.58815968
0.029293122 0.018301588 0.59149534
0.032890581 0.017046999 0.59493893
0.03641963 0.015613806 0.59820563
0.039827134 0.015315723 0.59931475
0.004544972 0.033731814 0.56728727
0.0045211767 0.032007646 0.5705719
0.0080257496 0.030742455 0.57390296
0.011585576 0.029338945 0.57722133
0.015044807 0.028105307 0.58051765
0.018550869 0.026706789 0.58377701
0.022068165 0.025362056 0.58707887
0.025483767 0.024310078 0.59042501
0.029031759 0.022897884 0.59372509
0.032586761 0.021390282 0.59698063
0.036116183 0.020238344 0.60040253
0.039192963 0.019673284 0.6016134
0.0040750233 0.038001712 0.56950355
0.0042669582 0.036416095 0.57270646
0.0076476955 0.035151642 0.57589555
0.011263158 0.033922065 0.57937366
0.014799241 0.032630455 0.58272636
0.018305222 0.031207729 0.58597231
0.021732071 0.029921819 0.58920264
0.025247119 0.028496068 0.59245729
0.028639894 0.027557138 0.5958395
0.032319348 0.025982242 0.59920102
0.03580188 0.02465295 0.60247141
0.038953446 0.024171151 0.60366023
0.0038527951 0.042409655 0.5715121
0.0038208007 0.041152548 0.57480097
0.007314737 0.03992391 0.5781399
0.010878674 0.038431216 0.58141392
0.014500282 0.036998611 0.58478731
0.017930554 0.035784487 0.58806109
0.021476038 0.034395505 0.591371
0.024923276 0.033156823 0.59465075
0.028489847 0.031793009 0.59799874
0.031888194 0.030557815 0.60122418
0.035518087 0.029043753 0.60456228
0.038780749 0.028744418 0.60575199
0.0036549347 0.047048483 0.57358766
0.0035565509 0.045649376 0.5769726
0.0071195099 0.044358853 0.58035684
0.01069751 0.043040257 0.58374286
0.014128208 0.041721273 0.58695936
0.017628711 0.040292498 0.59019572
0.021258198 0.038757186 0.5935216
0.02463966 0.037584636 0.59676218
0.028186487 0.036294561 0.60012805
0.031606875 0.035171498 0.60344058
0.035152867 0.033665542 0.60668671
0.038499787 0.033360776 0.60787338
0.0033328589 0.051628452 0.57577145
0.0032365862 0.050452631 0.57924891
0.0068259104 0.048742827 0.58243263
0.010310587 0.0475129 0.58576024
0.013810638 0.04616851 0.58904248
0.017302059 0.044826705 0.59231621
0.020802721 0.043566208 0.59564537
0.024402032 0.042115588 0.59898317
0.027851628 0.040763374 0.60220313
0.03140552 0.03948747 0.60558498
0.034837268 0.038100023 0.60876501
0.03817628 0.038059969 0.61014152
0.0028897496 0.056060348 0.57802439
0.0029581436 0.054751571 0.58129537
0.0063571078 0.053443339 0.58448136
0.0099995155 0.052015763 0.58788139
0.013425754 0.050723772 0.59110767
0.016988397 0.049356069 0.59444898
0.020536313 0.047963668 0.59775984
0.024049079 0.046563905 0.60102624
0.027396578 0.045281816 0.60416746
0.031100158 0.044080097 0.6077621
0.034495652 0.04273406 0.61092329
0.037922043 0.042418707 0.61217618
0.0027141981 0.060560692 0.58002055
0.0026436127 0.05920681 0.58338636
0.0060554445 0.057908919 0.58659279
0.0094767073 0.056601379 0.58980477
0.01309742 0.05524021 0.59321648
0.016848331 0.053783569 0.59672523
0.020254109 0.052413549 0.59988499
0.023830513 0.05106109 0.60325056
0.027293788 0.04987948 0.60658014
0.030791271 0.048603225 0.60989696
0.034299415 0.047142792 0.61312461
0.037727468 0.047086809 0.61431348
0.0021675229 0.065085188 0.58242077
0.0024055084 0.063810617 0.58564693
0.0058470932 0.062392902 0.58882165
0.009367872 0.06104001 0.59212303
0.012782272 0.059766259 0.59534574
0.01633895 0.058385897 0.59867322
0.019830566 0.057129156 0.60199404
0.023506196 0.055731792 0.6054489
0.026845526 0.05458675 0.60865617
0.03040991 0.05309445 0.61193097
0.033991102 0.051641408 0.61524665
0.037263334 0.05139165 0.61643416
0.0020963429 0.069615752 0.5843181
0.001949002 0.068333805 0.58761215
0.0053976215 0.067021713 0.5908531
0.0089024296 0.065555796 0.59407389
0.012374474 0.064197153 0.59731615
0.01605586 0.062948078 0.60085922
0.019643705 0.061552215 0.60421407
0.023216128 0.060196739 0.60757339
0.026692512 0.058879796 0.61084354
0.0301314 0.057617109 0.61410046
0.033459261 0.056200374 0.617145
0.036878534 0.055927757 0.61870593
0.0017865077 0.074172541 0.5864796
0.0016241777 0.072848096 0.58972383
0.005203947 0.071368501 0.5930233
0.0086688213 0.07016553 0.59634292
0.012193141 0.068678081 0.59957433
0.015775898 0.067521483 0.603055
0.019304799 0.066070482 0.60631174
0.022844857 0.064735726 0.60964525
0.026390508 0.063322559 0.61294204
0.029994298 0.062048536 0.61638224
0.033336613 0.060677785 0.61946869
0.036933392 0.060604822 0.62062871
0.0014896826 0.078652069 0.58859622
0.0015920009 0.077162325 0.5920617
0.0049750661 0.075809047 0.59520459
0.0085282885 0.074471742 0.59855187
0.012011917 0.073046625 0.60177076
0.015387097 0.071911901 0.60502493
0.019012019 0.070497587 0.60841221
0.022581413 0.069037855 0.61171067
0.025933709 0.067948788 0.61496365
0.029445093 0.066640779 0.61827892
0.033010595 0.065354034 0.62166816
0.036365576 0.064850107 0.62286407
0.0012165527 0.08319214 0.59071201
0.001209022 0.081786901 0.59416723
0.0046002464 0.080343172 0.59726971
0.0081081474 0.079024434 0.60057509
0.011654149 0.077870324 0.60401493
0.015210662 0.076301664 0.60723859
0.018641969 0.074956611 0.61044145
0.02222506 0.073888704 0.61397135
0.025698641 0.072298974 0.61708814
0.029184684 0.071077913 0.62042218
0.032642879 0.069771796 0.62367737
0.036171816 0.069481656 0.62489474
0.00069290213 0.087849051 0.59314102
0.00090814754 0.086254939 0.59628093
0.0043844287 0.084733039 0.59943819
0.0078837899 0.083460361 0.60275912
0.011281556 0.082342729 0.60604864
0.014857801 0.080930606 0.60938114
0.018317819 0.079579905 0.61261392
0.021869397 0.078224286 0.61594921
0.025398728 0.076858953 0.61925358
0.028955502 0.075462565 0.62257236
0.03234046 0.074261636 0.62580132
0.035693541 0.073993325 0.62722236
0.00063346699 0.092462167 0.5950591
0.00061062956 0.090660781 0.59836429
0.00403162 0.089353681 0.60157621
0.0074998634 0.088096336 0.60486984
0.011041153 0.086861745 0.60825992
0.014517334 0.08550261 0.61150658
0.018116672 0.08409667 0.61486906
0.021664511 0.082729667 0.61819381
0.025149355 0.081458092 0.62149864
0.028729036 0.080176607 0.62490702
0.032050233 0.078804195 0.62796831
0.035552554 0.078426182 0.62919384
0.00028674444 0.096837893 0.59718698
0.00024567079 0.095251337 0.60047179
0.0037027844 0.093889102 0.60369492
0.0071618911 0.09283258 0.60708857
0.010813068 0.091238976 0.61040729
0.014167874 0.09006992 0.61361915
0.017892726 0.088574797 0.61707675
0.021365324 0.087376133 0.6204077
0.024709426 0.085972801 0.62347823
0.028243938 0.084919348 0.62696028
0.031707514 0.083435923 0.63012403
0.035128836 0.082823426 0.63144898
-0.00018998096 0.1013208 0.59949619
-1.1042226e-05 0.099916741 0.60251296
0.0034792274 0.09853138 0.60572726
0.0068153571 0.097218364 0.60910451
0.010362389 0.095737964 0.6123659
0.014155681 0.094335973 0.61595345
0.01741535 0.093161389 0.61905289
0.021023259 0.091635451 0.62235916
0.024508618 0.090389177 0.62567854
0.027960198 0.089346245 0.628968
0.031553544 0.087897554 0.63228363
0.035022113 0.087588459 0.63344675
0.0016034218 0.102814 0.60220665
0.0051684193 0.10160662 0.6052624
0.0084860362 0.10022354 0.60865432
0.012002377 0.098736048 0.61229491
0.015578002 0.097482309 0.61544997
0.019064317 0.096152291 0.61875373
0.022724759 0.09483245 0.62206066
0.02625774 0.093531489 0.62530953
0.029705483 0.092210591 0.62858844
0.033117585 0.090870872 0.63190192
0.034820311 0.089861199 0.63427603
