# .PCD v0.7 - Point Cloud Data file format
VERSION 0.7
FIELDS x y z
SIZE 4 4 4
TYPE F F F
COUNT 1 1 1
WIDTH 1294
HEIGHT 1
VIEWPOINT 0 0 0 1 0 0 0
POINTS 1294
DATA ascii
0.35115272 -0.22101071 0.80144775
0.35360122 -0.22004229 0.80120057
0.35820994 -0.21820402 0.80183524
0.36278909 -0.21633008 0.80245918
0.36733216 -0.21434344 0.80319822
0.37190139 -0.21243547 0.80385441
0.37642348 -0.21054582 0.80453753
0.3812573 -0.20870537 0.80516011
0.38576487 -0.20666066 0.80591732
0.39034277 -0.20491762 0.80652803
0.39474398 -0.20311715 0.80713964
0.3977139 -0.20189948 0.80776817
0.34913313 -0.21682864 0.80375344
0.35148421 -0.21564537 0.80376947
0.35608679 -0.21387053 0.80437517
0.36062393 -0.21210535 0.80498099
0.36521977 -0.21014154 0.8056941
0.36990607 -0.20831539 0.80632156
0.37452731 -0.20665419 0.8068614
0.37909994 -0.2045981 0.80762869
0.38367298 -0.20262332 0.80834997
0.38828632 -0.2009456 0.80889976
0.39280361 -0.19904429 0.80958432
0.3958717 -0.19820184 0.81016213
0.34734556 -0.21322702 0.80607855
0.34957924 -0.2118482 0.80608106
0.35401586 -0.20993626 0.80677861
0.35866511 -0.20814529 0.80738938
0.36342296 -0.20631781 0.80801141
0.36793676 -0.20446733 0.80866754
0.37239882 -0.20265675 0.80930555
0.37712169 -0.20071055 0.80999774
0.38173094 -0.1989184 0.81061262
0.38622504 -0.19700661 0.81130511
0.39101455 -0.19524731 0.81188583
0.39381528 -0.19398402 0.81264442
0.34538582 -0.20919791 0.80839866
0.34760782 -0.20806515 0.80839044
0.35202527 -0.20598084 0.80918711
0.35656908 -0.20420697 0.80979729
0.36156049 -0.20251736 0.81032121
0.36599588 -0.20039237 0.81113929
0.37049267 -0.19869322 0.81171131
0.37524259 -0.19680718 0.81236714
0.37978876 -0.19500211 0.81299478
0.3841697 -0.19300814 0.81374353
0.38904494 -0.19123265 0.81432599
0.39205036 -0.19014445 0.81502724
0.34332281 -0.20502789 0.8110438
0.34569943 -0.20407808 0.81080973
0.35035086 -0.20196944 0.81159991
0.35493106 -0.20016491 0.81222427
0.35941043 -0.19845678 0.81280291
0.36395907 -0.19650671 0.81351233
0.36850384 -0.19480668 0.81408072
0.37324482 -0.19297634 0.81470579
0.37758973 -0.19102776 0.81543195
0.38242081 -0.18914086 0.81608129
0.3872447 -0.18718369 0.81677091
0.38992718 -0.18599403 0.81740135
0.3416096 -0.20152156 0.81311727
0.34384704 -0.20001866 0.81326503
0.34836763 -0.19820389 0.81390041
0.3528502 -0.19626184 0.81461096
0.35750774 -0.19426486 0.81533748
0.36195198 -0.19257885 0.81590664
0.36666197 -0.1909163 0.81643957
0.37129733 -0.18881875 0.81722486
0.37596375 -0.18701513 0.81784129
0.38058653 -0.18529928 0.81841189
0.38481343 -0.18339789 0.81912154
0.38777244 -0.18197727 0.81987727
0.33958563 -0.19738416 0.81558061
0.3417927 -0.19624276 0.81557751
0.34620756 -0.19422817 0.81633496
0.35081986 -0.19241726 0.81696022
0.35545954 -0.19036478 0.8177197
0.36027884 -0.18876213 0.81820929
0.364618 -0.18667068 0.81901675
0.36949334 -0.18481162 0.81964642
0.37414658 -0.18308525 0.82022035
0.37870339 -0.18119168 0.8208971
0.38318408 -0.17948101 0.82147706
0.38604444 -0.1780318 0.82225269
0.33744252 -0.19306591 0.8183676
0.33986509 -0.19226396 0.81799382
0.34446326 -0.19002822 0.81886047
0.34898078 -0.18829696 0.81944883
0.35362646 -0.18651837 0.82005292
0.3581416 -0.18476939 0.82065153
0.36284825 -0.18278806 0.82136494
0.36748695 -0.18092735 0.82201606
0.37203518 -0.17910956 0.82265073
0.37682185 -0.17732188 0.82324773
0.38142064 -0.17544261 0.8239128
0.38435662 -0.17443109 0.82461989
0.33550414 -0.18911928 0.82077187
0.33783242 -0.18817639 0.82048064
0.34249675 -0.18636927 0.82109922
0.34723428 -0.1845724 0.8217057
0.35174966 -0.18260849 0.82242578
0.35640901 -0.18076423 0.82306582
0.36094442 -0.17897701 0.82368428
0.36571959 -0.17698467 0.82439804
0.37016568 -0.1751399 0.82505679
0.37467596 -0.17340642 0.82564706
0.3792927 -0.17153421 0.82630658
0.38223562 -0.17036569 0.82694763
0.33357936 -0.18513362 0.82296956
0.33591649 -0.18434948 0.82280999
0.34053737 -0.18237221 0.82352853
0.34505662 -0.18058576 0.824148
0.34974357 -0.17865305 0.82483566
0.35435036 -0.17703721 0.82535106
0.35896382 -0.17513728 0.8260265
0.36360028 -0.17314294 0.82675338
0.36808386 -0.17128415 0.82741678
0.37269658 -0.16944988 0.8280552
0.37748826 -0.16751043 0.82873762
0.38032901 -0.16630289 0.82952291
0.33174452 -0.18149099 0.82551044
0.33404645 -0.1803976 0.82520604
0.33853808 -0.17834045 0.82598096
0.34306002 -0.17660265 0.82657266
0.34769911 -0.17477164 0.82720697
0.35263133 -0.17294261 0.82781476
0.35703087 -0.17123711 0.82839876
0.36151925 -0.1690143 0.82926762
0.36618838 -0.16732907 0.82981688
0.37070921 -0.1653593 0.83053982
0.37537161 -0.16364861 0.83110404
0.37827745 -0.16225731 0.83198631
0.32980475 -0.17757465 0.82801068
0.33188504 -0.17653847 0.82757485
0.33659208 -0.17443359 0.82835811
0.34101993 -0.1726947 0.82895857
0.3456986 -0.17075737 0.82964957
0.3505851 -0.1690385 0.830199
0.35510495 -0.16701064 0.83095491
0.35964432 -0.1650366 0.83167869
0.36426678 -0.16344911 0.83217669
0.36881256 -0.16154432 0.83286077
0.37346399 -0.15972699 0.83348626
0.37655354 -0.15877959 0.83412331
0.32777905 -0.17336661 0.83028543
0.33008611 -0.1726329 0.82993859
0.33474749 -0.17061102 0.83067888
0.33947846 -0.16879755 0.83129525
0.34402561 -0.16682166 0.83201945
0.34865323 -0.16505849 0.83261633
0.35314417 -0.16335551 0.83319104
0.35768327 -0.16128911 0.83396703
0.36246204 -0.15924811 0.83470798
0.36699232 -0.15770207 0.83519053
0.37168056 -0.15566036 0.83593971
0.37447044 -0.15472114 0.83649778
0.32598227 -0.16972026 0.83254826
0.32840049 -0.16839619 0.83247977
0.33302578 -0.16661033 0.83308971
0.33726567 -0.16473673 0.83378255
0.34184125 -0.16295804 0.83439279
0.34654191 -0.16107199 0.83505285
0.35125843 -0.15914068 0.83573711
0.35593936 -0.1574142 0.83630872
0.36044848 -0.15537716 0.8370707
0.36514121 -0.15367495 0.83762753
0.36950842 -0.1516632 0.83838749
0.37260473 -0.15088627 0.83885366
0.32404423 -0.1657864 0.83498651
0.3260715 -0.16474916 0.83474314
0.33079633 -0.16276816 0.83545482
0.33536536 -0.16082907 0.83615625
0.34007302 -0.15891598 0.83683097
0.34452209 -0.15724003 0.83739406
0.34922418 -0.15533766 0.83806324
0.35375217 -0.15340933 0.8387621
0.35842085 -0.15167807 0.83933747
0.36291575 -0.14968623 0.84007514
0.36766553 -0.14776656 0.84074998
0.37056178 -0.14660105 0.84144598
0.32201836 -0.16159272 0.83730352
0.32455409 -0.16067228 0.83717936
0.32891718 -0.158674 0.83793211
0.3336207 -0.15682925 0.83856857
0.33804974 -0.1548228 0.83932018
0.34268105 -0.15340887 0.83971936
0.34726986 -0.15161453 0.84033722
0.35174438 -0.14950964 0.84114057
0.35660815 -0.14753345 0.84183753
0.36102757 -0.14580655 0.8424319
0.36555734 -0.14369299 0.84323543
0.36871508 -0.14288892 0.84361917
0.32015389 -0.15777722 0.83956099
0.32260135 -0.15663062 0.83963335
0.32703465 -0.15498438 0.84018093
0.33153498 -0.15288237 0.84098047
0.33621669 -0.15111117 0.84157723
0.34108952 -0.14926979 0.84219718
0.34561989 -0.1474136 0.8428551
0.35012567 -0.14543685 0.84358329
0.3546398 -0.1436502 0.84420329
0.35945633 -0.14157787 0.84495866
0.36362493 -0.13997819 0.84550285
0.36680564 -0.13900527 0.84605229
0.31842822 -0.15433414 0.8419019
0.32064092 -0.15269962 0.8420254
0.32517868 -0.15083574 0.84268701
0.32992837 -0.14890902 0.84336585
0.33432728 -0.14697257 0.84408051
0.33885437 -0.1451529 0.8447181
0.34373975 -0.14334536 0.84531778
0.34809068 -0.14147091 0.84600157
0.35251263 -0.13973679 0.84659982
0.35727426 -0.1381353 0.84709376
0.36193204 -0.13599189 0.84790301
0.36483437 -0.13506052 0.84846747
0.31621924 -0.14981639 0.84458441
0.31856713 -0.14879042 0.84441495
0.32309473 -0.14683001 0.84513205
0.32780018 -0.14524992 0.84561872
0.33231091 -0.14316708 0.84640646
0.33703884 -0.14143367 0.84697789
0.34151357 -0.13945685 0.84770882
0.34605908 -0.13766967 0.84832639
0.35076562 -0.1358559 0.84894508
0.35544699 -0.13399224 0.84959418
0.35990822 -0.13214514 0.85025293
0.36316589 -0.13128427 0.85078329
0.31436303 -0.14607936 0.84700722
0.31663403 -0.14499247 0.8467294
0.32105312 -0.14303735 0.84745288
0.32571426 -0.14130983 0.84802675
0.3305271 -0.13934134 0.84872377
0.33487055 -0.13744056 0.84942305
0.33954519 -0.13538197 0.85018289
0.34429809 -0.13368914 0.85072923
0.3487404 -0.13197291 0.85131562
0.35340124 -0.12996322 0.85204905
0.3578248 -0.12813567 0.8527
0.36099815 -0.12723243 0.85320151
0.31241351 -0.14210774 0.8494187
0.31462288 -0.14083707 0.84925276
0.31938294 -0.13907535 0.84983742
0.32398382 -0.13700967 0.85060769
0.32848048 -0.13553075 0.8510552
0.33330062 -0.13336095 0.85186535
0.33770621 -0.13147834 0.85254902
0.34246713 -0.12984818 0.85305917
0.34687212 -0.12790845 0.8537752
0.35153669 -0.1259978 0.85445231
0.35595343 -0.12419279 0.85509109
0.35912773 -0.12331638 0.85569751
0.31047329 -0.13815552 0.85181999
0.31291202 -0.1369859 0.85157812
0.31717336 -0.13513778 0.85225469
0.3219845 -0.1333179 0.85286784
0.3266302 -0.13146393 0.85351455
0.33115897 -0.12942676 0.85427493
0.33571771 -0.1276992 0.85485762
0.34025395 -0.12583387 0.85552019
0.34502101 -0.12386288 0.85622257
0.34939641 -0.12192582 0.85693961
0.35413629 -0.1202812 0.85745978
0.3571313 -0.11918587 0.85809952
0.3084023 -0.13390622 0.85429591
0.3107838 -0.13302259 0.85400295
0.31530023 -0.13114324 0.85467517
0.31972811 -0.12933801 0.85531312
0.32457015 -0.12738331 0.85599983
0.32903636 -0.12541531 0.85672647
0.33362412 -0.12367924 0.85731149
0.33834982 -0.12194449 0.85788387
0.34283236 -0.11993723 0.85863137
0.34754694 -0.11814882 0.85923499
0.3523019 -0.11639291 0.85981679
0.35515049 -0.11526421 0.8604728
0.30677843 -0.13062443 0.85637981
0.30883428 -0.12903646 0.85642523
0.3134616 -0.12732083 0.85699528
0.31785387 -0.12526192 0.8577798
0.3227683 -0.12357563 0.85830843
0.32728589 -0.12149884 0.85909218
0.33194029 -0.11983874 0.8596285
0.33636111 -0.11794607 0.86031651
0.34101999 -0.1160829 0.86096728
0.34554961 -0.11428447 0.86159259
0.35036471 -0.11237347 0.86225688
0.35341972 -0.11144257 0.86276948
0.30439278 -0.12571537 0.85919172
0.30721894 -0.12520102 0.85873348
0.31167468 -0.12335174 0.85939389
0.31601173 -0.12140335 0.86012065
0.32083407 -0.11960813 0.86071885
0.32538229 -0.11774707 0.86137801
0.32980457 -0.11583568 0.86207646
0.3345013 -0.11410259 0.86265039
0.33892792 -0.11206226 0.86342138
0.34376505 -0.1101142 0.86410475
0.34806132 -0.10846034 0.86466849
0.35116592 -0.10724135 0.86542135
0.30267024 -0.12221766 0.86135507
0.30519289 -0.12125096 0.86114198
0.30950069 -0.11937241 0.86183178
0.31431264 -0.11760996 0.86241233
0.31900352 -0.11565384 0.86311287
0.32360381 -0.11368659 0.86382753
0.32803896 -0.11178449 0.86451966
0.33267486 -0.1100893 0.86507744
0.33714271 -0.10809535 0.86581862
0.34182915 -0.10638353 0.86638141
0.34655401 -0.1044184 0.86708415
0.34953552 -0.10363938 0.86753011
0.30075788 -0.11826137 0.86354899
0.30319297 -0.11723797 0.8635838
0.30763504 -0.11536551 0.86425853
0.31235033 -0.11355284 0.86487585
0.31686914 -0.11157916 0.86560124
0.32158941 -0.10988909 0.86614883
0.32605901 -0.10783543 0.86692363
0.33083004 -0.1060722 0.86750817
0.33530751 -0.10432567 0.86810863
0.33975333 -0.10231614 0.8688606
0.34453195 -0.10065676 0.86938578
0.34733343 -0.099149704 0.87035358
0.29882795 -0.11440127 0.86614001
0.30095676 -0.11325495 0.86602914
0.30585968 -0.11151947 0.86658657
0.31029886 -0.10955693 0.86731249
0.31490272 -0.10763146 0.86800325
0.31951955 -0.1059698 0.86854368
0.32415631 -0.10408257 0.86920995
0.32869849 -0.10218459 0.86989051
0.33339599 -0.10013968 0.8706407
0.3379322 -0.098305613 0.87128556
0.34233853 -0.096506894 0.87192172
0.3456043 -0.095704257 0.87232834
0.29703736 -0.11074631 0.86833483
0.29925686 -0.1092785 0.86842436
0.30402914 -0.10737358 0.86908895
0.30841875 -0.10560633 0.86970872
0.31292462 -0.10385972 0.87030679
0.31754801 -0.10192415 0.87100154
0.32215053 -0.10030796 0.87151754
0.32680359 -0.098323673 0.87223727
0.33134133 -0.096337408 0.87296808
0.33601588 -0.094432846 0.87364089
0.34050766 -0.092738166 0.87421083
0.34362713 -0.091840297 0.8747195
0.29518431 -0.10689771 0.87041801
0.29756734 -0.10535048 0.87079132
0.3018418 -0.10375333 0.8713249
0.30636135 -0.10191299 0.87197477
0.31089136 -0.10003069 0.87264752
0.31560639 -0.09808901 0.87333781
0.32028946 -0.096242473 0.87397707
0.32476503 -0.09433794 0.87466705
0.32929972 -0.092517227 0.87530452
0.33400401 -0.090583295 0.87599134
0.33873889 -0.088706195 0.87664342
0.34156078 -0.087391779 0.87751991
0.29328197 -0.10310224 0.87299877
0.29528126 -0.10133933 0.87326908
0.30000409 -0.099856466 0.87368709
0.30460721 -0.097706154 0.87450498
0.30926931 -0.095959067 0.87508982
0.31394628 -0.094098836 0.87573737
0.31833133 -0.092148557 0.87646103
0.32292944 -0.090542406 0.87697172
0.32757387 -0.088610217 0.87766272
0.33217606 -0.086759061 0.87831157
0.33662689 -0.084818706 0.87905467
0.33972892 -0.083874062 0.87949693
0.29391423 -0.099968791 0.87466228
0.29924685 -0.097890809 0.87555075
0.30355901 -0.09609817 0.87608451
0.30824032 -0.094186947 0.87672138
0.31286508 -0.092423379 0.87755543
0.31715229 -0.090605363 0.8780272
0.32192838 -0.088638544 0.87864918
0.3263047 -0.086935088 0.87938142
0.3313081 -0.084958509 0.88017088
0.33527213 -0.083254471 0.88056922
0.33837545 -0.081791222 0.88066846
0.35135633 -0.22245255 0.80411589
0.35457441 -0.22336727 0.80305791
0.35915768 -0.2216374 0.80391389
0.36374342 -0.21970518 0.80443895
0.36837691 -0.21787055 0.80516315
0.37296921 -0.21583545 0.80552429
0.37763193 -0.21401322 0.80629247
0.38237607 -0.21225293 0.80722839
0.38661718 -0.21044725 0.80768329
0.39134228 -0.20864365 0.80853254
0.39602631 -0.20667145 0.80907118
0.39822698 -0.20347807 0.81062019
0.34944817 -0.21850798 0.80631375
0.396189 -0.19931832 0.81325662
0.34745827 -0.21446475 0.80880553
0.39435703 -0.19554707 0.81541145
0.34553045 -0.21053809 0.81119239
0.39244488 -0.19170865 0.81793892
0.34356347 -0.20649582 0.8135258
0.39050665 -0.18769076 0.82013959
0.34173417 -0.20287731 0.81609637
0.3884849 -0.1836192 0.82277495
0.33963916 -0.19858319 0.81861365
0.38655809 -0.17963606 0.82499385
0.33784425 -0.19489607 0.82074714
0.38476267 -0.17605078 0.82742059
0.33585322 -0.19075455 0.82296759
0.38275206 -0.17197862 0.82997566
0.33387777 -0.18676502 0.8255105
0.38089353 -0.1682124 0.8323316
0.3319619 -0.18298532 0.8282311
0.37891781 -0.16417572 0.83474225
0.33011451 -0.17917693 0.83038884
0.37686712 -0.15998149 0.83723217
0.32812157 -0.17511654 0.83285338
0.37504071 -0.15623729 0.83942491
0.32620871 -0.1712362 0.83526671
0.37312278 -0.1522831 0.84166408
0.32424533 -0.16719179 0.83756882
0.37117782 -0.14829543 0.84399796
0.32228485 -0.16315806 0.83988088
0.36928493 -0.14445388 0.84638125
0.32036248 -0.15929145 0.84240007
0.36728755 -0.14040431 0.84890765
0.31841013 -0.1553126 0.84481096
0.3653619 -0.13649997 0.85134268
0.31652528 -0.15153202 0.8473112
0.36336651 -0.13240883 0.85373676
0.31460804 -0.1475772 0.84954363
0.36141822 -0.1284598 0.85620397
0.31262159 -0.1434937 0.85189652
0.35953707 -0.12469965 0.8587361
0.31072986 -0.13973989 0.85452121
0.35760435 -0.1206854 0.86090839
0.30875745 -0.13564754 0.85675037
0.35562807 -0.11661386 0.86322415
0.30688587 -0.13188803 0.85921741
0.3537142 -0.11279608 0.86582243
0.30501723 -0.12805682 0.86145937
0.35177281 -0.10882933 0.86819071
0.30296847 -0.12388022 0.8639859
0.34980115 -0.1047502 0.87045211
0.30101818 -0.11983842 0.86620337
0.34789667 -0.10098265 0.87312752
0.299072 -0.1158386 0.8685112
0.3459959 -0.097053498 0.87531698
0.2972247 -0.1121553 0.87102395
0.34406605 -0.093123123 0.87770772
0.29531395 -0.10821353 0.87324786
0.34210411 -0.089185119 0.88030195
0.29331952 -0.10423557 0.87595731
0.29778242 -0.099119499 0.87638932
0.31481108 -0.093796447 0.88138604
0.31953114 -0.091702446 0.8817535
0.32731551 -0.087453678 0.881051
0.3304432 -0.085760787 0.88079214
0.33577034 -0.085298941 0.8843351
0.34007099 -0.084918946 0.88246375
0.29460621 -0.10118818 0.87722731
0.29931352 -0.099525303 0.87829369
0.30410284 -0.097521693 0.87886572
0.30853376 -0.095621064 0.8793177
0.31274676 -0.09398143 0.88002306
0.31738141 -0.092063591 0.88061136
0.32207912 -0.090304181 0.88151121
0.32681695 -0.088246971 0.88195342
0.33138028 -0.086549535 0.88284665
0.33622709 -0.08437179 0.88317871
0.33883801 -0.083407834 0.88370168
0.35170877 -0.22479175 0.80828941
0.35507289 -0.22565743 0.80722821
0.35957357 -0.22402273 0.80817407
0.36417806 -0.22215275 0.80881667
0.36876443 -0.22020788 0.80932146
0.37348124 -0.2184099 0.81017327
0.37821901 -0.21645877 0.81079
0.38257027 -0.21468055 0.81137908
0.38732097 -0.21279719 0.81211776
0.39175487 -0.21114725 0.81298459
0.39638552 -0.20912972 0.81340557
0.39859125 -0.20592548 0.81491417
0.34979054 -0.22094676 0.81084108
0.39664686 -0.2018365 0.81719768
0.34784231 -0.21686266 0.81292373
0.39475074 -0.19804707 0.81975198
0.34584308 -0.21291375 0.81574941
0.39277133 -0.19398254 0.82210934
0.3439213 -0.20897204 0.81805092
0.39081743 -0.18997489 0.82444924
0.34205785 -0.20524694 0.82055855
0.38900149 -0.18636337 0.82694584
0.34012234 -0.20126137 0.82283181
0.38702026 -0.1822561 0.82919449
0.33814251 -0.19721711 0.82524991
0.38509458 -0.17839232 0.83174515
0.33622774 -0.19324294 0.82740998
0.38320589 -0.17460757 0.8342604
0.33438748 -0.18950254 0.82971102
0.38123655 -0.17054218 0.83654475
0.332486 -0.18576798 0.83245879
0.37935314 -0.16675532 0.83901685
0.33045432 -0.18155394 0.83475876
0.37735224 -0.16262797 0.8413468
0.32849321 -0.177558 0.83718264
0.37537938 -0.15862872 0.84384364
0.32664302 -0.17376038 0.83939075
0.37349895 -0.15475827 0.8460573
0.32462159 -0.16966486 0.84195554
0.37155244 -0.15085122 0.84863126
0.32270861 -0.16574314 0.84425199
0.3695876 -0.14681834 0.85097629
0.32073438 -0.16167593 0.84656554
0.36765465 -0.14287272 0.85334539
0.31887323 -0.15792304 0.84897774
0.36572817 -0.13889411 0.85557508
0.31697178 -0.15413821 0.85158271
0.36376858 -0.13499308 0.85825813
0.31496763 -0.14999396 0.85388744
0.36182943 -0.1309779 0.8604731
0.31312463 -0.14620203 0.8560611
0.35980809 -0.12681702 0.86285126
0.31112576 -0.14222293 0.85879827
0.35795572 -0.12311833 0.86535585
0.30917498 -0.13817179 0.86099255
0.35602978 -0.1191996 0.86775219
0.30726546 -0.1343638 0.86358833
0.35413575 -0.11539812 0.8702575
0.30530983 -0.13034432 0.86590654
0.35212022 -0.11121275 0.87252527
0.30342218 -0.12650606 0.86826247
0.35018092 -0.1072363 0.87485129
0.30144626 -0.12249032 0.87073427
0.34830606 -0.1034001 0.877123
0.29946011 -0.11839364 0.87304765
0.34634095 -0.099470675 0.87976414
0.297472 -0.1143373 0.87548953
0.34443629 -0.095597014 0.88213891
0.29561907 -0.1106368 0.87799311
0.34242755 -0.091488197 0.88457668
0.2936278 -0.10649297 0.88020843
0.31654221 -0.0951294 0.88497722
0.32368705 -0.09235394 0.88618207
0.32703486 -0.09110257 0.88682735
0.33149379 -0.087982669 0.88529611
0.33603492 -0.086114764 0.88589096
0.34052014 -0.087570429 0.88684541
0.29534805 -0.10360704 0.88180584
0.29996195 -0.10177369 0.88251638
0.30436158 -0.099908769 0.8830018
0.30869445 -0.098287925 0.8838349
0.31342199 -0.096326187 0.884426
0.31821793 -0.094275787 0.88492638
0.32245013 -0.092567548 0.88553441
0.32716542 -0.090627462 0.88615119
0.3318162 -0.088917837 0.88709497
0.33634704 -0.087210134 0.88794512
0.33905834 -0.085739553 0.8877157
0.35212871 -0.22740977 0.8127811
0.35555893 -0.22818886 0.8117854
0.35983032 -0.22650848 0.81247091
0.36459169 -0.2245574 0.81310678
0.36911386 -0.22274874 0.81378382
0.37363231 -0.22097357 0.81451291
0.37828967 -0.21919076 0.81534165
0.3828297 -0.21730715 0.81590974
0.38747269 -0.21537536 0.81648183
0.3919982 -0.21348314 0.81702405
0.39674443 -0.21156521 0.81770223
0.39895555 -0.20832346 0.8191849
0.35018656 -0.22344078 0.81514853
0.39699304 -0.20419671 0.82147479
0.34820598 -0.21931547 0.81734127
0.39503741 -0.20028491 0.82409948
0.34631902 -0.21557868 0.8199808
0.39315164 -0.19641206 0.82634372
0.34438854 -0.21164963 0.82237947
0.39123017 -0.19247602 0.82865924
0.34240019 -0.20760868 0.82486707
0.38929406 -0.18854508 0.83109218
0.34043935 -0.20356816 0.82716238
0.38732225 -0.18454516 0.83358008
0.3385748 -0.19985013 0.82969767
0.3854039 -0.18061183 0.83588141
0.33659554 -0.1957348 0.83190954
0.38345504 -0.17661217 0.83820862
0.33472905 -0.19192141 0.83418751
0.38155136 -0.17272985 0.84055173
0.33276343 -0.18800646 0.83687335
0.37966654 -0.16895217 0.84306002
0.33079708 -0.1839242 0.83908862
0.37766939 -0.16488731 0.84554118
0.32890743 -0.18008676 0.84146076
0.37578675 -0.16109596 0.84799516
0.32694015 -0.17609403 0.84393728
0.37380758 -0.15706041 0.85043335
0.32506618 -0.17224328 0.84616148
0.37195575 -0.15336752 0.85295069
0.3230063 -0.16800573 0.84859264
0.37001947 -0.14935802 0.85516143
0.32105494 -0.1641207 0.85126328
0.36805093 -0.14534894 0.85760021
0.31922558 -0.16040476 0.85355717
0.36606845 -0.14130816 0.86004686
0.31721357 -0.15625648 0.85590583
0.36416423 -0.13743767 0.86242765
0.31535923 -0.15244061 0.85809112
0.36220437 -0.13344149 0.86484194
0.31337965 -0.14850499 0.8608163
0.36033767 -0.12963536 0.86714196
0.3114962 -0.14459917 0.86295068
0.35838664 -0.12564734 0.86951756
0.30960333 -0.1407795 0.86539596
0.35645455 -0.12180562 0.87217593
0.30759826 -0.13666359 0.86778784
0.35445613 -0.11766258 0.87444377
0.30565768 -0.13274908 0.87029874
0.35259184 -0.11381696 0.87661451
0.3036837 -0.12871182 0.87269562
0.35063556 -0.10989669 0.87921959
0.30178499 -0.12484457 0.87504697
0.34872076 -0.10602434 0.88166946
0.29982412 -0.12078799 0.87729669
0.34675455 -0.10198356 0.88400155
0.29789692 -0.11689267 0.87976837
0.34483755 -0.098098159 0.88642973
0.29594454 -0.11296979 0.88233858
0.34288171 -0.094114766 0.8888523
0.29401284 -0.10906734 0.88482147
0.31592813 -0.097470433 0.88833266
0.31805924 -0.096834525 0.88900775
0.33285871 -0.091362312 0.89195859
0.33829591 -0.089603022 0.89345586
0.34096491 -0.090186507 0.89112014
0.29548314 -0.10614398 0.88608867
0.29974067 -0.10438152 0.88662791
0.30458009 -0.10244378 0.88734889
0.3091374 -0.10069412 0.88815123
0.31364909 -0.098920971 0.88887823
0.3184523 -0.096679211 0.88906968
0.3230595 -0.094991103 0.89001369
0.32754251 -0.09317258 0.89064288
0.33195561 -0.091397718 0.89128745
0.33662775 -0.089462459 0.89187729
0.33939895 -0.088327751 0.89224875
0.35245496 -0.22981589 0.81732899
0.35569715 -0.23075365 0.81611651
0.36040607 -0.2288439 0.81677806
0.36503536 -0.22700498 0.81749183
0.36968359 -0.22517513 0.81823581
0.37409458 -0.22336583 0.81882197
0.37881017 -0.22152381 0.81960028
0.38334659 -0.21966371 0.8202042
0.3879551 -0.21779397 0.82085043
0.39260915 -0.21596895 0.82160705
0.39718294 -0.21399195 0.82204884
0.39942425 -0.21122171 0.82347691
0.35050753 -0.22577782 0.8195371
0.39744455 -0.20689496 0.82597268
0.34864792 -0.22194088 0.8216995
0.39548746 -0.20295572 0.82852954
0.34668437 -0.21798396 0.82425153
0.39353126 -0.19888537 0.83070725
0.34476563 -0.2140912 0.82667094
0.39157653 -0.19493781 0.83322388
0.34283948 -0.21016939 0.82905978
0.38965574 -0.1909858 0.83548933
0.3408643 -0.20617181 0.83157802
0.38763726 -0.18687233 0.83798218
0.33894697 -0.20225917 0.83393091
0.38574538 -0.18299359 0.84025276
0.33697188 -0.19821805 0.83632469
0.38389182 -0.17931837 0.84283257
0.33508268 -0.1944018 0.83875406
0.38194817 -0.17529678 0.84506071
0.33320627 -0.19057889 0.84107459
0.37992489 -0.17115787 0.84751511
0.33124128 -0.18644255 0.84312648
0.37800601 -0.16729529 0.85002148
0.32922521 -0.18236233 0.84569705
0.37612677 -0.16348714 0.8524037
0.32735601 -0.17864326 0.84826207
0.37420452 -0.15958947 0.85483378
0.32537141 -0.17457831 0.85065496
0.37224251 -0.1555444 0.85712439
0.32343155 -0.17059174 0.85295594
0.37034595 -0.15168899 0.85949409
0.32146135 -0.16650257 0.85517883
0.36841187 -0.14774472 0.86187494
0.31952599 -0.162662 0.85786349
0.36651233 -0.14388752 0.86426049
0.3175931 -0.158712 0.86021954
0.36452225 -0.13987289 0.86683488
0.31558931 -0.15452981 0.86241382
0.36261261 -0.13594648 0.86909461
0.3137314 -0.15085578 0.86502749
0.36063275 -0.13194877 0.87164533
0.31185693 -0.14705354 0.86739331
0.35868442 -0.12794672 0.8739621
0.30988058 -0.14301035 0.8697899
0.35685888 -0.12423015 0.87622732
0.30791453 -0.13900013 0.87220806
0.35488999 -0.12030704 0.87891293
0.30603722 -0.13519579 0.87458754
0.35295835 -0.11635539 0.88125551
0.30412057 -0.13122463 0.87676924
0.35094813 -0.11220616 0.88358891
0.30215788 -0.12727126 0.87932527
0.34913084 -0.10861124 0.8861419
0.30022678 -0.12337105 0.88181055
0.3471925 -0.10456799 0.88827121
0.29829323 -0.11938442 0.88406706
0.34523055 -0.10050569 0.89051235
0.29636982 -0.11550674 0.88656229
0.34338483 -0.096836582 0.89305443
0.29443282 -0.11155236 0.88893479
0.30691591 -0.10486838 0.8932243
0.31119689 -0.10206614 0.8920719
0.31399134 -0.10159923 0.89356083
0.32755154 -0.096160039 0.89556503
0.33245498 -0.093324512 0.89486063
0.33782253 -0.091445953 0.89610541
0.34126359 -0.092569247 0.89557546
0.29601762 -0.10856053 0.89049596
0.30038619 -0.10678659 0.89110601
0.30484718 -0.10489532 0.89159775
0.30941343 -0.10319978 0.89249641
0.31397557 -0.10125078 0.89297479
0.31874353 -0.099231303 0.89350355
0.32332957 -0.097510755 0.89437717
0.32796252 -0.095668882 0.89508891
0.33262908 -0.093723312 0.8956573
0.33693665 -0.092034444 0.89635813
0.33983311 -0.090812057 0.89668655
0.35282913 -0.23220611 0.82149494
0.3560819 -0.23322265 0.82048923
0.36086336 -0.23127031 0.82113928
0.36532116 -0.22951628 0.82185417
0.36988208 -0.22771835 0.82258016
0.37434676 -0.22585917 0.82312757
0.37913868 -0.22380409 0.82361704
0.38378263 -0.22209652 0.82455873
0.38823044 -0.22029856 0.82519329
0.39305142 -0.21847783 0.82609183
0.39745229 -0.21670157 0.82672411
0.39988938 -0.21392879 0.82756877
0.35092968 -0.22829317 0.82372141
0.39784074 -0.20942523 0.83038175
0.34900084 -0.22432701 0.82600302
0.39583555 -0.20536928 0.83294505
0.34704682 -0.22040875 0.82859796
0.39393786 -0.20143537 0.83509952
0.34511569 -0.21647038 0.83097476
0.39194095 -0.19741663 0.83771026
0.34315053 -0.21252745 0.83357793
0.39001846 -0.1935129 0.84012467
0.34126315 -0.20866513 0.83586341
0.38808984 -0.1895307 0.84235942
0.33937865 -0.2047551 0.83799297
0.38617033 -0.18555896 0.84455961
0.33734134 -0.20065278 0.84065014
0.38430423 -0.18189314 0.8472544
0.33541173 -0.19673713 0.84308088
0.38229865 -0.17766109 0.84931952
0.33351192 -0.19288987 0.84549665
0.3803525 -0.17371204 0.85177159
0.33156219 -0.1887956 0.84756088
0.37846768 -0.16991569 0.85422647
0.32961345 -0.18485579 0.85005748
0.37648049 -0.16587299 0.85670084
0.32769755 -0.18096071 0.85245037
0.37457189 -0.16200125 0.85910887
0.3257983 -0.17704055 0.85465491
0.37266597 -0.1581444 0.8615402
0.32381821 -0.17306536 0.85727113
0.37070075 -0.15411669 0.86390257
0.32191554 -0.16914499 0.85949922
0.36875987 -0.15023999 0.86652333
0.31990731 -0.16507961 0.86205685
0.36679664 -0.14617768 0.8687734
0.31797346 -0.16108862 0.86430317
0.36487603 -0.14224514 0.87109292
0.31603527 -0.15721576 0.86691576
0.36291957 -0.13827252 0.87355047
0.31415883 -0.15340644 0.86927515
0.36097461 -0.13432553 0.87599993
0.31223765 -0.14951476 0.87171495
0.35903555 -0.13036186 0.87836063
0.31039515 -0.14570697 0.87383986
0.35713956 -0.12648541 0.88066649
0.30832696 -0.14154346 0.87654001
0.35521045 -0.1226132 0.88321722
0.30640027 -0.13761815 0.87892288
0.35321164 -0.11848049 0.88551724
0.30445206 -0.13366687 0.881383
0.3513777 -0.11478603 0.88790435
0.30252555 -0.12973887 0.883757
0.34939113 -0.11077423 0.8904621
0.30055967 -0.12567985 0.88603491
0.34748822 -0.10689488 0.89280844
0.29865921 -0.12182761 0.88844115
0.34550741 -0.1027437 0.89492947
0.296758 -0.11796635 0.890827
0.34365693 -0.099015534 0.89733702
0.29483485 -0.11404294 0.89319009
0.29892257 -0.11111106 0.89703834
0.30513889 -0.10709402 0.89545053
0.30998191 -0.10418876 0.89458257
0.3329761 -0.097019717 0.90136075
0.3362692 -0.095230788 0.90107751
0.34168455 -0.095033556 0.89987975
0.29617134 -0.11111504 0.89482272
0.30090585 -0.10922353 0.89553493
0.30543035 -0.10747968 0.8963204
0.31001198 -0.1056212 0.89696348
0.31442687 -0.10366553 0.89731199
0.3190127 -0.1018206 0.89798081
0.32368362 -0.099985972 0.89873523
0.32833558 -0.098081872 0.89936
0.33308887 -0.096047834 0.89985299
0.33767104 -0.094310045 0.90069509
0.34015274 -0.093155459 0.90079999
0.35327604 -0.23471607 0.82548976
0.35657731 -0.23565112 0.82488453
0.36117819 -0.23383486 0.82561266
0.36576092 -0.23181213 0.82598639
0.3703976 -0.23003685 0.82681084
0.3750008 -0.22821611 0.82753336
0.37944984 -0.22632644 0.82801807
0.38412493 -0.22451164 0.82880849
0.38876635 -0.22255118 0.82933205
0.39308426 -0.22092019 0.83013642
0.3977724 -0.21903563 0.83082259
0.40023431 -0.21629825 0.8318724
0.35130945 -0.23081072 0.8282097
0.39812598 -0.21170238 0.83485126
0.3494013 -0.22685617 0.83037919
0.39617136 -0.20765734 0.83708996
0.34741166 -0.2228478 0.83296818
0.39427799 -0.2038413 0.8395493
0.34546956 -0.21883942 0.83522314
0.39240748 -0.20007376 0.8419857
0.34355322 -0.21495518 0.83764982
0.39043045 -0.19596285 0.84419459
0.34159788 -0.21100526 0.84016395
0.38841885 -0.19189501 0.84676898
0.33961213 -0.20690404 0.84246188
0.38645783 -0.18781438 0.84895128
0.33772838 -0.20304751 0.84473819
0.38467923 -0.18434757 0.85159689
0.33586204 -0.19929729 0.84719467
0.38277909 -0.18044321 0.85385257
0.33391601 -0.19529608 0.84949756
0.38079226 -0.1763822 0.85627216
0.33189443 -0.19119544 0.85204893
0.37874663 -0.17214458 0.85860306
0.33004594 -0.18745613 0.85441065
0.37687808 -0.16847241 0.86129683
0.32807288 -0.18339194 0.85672468
0.37495461 -0.16446537 0.8634246
0.32611871 -0.17942682 0.8591873
0.37298501 -0.16046683 0.8659007
0.32415625 -0.17538753 0.86149746
0.37110394 -0.15666853 0.86832398
0.32224083 -0.17145485 0.86377996
0.36918509 -0.15272754 0.87060708
0.32027256 -0.16758415 0.86661041
0.36720091 -0.14872569 0.87317628
0.31842211 -0.1637412 0.86869138
0.3653073 -0.14483532 0.87542588
0.31649646 -0.15989394 0.87128872
0.36333963 -0.14082018 0.87784129
0.31450167 -0.15587378 0.87388045
0.36135584 -0.13680881 0.88038081
0.31264323 -0.15200707 0.8759501
0.35953131 -0.13301729 0.88242573
0.31061852 -0.14789414 0.87848836
0.35756913 -0.12910175 0.88508588
0.30864155 -0.14387053 0.88094515
0.35565418 -0.12517148 0.8873719
0.30673942 -0.14002386 0.88337898
0.35368818 -0.12109829 0.88961047
0.30482504 -0.13607895 0.88561934
0.35172677 -0.11713614 0.89213264
0.30290848 -0.13218777 0.88802803
0.34978676 -0.11324587 0.89470863
0.30099806 -0.1283249 0.89047396
0.34782338 -0.10923444 0.89710444
0.29904878 -0.12428302 0.89268404
0.34594086 -0.10536142 0.89932531
0.29706153 -0.12025236 0.89519286
0.3439714 -0.10134628 0.90175337
0.29514024 -0.11640784 0.89776754
0.29604676 -0.11413528 0.89969087
0.3005155 -0.11178924 0.89944065
0.33296201 -0.099821717 0.90595913
0.33731103 -0.09594737 0.90309787
0.34208587 -0.097566321 0.9042601
0.29659832 -0.1134178 0.898956
0.30124497 -0.11160022 0.89971888
0.30551636 -0.10988086 0.90034026
0.31016257 -0.10804306 0.90106946
0.3148554 -0.10618861 0.9018091
0.31940424 -0.10433967 0.90244138
0.32410079 -0.10243136 0.9030953
0.32853284 -0.10055092 0.90358144
0.33331099 -0.098675907 0.90435606
0.33795235 -0.09692131 0.90521836
0.34055835 -0.095813841 0.90550101
0.35359114 -0.23709431 0.83003682
0.35638097 -0.23758261 0.83171517
0.36089495 -0.23575808 0.83238572
0.36557242 -0.23392929 0.83287346
0.37001911 -0.2320247 0.83346498
0.37485936 -0.23016931 0.83402556
0.37946048 -0.2283289 0.83461374
0.38392293 -0.22657634 0.83519047
0.38853699 -0.22477725 0.83543271
0.39327395 -0.22291532 0.83610207
0.3978267 -0.22098875 0.83671618
0.40050802 -0.21918646 0.83690995
0.35162821 -0.2331576 0.8326419
0.35427475 -0.2334042 0.8349601
0.35873544 -0.2316533 0.83556455
0.3633579 -0.22982064 0.83620119
0.36793849 -0.2278747 0.83690554
0.37256822 -0.22611752 0.83749884
0.3770766 -0.2241458 0.83822399
0.38185844 -0.22226018 0.83887678
0.3862589 -0.22032307 0.83959168
0.39090246 -0.21855012 0.84019279
0.39565146 -0.21662754 0.84086931
0.39844021 -0.21468493 0.83976555
0.34973627 -0.22924173 0.83480728
0.35239673 -0.22948982 0.83733571
0.35683462 -0.22758552 0.83802879
0.36128506 -0.22584295 0.83862936
0.3660402 -0.22398673 0.83926785
0.37054181 -0.22226697 0.83985114
0.37521186 -0.2201786 0.84062827
0.37983453 -0.21839379 0.84123784
0.38433683 -0.2162607 0.84205472
0.38901636 -0.21465643 0.84255731
0.39368641 -0.21271931 0.8432489
0.39649057 -0.21069659 0.84226435
0.34784117 -0.2253681 0.83711481
0.35032004 -0.22541401 0.83981967
0.35463497 -0.22389282 0.84030682
0.3593418 -0.22184506 0.84105778
0.36405331 -0.21997461 0.84170812
0.36878994 -0.21812105 0.84234667
0.37325794 -0.21624421 0.84302169
0.37808421 -0.2145693 0.84355152
0.38243672 -0.21256714 0.84430736
0.38709483 -0.21071889 0.84494972
0.39164367 -0.20884985 0.8456133
0.39452416 -0.20688292 0.8448016
0.3458029 -0.22122493 0.83966261
0.34812874 -0.22166093 0.84213108
0.35280308 -0.21998662 0.84267372
0.35748616 -0.2178943 0.84345198
0.36211929 -0.21603556 0.84410244
0.36673141 -0.21417007 0.84475851
0.37137848 -0.21231776 0.84540415
0.37604126 -0.21068902 0.84592205
0.380678 -0.20877315 0.84660453
0.38517687 -0.20667315 0.84740299
0.38962495 -0.20483579 0.84805739
0.39264247 -0.20309514 0.84719467
0.34391254 -0.21737826 0.8420136
0.34628022 -0.21785 0.84444559
0.35089764 -0.21599209 0.84509695
0.35544395 -0.21407187 0.84578967
0.35994869 -0.21214297 0.84649092
0.36473629 -0.21021037 0.84716982
0.36947259 -0.20849483 0.8477304
0.37417793 -0.20643787 0.84848672
0.37874958 -0.20463872 0.84910882
0.38317266 -0.20257139 0.84989542
0.38779902 -0.20097774 0.85039657
0.39068863 -0.1990542 0.84968799
0.34193996 -0.21330719 0.84430438
0.34434104 -0.21376987 0.84692013
0.34911466 -0.21207242 0.8474673
0.35359141 -0.21012388 0.84818208
0.35818401 -0.20816539 0.84889245
0.36302531 -0.20618373 0.84959441
0.3675428 -0.20449156 0.85016072
0.37220639 -0.20259167 0.85083181
0.37668425 -0.20069849 0.85151517
0.38131335 -0.19867885 0.85225695
0.38565627 -0.1970427 0.85280669
0.38867554 -0.19498706 0.85202193
0.34007981 -0.20957762 0.84677601
0.34240267 -0.20980625 0.84932876
0.34721336 -0.2081141 0.84986967
0.35170257 -0.20614441 0.85059536
0.35624599 -0.20433746 0.8512243
0.36101988 -0.20242329 0.8518939
0.36565086 -0.20051415 0.8525731
0.3702623 -0.19866082 0.85322237
0.37489471 -0.19688261 0.85382736
0.3793754 -0.19486746 0.85457945
0.38398033 -0.19315992 0.85514688
0.38681391 -0.19110349 0.85427755
0.33807015 -0.20537592 0.84895599
0.34045213 -0.20601171 0.85164279
0.34519532 -0.20415454 0.85228288
0.34967798 -0.2021776 0.85301322
0.35449001 -0.20018899 0.85372162
0.35894412 -0.19832686 0.85438949
0.36359221 -0.19670372 0.85490549
0.36835903 -0.19444326 0.85577154
0.37290415 -0.19289222 0.85625565
0.37745392 -0.19093475 0.85696912
0.38201836 -0.18909827 0.85761297
0.38485372 -0.18707365 0.85672355
0.3361603 -0.20150197 0.8513664
0.33868456 -0.20202097 0.85405201
0.34323153 -0.20006795 0.85476321
0.3480117 -0.19842848 0.855277
0.35241219 -0.19625396 0.85612613
0.35700396 -0.19445077 0.85674876
0.36192086 -0.19261414 0.85736221
0.36646298 -0.19070081 0.85805142
0.3708168 -0.18887688 0.85870636
0.37536535 -0.18711144 0.8593114
0.38012916 -0.18518813 0.85998708
0.38295496 -0.18338519 0.85923761
0.33429283 -0.19777811 0.85390586
0.3367008 -0.19804798 0.85646981
0.34142092 -0.19616242 0.8571279
0.34602258 -0.19442648 0.85771167
0.35055909 -0.19237168 0.85848135
0.3551178 -0.19062093 0.85907722
0.35977352 -0.18852404 0.85986042
0.36448461 -0.18670008 0.86048448
0.36900958 -0.18496804 0.86107266
0.37350374 -0.18326002 0.86164993
0.37822214 -0.18135168 0.86232108
0.38095468 -0.17912346 0.86143774
0.33235791 -0.19386096 0.85636967
0.33494022 -0.19408411 0.85886317
0.33938566 -0.19209512 0.85960352
0.34403756 -0.1903556 0.86018497
0.34861866 -0.1883357 0.86093104
0.35322997 -0.18651047 0.86156446
0.35774443 -0.18470369 0.86219585
0.36228335 -0.18295333 0.86279321
0.36688483 -0.18102187 0.86348748
0.37147221 -0.17918752 0.86412811
0.37606823 -0.17720236 0.86485326
0.37916532 -0.17553194 0.86379302
0.33039525 -0.18988258 0.85885435
0.33298627 -0.19009233 0.86128908
0.33763477 -0.18833408 0.86188138
0.34208137 -0.18647978 0.86254549
0.34666961 -0.18463302 0.86319304
0.35137087 -0.18259761 0.86393756
0.3560234 -0.18074431 0.86458325
0.36039928 -0.17910385 0.86513257
0.36510244 -0.17701814 0.86590528
0.3695299 -0.17537856 0.86644965
0.37428257 -0.17353253 0.8670826
0.37706912 -0.17126077 0.8662467
0.32842496 -0.18582301 0.86116177
0.33103353 -0.1859314 0.86381048
0.3353678 -0.18447316 0.86426032
0.33995312 -0.18247104 0.86499602
0.34469578 -0.18074346 0.86556286
0.34945735 -0.17875953 0.86627299
0.35394162 -0.17684135 0.86696994
0.35866335 -0.17499995 0.86760294
0.36293146 -0.17325041 0.86822325
0.36779881 -0.1712988 0.86890602
0.37236232 -0.1692837 0.8696509
0.37518895 -0.16742778 0.86884129
0.32647479 -0.18181708 0.86348039
0.32879168 -0.18227398 0.86607218
0.33354926 -0.18036991 0.86673748
0.33806777 -0.17846678 0.867423
0.34275854 -0.17674994 0.86798829
0.34737951 -0.17465618 0.86877269
0.35200867 -0.17282672 0.86940694
0.3565861 -0.17115791 0.86995482
0.36112857 -0.16922623 0.8706544
0.36580041 -0.16722217 0.87138367
0.37045425 -0.16544503 0.87198621
0.37327752 -0.1634542 0.87098825
0.32452968 -0.17786099 0.86590511
0.3271856 -0.17830056 0.86845762
0.33175185 -0.17638834 0.86914408
0.33643153 -0.17455637 0.86977541
0.34093341 -0.17265475 0.87046146
0.34554806 -0.17086557 0.8710742
0.35015714 -0.1690163 0.87172139
0.3545441 -0.16698375 0.87249142
0.35921288 -0.16517031 0.87311321
0.36392331 -0.16343969 0.87368459
0.36847919 -0.16139993 0.87444407
0.37131372 -0.15977438 0.87368578
0.32268101 -0.17418021 0.86843479
0.32534406 -0.17441353 0.8708145
0.32976434 -0.1726099 0.87145221
0.33444864 -0.17056663 0.87220263
0.3390612 -0.16865125 0.8728869
0.34368423 -0.16688472 0.8734861
0.34816629 -0.1650604 0.87413019
0.35280105 -0.16328868 0.8747313
0.35712162 -0.16117086 0.87555528
0.36200202 -0.15939316 0.87613857
0.36656478 -0.15756018 0.87678057
0.36938307 -0.15583393 0.87597126
0.32079792 -0.17031078 0.87066978
0.3231619 -0.17038998 0.87327808
0.32770285 -0.16845305 0.87398076
0.33241856 -0.16670063 0.87456393
0.33718109 -0.16484129 0.87520361
0.34164208 -0.16294701 0.87588906
0.3462998 -0.16111416 0.87652278
0.35078931 -0.1592278 0.87720126
0.35546303 -0.15735286 0.87785739
0.3598938 -0.1555064 0.8785184
0.3646946 -0.15371573 0.87911588
0.36746883 -0.15178469 0.87826455
0.3188197 -0.16622914 0.87297034
0.32127762 -0.16642939 0.87568033
0.32592145 -0.16448928 0.87637585
0.33059278 -0.16256209 0.87706172
0.33509094 -0.16076523 0.87768888
0.33970964 -0.15900916 0.87828255
0.34451741 -0.15723865 0.87886804
0.3489064 -0.15534866 0.87955731
0.35353106 -0.15342239 0.8802467
0.35794854 -0.15145189 0.880979
0.36264777 -0.14972767 0.88154769
0.36547577 -0.14775442 0.88064671
0.31685436 -0.16223288 0.87542313
0.31922057 -0.16223219 0.87823123
0.32404211 -0.16065983 0.87870347
0.32857263 -0.1587323 0.87940174
0.33316126 -0.15689793 0.88004225
0.33773887 -0.15506877 0.8806808
0.3422989 -0.15315564 0.8813684
0.34704149 -0.15133277 0.88198912
0.35157353 -0.14955021 0.88260525
0.35620156 -0.14760448 0.88330531
0.3607249 -0.14587054 0.88389474
0.36347693 -0.14364254 0.88318217
0.31493986 -0.1584006 0.87798476
0.31738883 -0.15846866 0.88051748
0.32184589 -0.15668978 0.88113803
0.32663113 -0.15480739 0.88178873
0.33111462 -0.15298927 0.88242918
0.33578506 -0.15112144 0.88308156
0.34044683 -0.14928962 0.88371432
0.34506983 -0.14749569 0.88432902
0.34945717 -0.14573783 0.88494372
0.35423538 -0.14359084 0.88574463
0.35870159 -0.14185026 0.8863427
0.36161733 -0.13982216 0.88545138
0.31302226 -0.15443647 0.88019317
0.31545994 -0.15459122 0.88287652
0.31992853 -0.15279132 0.88350797
0.32441157 -0.15099213 0.88413775
0.32914805 -0.14906694 0.88481688
0.33407116 -0.14711595 0.88549441
0.33855787 -0.14538866 0.88608325
0.34323916 -0.14349446 0.88674963
0.3477276 -0.14154074 0.88746631
0.35228938 -0.13964508 0.88814378
0.35692817 -0.1379118 0.88872284
0.3596532 -0.13569862 0.88780421
0.31105864 -0.15054911 0.88294339
0.31356898 -0.15050781 0.8853488
0.31811452 -0.1487934 0.88592523
0.32273051 -0.1469487 0.88656926
0.32719368 -0.14512402 0.88721514
0.33186153 -0.14327323 0.88785809
0.3364096 -0.14136457 0.88854414
0.34122339 -0.13942471 0.88922489
0.34555316 -0.13754624 0.88991272
0.35026926 -0.13579306 0.89049637
0.35499141 -0.13398843 0.89110857
0.35773978 -0.13201404 0.89025515
0.30913839 -0.1465304 0.88501549
0.31144929 -0.14669225 0.88768935
0.3159661 -0.14487316 0.88832748
0.32060286 -0.14314792 0.88890213
0.32516357 -0.14135158 0.88952357
0.32993221 -0.13926831 0.89028931
0.3346422 -0.1374045 0.89093602
0.33931988 -0.13551663 0.89159906
0.34387109 -0.13367756 0.89224553
0.34835917 -0.13182095 0.89290732
0.35277054 -0.13020599 0.89343911
0.35580587 -0.12806261 0.89281088
0.30718398 -0.14255154 0.88744062
0.30948761 -0.14276883 0.89007723
0.31421736 -0.14099023 0.89067405
0.31871516 -0.139055 0.89137948
0.32338241 -0.13733265 0.89194989
0.32800266 -0.13525018 0.89272797
0.33266255 -0.13348979 0.8933205
0.33729491 -0.13161114 0.89398229
0.34196129 -0.12980069 0.8946026
0.34664738 -0.12780917 0.89532357
0.35105968 -0.12613857 0.89588678
0.35388499 -0.12385189 0.8948493
0.30526349 -0.13863808 0.8898136
0.30794027 -0.13877377 0.89246982
0.31239438 -0.13705091 0.89305896
0.31704313 -0.13516304 0.89372456
0.3216407 -0.13341844 0.89431351
0.32600906 -0.13149872 0.89502138
0.33076912 -0.12961939 0.8956725
0.33547971 -0.12783143 0.8962763
0.33980519 -0.12588933 0.89700049
0.34439442 -0.12401102 0.8976658
0.34903991 -0.12206516 0.89836448
0.35200059 -0.12023992 0.89744627
0.30331972 -0.13466439 0.89217895
0.30587161 -0.13479879 0.89489609
0.31036696 -0.1331531 0.89543802
0.31495589 -0.13128789 0.89609599
0.31953201 -0.12923552 0.89686084
0.32426557 -0.1275605 0.89739877
0.32877359 -0.12578742 0.89801162
0.33336321 -0.12362195 0.89883929
0.33800653 -0.12203974 0.89933252
0.34253556 -0.12010272 0.90003628
0.34706157 -0.11826959 0.9006815
0.3500075 -0.11617416 0.89970672
0.3013024 -0.13065293 0.89495379
0.3039543 -0.13089736 0.8972677
0.30857709 -0.12924951 0.89779985
0.31313986 -0.1273489 0.89848006
0.31752881 -0.1253933 0.8992064
0.32223082 -0.12355489 0.89983946
0.32677457 -0.12176172 0.9004606
0.33142778 -0.11989239 0.9011153
0.3360582 -0.11805172 0.90175581
0.3407318 -0.1162158 0.90238988
0.34513482 -0.1143492 0.90306467
0.34805846 -0.11227867 0.90235776
0.29934841 -0.12655756 0.89704496
0.30206272 -0.12705098 0.89960599
0.30654529 -0.12525159 0.90023589
0.31106606 -0.12336413 0.90091234
0.31566483 -0.12139099 0.90163046
0.32023054 -0.11959144 0.90225333
0.32495755 -0.11772687 0.90289897
0.32961035 -0.11587143 0.90354586
0.33415562 -0.11398259 0.90422094
0.33881596 -0.1120193 0.90492821
0.34320396 -0.11036888 0.90548205
0.34619188 -0.10835458 0.90451974
0.29746693 -0.12274981 0.89944422
0.30002713 -0.12309185 0.90202045
0.30457151 -0.12131201 0.90263402
0.30901128 -0.11924531 0.90341878
0.31386495 -0.11751002 0.90398037
0.31822136 -0.1156403 0.904661
0.32312724 -0.11374816 0.90530676
0.32763261 -0.11180212 0.90601766
0.33205837 -0.11016034 0.9065634
0.33658579 -0.10802424 0.90737981
0.34118018 -0.10635172 0.90792835
0.3443118 -0.10453781 0.90706897
0.29552764 -0.118881 0.90207618
0.29797947 -0.11903213 0.90432787
0.30255428 -0.11725415 0.90491343
0.30706903 -0.11546087 0.90572637
0.31176054 -0.11371191 0.90630972
0.31671438 -0.11167252 0.90703464
0.32096079 -0.10989191 0.90767437
0.32573986 -0.10813169 0.90825653
0.33027691 -0.10621879 0.90894592
0.33465275 -0.10417481 0.90965009
0.33937961 -0.10236 0.91025591
0.34227365 -0.10032837 0.90926772
0.29703113 -0.11595423 0.90347838
0.30146441 -0.1140399 0.90390974
0.30601823 -0.11230752 0.90473789
0.31088042 -0.11047547 0.90565103
0.31539744 -0.10856353 0.90615392
0.31997925 -0.1067197 0.90682131
0.32466346 -0.10476926 0.90739608
0.32922921 -0.10289189 0.90799522
0.3337695 -0.10106952 0.90866435
0.33831638 -0.099272206 0.90937984
0.34114832 -0.098439857 0.91029775
