# .PCD v0.7 - Point Cloud Data file format
VERSION 0.7
FIELDS x y z
SIZE 4 4 4
TYPE F F F
COUNT 1 1 1
WIDTH 1294
HEIGHT 1
VIEWPOINT 0 0 0 1 0 0 0
POINTS 1294
DATA ascii
0.027334068 0.043547466 0.4180029
0.029482588 0.042432666 0.4190684
0.033002235 0.040469505 0.42203155
0.036534265 0.038550831 0.42498338
0.040065121 0.03674867 0.42805216
0.043598555 0.034864213 0.43103755
0.04708004 0.033003949 0.43402174
0.050734166 0.030879678 0.4370673
0.054274872 0.029144982 0.44015384
0.057725299 0.027135568 0.44305646
0.061113805 0.025292385 0.44590378
0.063297272 0.024074927 0.44801286
0.027862988 0.048134819 0.42036107
0.029971857 0.047267545 0.42167577
0.033459857 0.045261815 0.42459324
0.036904372 0.043296307 0.42748126
0.040462412 0.041437678 0.43054277
0.044021308 0.039409783 0.43352801
0.047476053 0.037304964 0.43636376
0.051056195 0.035532657 0.43948889
0.054604705 0.033698823 0.44255123
0.058061145 0.031612165 0.44539711
0.061547019 0.029763548 0.44838387
0.063560285 0.02821162 0.45038265
0.028126217 0.052158479 0.42266634
0.030305836 0.051508427 0.42397675
0.033746939 0.049726371 0.42694467
0.037269577 0.047698881 0.42989028
0.040872406 0.045620032 0.43290055
0.044336215 0.043735687 0.43584678
0.047753006 0.041858837 0.43874478
0.051381186 0.039894737 0.44183522
0.054880016 0.037897177 0.44476831
0.058355942 0.036073264 0.44775543
0.061951213 0.033920132 0.45072353
0.064006381 0.03286998 0.45288894
0.028579865 0.056599274 0.42501807
0.030593965 0.055786923 0.42624447
0.034091055 0.05414851 0.42933941
0.037543025 0.052184712 0.43223643
0.041233443 0.049832527 0.43521827
0.044757389 0.04821169 0.43835077
0.048151512 0.046225801 0.44117412
0.051772505 0.044196784 0.44422707
0.055238143 0.042254735 0.44714901
0.058677651 0.040574845 0.45016178
0.062331297 0.03837163 0.45317119
0.064413093 0.037047811 0.4553211
0.028911218 0.061247852 0.4276492
0.03100035 0.060173228 0.42869127
0.034648914 0.058383234 0.43188351
0.038134985 0.056416068 0.43481645
0.041522078 0.054449596 0.43764096
0.045046091 0.05261489 0.44067597
0.048469678 0.050594822 0.44351614
0.052063409 0.048530348 0.44652295
0.055463251 0.046842467 0.44948852
0.059133813 0.044755168 0.45256937
0.062827565 0.04272598 0.45570219
0.064829156 0.041695297 0.45768708
0.029275175 0.065124169 0.42973977
0.031469099 0.064573288 0.4312129
0.034923028 0.062657125 0.43413377
0.038403809 0.060864374 0.43714041
0.042012282 0.058985919 0.44024828
0.045369394 0.057028279 0.44304386
0.048878495 0.054860037 0.44591039
0.052512959 0.053073373 0.44908866
0.056050971 0.051042952 0.45204982
0.05952809 0.048978142 0.4549284
0.062837847 0.047340393 0.45781782
0.065088734 0.046284869 0.46009034
0.029695194 0.069701716 0.4322201
0.031704117 0.068906605 0.43344727
0.035172299 0.067217588 0.43648738
0.038680334 0.065231957 0.43943602
0.042299747 0.063408233 0.44258085
0.045851659 0.061115559 0.44543767
0.049304061 0.059539359 0.4485119
0.052990533 0.057398967 0.45158601
0.056490272 0.05531995 0.45448294
0.059997074 0.053436812 0.45747697
0.063385949 0.051471271 0.46030387
0.065590508 0.050508369 0.46256137
0.030011255 0.074525818 0.4349834
0.032095611 0.07330063 0.43588123
0.035761729 0.071644977 0.43915403
0.039181035 0.069668181 0.44200921
0.04269664 0.067633986 0.44494402
0.046121448 0.065672264 0.44781214
0.049753577 0.063746363 0.45092434
0.053297177 0.061779026 0.45392039
0.056769051 0.059845079 0.45685288
0.060373753 0.057715349 0.459842
0.063900404 0.055790946 0.46283904
0.065889001 0.054464724 0.46494374
0.030381035 0.078904025 0.43739343
0.032466035 0.077852771 0.43836418
0.036004156 0.075826496 0.44132733
0.039582655 0.073739365 0.44430709
0.043091919 0.071939245 0.44734168
0.046641588 0.069944516 0.45033193
0.050093688 0.06799686 0.45323643
0.053771697 0.066029519 0.45638013
0.057192184 0.06419003 0.45929924
0.060607977 0.062220171 0.46215373
0.064142756 0.060277421 0.46515131
0.066272102 0.059046846 0.46724626
0.030884948 0.083275989 0.43964109
0.032805026 0.082124002 0.44068447
0.036383532 0.080257319 0.44376478
0.039825536 0.078320824 0.44666326
0.043426648 0.076372631 0.44973123
0.046854809 0.074244186 0.45252699
0.050398488 0.072324678 0.45554495
0.053993132 0.070459552 0.4586437
0.05744189 0.068603374 0.46158624
0.060959339 0.066634998 0.46455312
0.064626612 0.064615875 0.46766141
0.066654205 0.063501671 0.46985048
0.031043973 0.087386176 0.44212556
0.033220887 0.086455956 0.4431169
0.036752313 0.084743246 0.44621569
0.040176868 0.082768179 0.44907746
0.043709043 0.080778211 0.45205063
0.047418244 0.078573927 0.45512056
0.050755896 0.07666339 0.45791626
0.054350335 0.07507772 0.46114221
0.057843551 0.072956227 0.46401262
0.061358429 0.071156532 0.46705356
0.064857543 0.069059089 0.46994141
0.066997342 0.068035781 0.47229344
0.031346112 0.091755398 0.44460955
0.033423603 0.09092965 0.44537982
0.037104432 0.089096472 0.44858781
0.040472344 0.087190524 0.45141885
0.044070221 0.085251845 0.45448759
0.047708482 0.082997836 0.45745692
0.051245555 0.081242584 0.46054253
0.05477336 0.079432651 0.46359301
0.05819992 0.077271476 0.46637207
0.06170442 0.075404793 0.46937108
0.065238729 0.073395558 0.47233781
0.067305304 0.071907252 0.47442657
0.031903915 0.096361503 0.44694585
0.033864431 0.095175117 0.44780025
0.037484989 0.093312636 0.45092866
0.041066013 0.091242746 0.45391905
0.044599265 0.089428559 0.45697358
0.048097864 0.087395869 0.4598904
0.051489957 0.085417077 0.46271479
0.055053808 0.083676875 0.46583667
0.058753084 0.081743531 0.46901926
0.062107481 0.079618096 0.47173536
0.065752111 0.077751011 0.47488812
0.067682452 0.076462746 0.47678322
0.032222074 0.10041553 0.44920602
0.034503866 0.099587575 0.45051503
0.038009964 0.097573638 0.45344862
0.041316703 0.095905542 0.45632091
0.044789821 0.093922302 0.4592323
0.048380949 0.091929048 0.46226874
0.051999424 0.089958362 0.46534553
0.055515975 0.087859333 0.46825182
0.05905015 0.086118773 0.47134092
0.062564328 0.083992928 0.47423238
0.066002488 0.082336366 0.4772543
0.068042248 0.080706477 0.47914931
0.032566991 0.10478857 0.45164201
0.034521759 0.10402329 0.45255756
0.038164765 0.10208397 0.4556756
0.041696835 0.10022621 0.45870894
0.045302816 0.098248214 0.46176869
0.048658896 0.096279502 0.46455809
0.052257277 0.094297498 0.46760765
0.055760242 0.09246143 0.47061893
0.059271239 0.090374887 0.47352478
0.062779039 0.088610649 0.47657415
0.066413134 0.086607054 0.47965309
0.068487436 0.085414052 0.48177561
0.033094592 0.10938969 0.4540107
0.035200525 0.10819331 0.45520499
0.038630895 0.10652961 0.45821512
0.042207547 0.10450321 0.46122056
0.045681134 0.10279778 0.46425912
0.049044997 0.10049954 0.46690679
0.052532285 0.098518476 0.46983472
0.05607206 0.096854106 0.47296476
0.059797481 0.094810292 0.47612569
0.063155554 0.092901438 0.47894457
0.066732265 0.091203496 0.48209986
0.068864845 0.089538962 0.4839564
0.033490002 0.11360806 0.45628655
0.03560143 0.11265288 0.45767921
0.038936306 0.11067325 0.46044034
0.042490628 0.10898799 0.46357679
0.046025176 0.10692208 0.46651796
0.049703211 0.1047702 0.46957755
0.053179316 0.10287811 0.47253376
0.056687802 0.1010946 0.47557509
0.060126774 0.099161968 0.47847199
0.063861229 0.097224802 0.48169151
0.067017287 0.0954023 0.48432785
0.06919495 0.09385635 0.48638535
0.033674706 0.11748001 0.45858583
0.035954259 0.11703475 0.46006516
0.039437868 0.11514311 0.4630298
0.043074679 0.11314486 0.46611416
0.046502531 0.11140862 0.46908844
0.049962319 0.10949141 0.47201529
0.053634677 0.10730496 0.47505289
0.057009093 0.10555691 0.47796306
0.060371563 0.10365164 0.48078844
0.063888051 0.10139996 0.48362502
0.067554094 0.099631548 0.48684633
0.069539577 0.098258063 0.48879081
0.034137491 0.12247682 0.46128824
0.036229778 0.12148251 0.4623962
0.039745085 0.11967088 0.4654322
0.043219097 0.11744386 0.46823338
0.046772204 0.11573662 0.47135848
0.05031997 0.1136087 0.47428587
0.053809643 0.11184779 0.47731683
0.057267867 0.10989279 0.4802247
0.060834192 0.10784085 0.48320717
0.064404815 0.10584478 0.48621979
0.067835435 0.10399602 0.48914579
0.06999106 0.10231565 0.49118641
0.034404807 0.12665394 0.46368846
0.03654699 0.12574442 0.46468833
0.039994404 0.12400757 0.46768382
0.043499362 0.1219237 0.47058427
0.047190867 0.11991106 0.47372216
0.050571065 0.11818822 0.47665021
0.054214083 0.11634374 0.47981152
0.05776111 0.11416712 0.4827159
0.061128885 0.11223364 0.48553422
0.064744338 0.11036235 0.488653
0.068144426 0.10852626 0.49155125
0.070294738 0.10693216 0.49354437
0.034781463 0.13105816 0.46610728
0.036957089 0.13033198 0.46723101
0.040535465 0.12820204 0.47019112
0.044136509 0.12641644 0.47333315
0.047444176 0.12426487 0.47598597
0.051219068 0.12239844 0.47928217
0.054629855 0.12061684 0.48221701
0.058157146 0.11838722 0.48507553
0.061589964 0.11664905 0.48805439
0.065168835 0.11470051 0.49109778
0.068555936 0.11285241 0.49397627
0.070637904 0.11125104 0.49605304
0.035155378 0.1354412 0.46851555
0.037429988 0.13447258 0.46963885
0.040739749 0.13276972 0.4724986
0.044371903 0.13064647 0.47552085
0.047917113 0.12866898 0.47851405
0.051463224 0.12691428 0.48160982
0.054906093 0.12490477 0.48447597
0.058389347 0.12301528 0.48744124
0.06205406 0.12103777 0.49056572
0.065467872 0.11931907 0.49353257
0.068988077 0.11711563 0.49639523
0.071098678 0.11579719 0.49848956
0.03561737 0.14013094 0.47101927
0.03769372 0.13900058 0.47199357
0.041170448 0.13713604 0.47496301
0.0445644 0.13528001 0.47784543
0.048268192 0.1332358 0.48098242
0.051749244 0.13147444 0.48400369
0.055213042 0.12945028 0.48688614
0.058760002 0.12732497 0.48981383
0.06226635 0.12558132 0.49287099
0.065827608 0.12350446 0.4958365
0.069400609 0.12137385 0.49879038
0.071442887 0.12018511 0.50084829
0.035876911 0.14378981 0.47309172
0.038074791 0.14341603 0.47442585
0.04155457 0.14134777 0.47730577
0.045026418 0.1397085 0.48037261
0.048668839 0.13740972 0.48332608
0.052223735 0.13569292 0.48644879
0.055698149 0.13356321 0.4892948
0.059122123 0.13177811 0.49224252
0.062678911 0.12979797 0.49524724
0.066131912 0.12786296 0.49815848
0.069802232 0.12580539 0.50125259
0.071898796 0.12431638 0.50321466
0.036438044 0.1491973 0.47594509
0.038599458 0.14747542 0.47685352
0.042027585 0.14563233 0.47977936
0.045422584 0.14395 0.48274213
0.049051873 0.14180003 0.48574907
0.05254072 0.13989864 0.48871505
0.055972919 0.13812658 0.49167776
0.059501655 0.13602106 0.49459445
0.062987067 0.13434288 0.49765843
0.066685267 0.13229725 0.50078863
0.069940016 0.13042282 0.50350976
0.072139978 0.12912384 0.50578219
0.036747329 0.1530845 0.47810727
0.038919967 0.15191929 0.47923225
0.042269837 0.15020561 0.48213112
0.045879953 0.14803855 0.48510918
0.049492635 0.14610514 0.48819661
0.05305472 0.14424586 0.49126226
0.056491081 0.14245747 0.4942221
0.059968039 0.14036758 0.49708903
0.063460268 0.13862456 0.50013095
0.066974409 0.13651051 0.50302774
0.070611209 0.13455923 0.5061335
0.072597355 0.1330107 0.50796449
0.037240479 0.15742692 0.48034844
0.039280988 0.15639153 0.48166841
0.042709928 0.15457579 0.48460764
0.046281122 0.15251671 0.48759216
0.049796313 0.1507214 0.49063545
0.053322434 0.14856645 0.49352676
0.056839153 0.14686708 0.49661547
0.060424764 0.14473031 0.49958044
0.063825779 0.1427941 0.50243402
0.067310743 0.1410788 0.50548059
0.070860222 0.13885836 0.50836766
0.072976731 0.13799921 0.51078397
0.037466533 0.16176066 0.48289913
0.039486952 0.16101278 0.48400217
0.043141693 0.15875937 0.48698989
0.046604201 0.15701352 0.48999786
0.050152063 0.15512021 0.49303234
0.053604305 0.15301894 0.49586695
0.057157122 0.15107298 0.49888289
0.060656771 0.14920378 0.5018754
0.064308293 0.14733237 0.50503379
0.067779258 0.1454194 0.5079748
0.071157582 0.1435741 0.51084495
0.073339067 0.14183383 0.51276523
0.037826963 0.16580845 0.48510537
0.040015645 0.16523971 0.48651069
0.043657593 0.16320865 0.48958573
0.047013436 0.16135183 0.49242592
0.050431706 0.15939504 0.49528909
0.053995363 0.15749519 0.49833795
0.057421088 0.15537006 0.50113255
0.061021864 0.15348531 0.50422907
0.064553469 0.15168577 0.50728846
0.068135999 0.14972542 0.5103305
0.071525343 0.1477398 0.51314873
0.073638171 0.1461814 0.51512444
0.038335603 0.1700217 0.48724428
0.04053162 0.16942264 0.48898515
0.043750901 0.1675214 0.49165502
0.047214221 0.16562521 0.49459535
0.050700355 0.16375305 0.49757168
0.054322004 0.16179124 0.50065601
0.057886954 0.15978102 0.50365597
0.061348774 0.15796509 0.5066312
0.064813592 0.15604317 0.50956142
0.068425693 0.15408331 0.51263613
0.072034046 0.1520585 0.51567709
0.074077971 0.15104173 0.51796788
0.038539104 0.17429 0.48977906
0.040712427 0.17410265 0.49133456
0.044164777 0.17178847 0.49405572
0.047800384 0.17006493 0.49726403
0.051313601 0.16799508 0.50017995
0.054880209 0.16599961 0.50318849
0.058305077 0.16428384 0.50616878
0.061724208 0.16215438 0.50895417
0.065299287 0.16023669 0.51200747
0.06881699 0.15828866 0.51498383
0.072262958 0.15652111 0.51800513
0.07442943 0.15499993 0.51992941
0.04017774 0.17618325 0.49237058
0.044142645 0.17389539 0.49591875
0.04751353 0.17210177 0.49865979
0.051121786 0.17013706 0.50167537
0.054503784 0.16813354 0.50479656
0.057907611 0.16636826 0.50748092
0.061613731 0.16437228 0.51053822
0.064864829 0.16249375 0.51345229
0.06862437 0.16036068 0.51675075
0.07180541 0.15874004 0.51920646
0.074485295 0.15753624 0.52098143
0.025190279 0.042710755 0.41998869
0.026911132 0.039656229 0.42013204
0.030236557 0.037661683 0.4232457
0.033859223 0.035767253 0.42613113
0.037346952 0.033793956 0.42918098
0.041121606 0.031947121 0.43195626
0.044596188 0.029949343 0.43505269
0.047993906 0.027869564 0.43831024
0.051371671 0.026126876 0.44095752
0.054829661 0.024080768 0.44414446
0.058527842 0.022145029 0.44709334
0.061147571 0.022943228 0.45024613
0.025676075 0.047042564 0.42223164
0.061490454 0.027565815 0.45287701
0.026038654 0.051534098 0.42472383
0.061924566 0.031718805 0.45506465
0.026409548 0.05588904 0.42711741
0.062177084 0.036017671 0.45756146
0.026861407 0.060345579 0.42948148
0.062693447 0.040421814 0.45981535
0.026993062 0.064438552 0.43198708
0.062987141 0.044971939 0.46242696
0.027451284 0.06918104 0.43452954
0.063477933 0.049346019 0.46469143
0.027860563 0.073247135 0.43669003
0.063676424 0.05337555 0.4670769
0.028419949 0.077776477 0.43897456
0.064015895 0.057909019 0.46962363
0.028730039 0.08222647 0.44150168
0.064333878 0.06210034 0.47197321
0.028847393 0.086509421 0.44414762
0.06473951 0.066568032 0.47439909
0.029296152 0.090699375 0.44634205
0.065169424 0.071206905 0.47690761
0.029681705 0.095201835 0.44881424
0.06557022 0.075341582 0.4791227
0.030017287 0.099517137 0.4512237
0.066036828 0.079691678 0.48140016
0.030487806 0.10396905 0.45356277
0.066464469 0.084094897 0.48375815
0.030948032 0.10841265 0.45590854
0.066800021 0.088365793 0.48613879
0.03121762 0.1127373 0.45840198
0.067145787 0.092870995 0.48865971
0.031597801 0.11714844 0.46082112
0.067479581 0.09721446 0.49108958
0.031840369 0.12138484 0.46328908
0.067918539 0.10173185 0.49350846
0.032311063 0.12573411 0.46556118
0.068253733 0.10612597 0.49596962
0.032769967 0.1302352 0.4679459
0.068469249 0.11034924 0.49846095
0.032930303 0.13447218 0.47051126
0.069000103 0.11474371 0.50069147
0.033463225 0.13895531 0.47279698
0.069474831 0.11922508 0.50304472
0.033715345 0.14316393 0.47523558
0.06967818 0.12351899 0.50559628
0.03412639 0.14739433 0.4775008
0.070077166 0.12790914 0.50797963
0.034527838 0.15202382 0.4800368
0.070585988 0.13238625 0.51028985
0.035045184 0.15645497 0.48230711
0.07072363 0.1366476 0.51289785
0.035492893 0.16086449 0.48464549
0.071207419 0.1409625 0.51513213
0.035685703 0.1650084 0.48711205
0.071577728 0.14532191 0.51752931
0.036155522 0.16934307 0.48937568
0.071836121 0.14973255 0.52009189
0.036366183 0.17381756 0.49203604
0.042088643 0.17419307 0.49569547
0.052824475 0.16622786 0.50852412
0.056707509 0.16433077 0.511374
0.064278021 0.16160168 0.51516628
0.067298912 0.16049801 0.51670623
0.06889236 0.15740162 0.52209306
0.07248342 0.15437123 0.52234375
0.038508162 0.17513828 0.49453062
0.041756667 0.17303258 0.49785843
0.045519061 0.17104681 0.50088835
0.049068771 0.16923323 0.50363797
0.052198164 0.16742469 0.50644356
0.055808119 0.16549248 0.50939971
0.059196532 0.16344129 0.51260674
0.063028708 0.16151462 0.51551831
0.066303119 0.15951625 0.51864684
0.070330791 0.15758206 0.52154189
0.072193675 0.15643504 0.52334011
0.021800168 0.041319925 0.423085
0.023637746 0.038194194 0.4232994
0.026809372 0.036203437 0.42643002
0.030343957 0.034266032 0.4294073
0.03398528 0.03237756 0.43227899
0.03743358 0.030333798 0.43546316
0.041110121 0.028353883 0.43849578
0.044466548 0.026528593 0.44129667
0.048045903 0.024506554 0.44442099
0.051228426 0.022565177 0.44746006
0.054983929 0.020685542 0.45029801
0.057633437 0.021483026 0.45342085
0.022041861 0.045630403 0.42560211
0.058153469 0.025949899 0.45576423
0.02265412 0.050073937 0.42776847
0.058369316 0.030206576 0.4582769
0.02278623 0.054545008 0.43051931
0.058817364 0.034690082 0.46066299
0.023212034 0.058896329 0.43284574
0.059250392 0.039114133 0.46302816
0.023426097 0.063080028 0.43531305
0.059420854 0.04318434 0.46547318
0.02388715 0.067468174 0.43762183
0.059949242 0.047686253 0.46777642
0.024291936 0.071944863 0.44005454
0.060199749 0.052014902 0.47029498
0.02481208 0.076297507 0.44227049
0.06043563 0.056258626 0.47277552
0.025149867 0.080451757 0.44457266
0.060925458 0.060727231 0.47510266
0.025232036 0.084696397 0.44723523
0.061186694 0.064963758 0.47754863
0.025778227 0.089313768 0.44959256
0.061677866 0.069502771 0.47991994
0.026158519 0.093744457 0.45202428
0.062018305 0.073952392 0.48241097
0.026574027 0.097934693 0.45425814
0.062462594 0.078215092 0.48465797
0.026918214 0.10249309 0.45681551
0.062718891 0.082591087 0.48720047
0.027338136 0.10682376 0.45913544
0.063160077 0.087040931 0.48957279
0.027812202 0.11130042 0.4614864
0.063549332 0.091410585 0.49195427
0.028092489 0.11549081 0.46387991
0.064032018 0.095782548 0.49422696
0.028277602 0.1197539 0.46643299
0.064223886 0.10017613 0.49685693
0.028790452 0.12430404 0.46878594
0.064730965 0.10458067 0.49912202
0.02922298 0.1284813 0.47099128
0.065209523 0.1091629 0.50153631
0.029418439 0.13296288 0.47367421
0.065413691 0.1133201 0.5039981
0.029953022 0.13739817 0.47592685
0.06577573 0.11766931 0.50639838
0.030153487 0.14168194 0.47847527
0.066024616 0.12192726 0.50887287
0.030603986 0.14611293 0.48082435
0.066576451 0.12650968 0.51120079
0.030953582 0.15037473 0.48318249
0.067003608 0.13090025 0.51355118
0.031315424 0.15483508 0.48565528
0.067400038 0.13514189 0.51584095
0.031802528 0.15934055 0.48800957
0.067628093 0.13955423 0.51844037
0.032199129 0.1638342 0.49046299
0.067982569 0.14385472 0.52081794
0.03240468 0.16799296 0.49292412
0.068404526 0.1483988 0.52327418
0.032968011 0.17252347 0.49520475
0.051167041 0.16447656 0.51196736
0.056466565 0.16140684 0.51673132
0.058877721 0.15994382 0.5190196
0.0642206 0.15872531 0.52040863
0.067741238 0.15682645 0.52331793
0.068838425 0.15271963 0.52557123
0.035087876 0.17345953 0.49811497
0.038570352 0.17149782 0.50114453
0.04206229 0.16968587 0.50390017
0.045184743 0.16779301 0.50686026
0.048875075 0.16582482 0.50986952
0.052707233 0.16385841 0.51285338
0.055940572 0.16207236 0.51560193
0.059597023 0.16010094 0.51862222
0.06290438 0.15805407 0.5218339
0.066188268 0.15608113 0.52491468
0.068811469 0.15512592 0.52624619
0.018107507 0.039724749 0.42640546
0.020008344 0.036618728 0.42672834
0.02320753 0.034794185 0.42955223
0.026888069 0.032799497 0.43261111
0.030318554 0.030882709 0.43556702
0.033699282 0.028951431 0.438557
0.037115104 0.026937176 0.4416925
0.040658593 0.025046902 0.44458264
0.044290453 0.023116479 0.44753215
0.047844082 0.021239592 0.45039636
0.051473364 0.019237708 0.45347628
0.054163553 0.020054204 0.45658955
0.018507984 0.044116899 0.4287883
0.054695442 0.024560809 0.45894176
0.019075945 0.048624441 0.43104854
0.054925114 0.028952345 0.4615258
0.019220434 0.05284797 0.43362385
0.055353142 0.033223987 0.46379778
0.01958565 0.057207786 0.43602729
0.055768557 0.037572727 0.46613479
0.019949611 0.061696187 0.43851581
0.056115188 0.041941773 0.46856615
0.02042231 0.066142812 0.44084886
0.056461006 0.046390086 0.47105002
0.020617593 0.070325568 0.44333771
0.056883231 0.050733157 0.47337529
0.021170348 0.074827448 0.44561219
0.05731995 0.055146679 0.47572929
0.021553207 0.079048142 0.44790438
0.057696126 0.059448846 0.47808233
0.02174959 0.08345592 0.45053825
0.057932869 0.063684136 0.4805564
0.022285938 0.087926179 0.45281154
0.058310971 0.068194568 0.48304254
0.022626009 0.092190653 0.45518267
0.058584455 0.072431549 0.48547435
0.022975087 0.096629515 0.45765653
0.058974057 0.076904058 0.48792231
0.023404785 0.1008752 0.45990968
0.059168443 0.081058368 0.4903937
0.023886986 0.10554381 0.46237582
0.059675422 0.085456461 0.49265474
0.024078839 0.10991907 0.46499389
0.060053043 0.089903198 0.49510005
0.024409931 0.11404784 0.46728739
0.060440145 0.094382629 0.49755543
0.024899688 0.11861138 0.46967632
0.060789794 0.098681301 0.4999375
0.025336117 0.12281457 0.47189391
0.061175633 0.10311015 0.50236148
0.025519297 0.12725104 0.47456199
0.061542809 0.10732849 0.50467062
0.026024051 0.13153127 0.47674903
0.061947018 0.11174105 0.50706238
0.026314903 0.1357941 0.47917718
0.062126838 0.11607125 0.50966531
0.026765965 0.14033525 0.48159719
0.062660053 0.12061229 0.51198834
0.027061228 0.14470498 0.48408964
0.063117772 0.12484145 0.51419771
0.027474955 0.14917028 0.48650441
0.063362278 0.12923707 0.51676685
0.027839899 0.15345946 0.48886225
0.06367363 0.13355243 0.51920491
0.028345436 0.157912 0.49116036
0.064125583 0.13800722 0.52156776
0.028654527 0.16225451 0.49361879
0.064454958 0.14233069 0.52398986
0.028919894 0.16664518 0.49616015
0.064830489 0.1467488 0.52641904
0.02922577 0.1709971 0.49862844
0.047627706 0.1636841 0.51395768
0.048926882 0.16267206 0.5155977
0.059498176 0.15617457 0.52578139
0.063013613 0.15366128 0.52980942
0.065266535 0.15108345 0.52871442
0.03139003 0.17210057 0.50116062
0.034707263 0.17032591 0.50387543
0.038381584 0.16827576 0.50703627
0.041731633 0.16630737 0.51009846
0.045108236 0.1643793 0.51308322
0.049222298 0.16250451 0.5158568
0.052490592 0.16047405 0.51904464
0.055928793 0.15858668 0.52194583
0.059290953 0.15672103 0.52481925
0.062932938 0.15477417 0.5277971
0.065073811 0.15361279 0.52957839
0.014476003 0.038348969 0.42979637
0.01627019 0.03524382 0.42980918
0.01988107 0.033261131 0.43285704
0.023374353 0.031292617 0.43589732
0.0268576 0.029307712 0.43896899
0.030269906 0.027460717 0.44180071
0.033782598 0.025439851 0.44493324
0.037290961 0.023539994 0.44784626
0.0408259 0.02159996 0.45082825
0.044303067 0.019608993 0.4539119
0.047989339 0.017744537 0.45673293
0.05040852 0.018208556 0.45967734
0.014997016 0.042774435 0.43205866
0.050964072 0.022888482 0.46225771
0.015455645 0.046993334 0.43426025
0.051244192 0.027292283 0.46479017
0.015746258 0.051413387 0.43679088
0.051796556 0.031742822 0.46703175
0.016083805 0.055742159 0.43920681
0.052103113 0.036146108 0.46953267
0.016451446 0.06009277 0.4416014
0.05255387 0.040499732 0.47183114
0.016779032 0.064545348 0.44410956
0.052946679 0.045060217 0.47433248
0.017162992 0.068879262 0.44647405
0.053362377 0.049343273 0.47662646
0.017580174 0.073347658 0.44888675
0.053513668 0.053493701 0.47914621
0.017878525 0.077603728 0.45130163
0.054016106 0.057907365 0.48142272
0.018241465 0.081842877 0.45362931
0.054441854 0.062484484 0.48389602
0.018894035 0.086330906 0.45577702
0.054716915 0.066802427 0.48637861
0.019228265 0.090875581 0.45833722
0.05503843 0.071040414 0.48875442
0.019407142 0.095065743 0.46085024
0.055372108 0.075376287 0.49117953
0.019835278 0.099557266 0.46326506
0.055849448 0.079826355 0.49350932
0.020281084 0.10395233 0.46559632
0.056198779 0.084107906 0.49588063
0.020816118 0.108431 0.46787664
0.056580797 0.088478766 0.49827144
0.020980563 0.11276576 0.47050071
0.05692194 0.092765465 0.50065571
0.021379143 0.1171369 0.47287214
0.057225198 0.097246796 0.50321126
0.0219712 0.12170039 0.4751403
0.057667974 0.10157414 0.5055021
0.022102755 0.12585698 0.47768736
0.057977192 0.10603383 0.50803655
0.022430979 0.13008565 0.48004919
0.058420863 0.11044744 0.51038235
0.022847466 0.13455668 0.48246443
0.058768444 0.11457068 0.51265281
0.023237288 0.13900009 0.48489317
0.058968566 0.1189864 0.5152874
0.023558669 0.14323376 0.48726633
0.059375495 0.12335625 0.51764816
0.024065252 0.14758812 0.48949942
0.059874304 0.12791744 0.5200249
0.02435204 0.15200557 0.49203289
0.060005508 0.13198355 0.52251351
0.024655566 0.1563558 0.49450287
0.060573407 0.13639715 0.52471274
0.02512661 0.16074136 0.49679819
0.061086334 0.14085345 0.5270046
0.02541459 0.1650717 0.4992736
0.061256327 0.1449898 0.52949315
0.025805783 0.16945064 0.5016588
0.035227001 0.16559821 0.51239669
0.040073358 0.16433129 0.51395082
0.041238718 0.16281989 0.51652008
0.051548492 0.15708013 0.52536571
0.056550704 0.15544102 0.52757281
0.060229093 0.15303116 0.53138739
0.061680015 0.14973304 0.53202051
0.027937446 0.17055255 0.50451219
0.031290587 0.16871428 0.50733721
0.034831714 0.16687723 0.51013088
0.038103908 0.16487606 0.51326478
0.041747101 0.16300482 0.51610488
0.045529068 0.16104038 0.51909304
0.048841283 0.15903942 0.52222043
0.052339558 0.15707012 0.52526134
0.05599571 0.15513188 0.52822125
0.05921356 0.15328899 0.53107572
0.061504576 0.15209343 0.53289592
0.011067797 0.036906593 0.43288052
0.01271492 0.033762988 0.43305445
0.016400723 0.031756379 0.43613419
0.019740019 0.02985237 0.43908098
0.02316143 0.02790598 0.44209215
0.026656162 0.026050502 0.44492653
0.030494474 0.024088984 0.44790062
0.033797622 0.022045314 0.45110711
0.037199609 0.020169623 0.45399264
0.040699188 0.018072192 0.45726651
0.044061303 0.016214926 0.4601247
0.046876341 0.016474426 0.46264449
0.011523493 0.041213609 0.43514284
0.047356721 0.021361385 0.46552178
0.011971322 0.04558453 0.43745601
0.047684383 0.025880761 0.46807325
0.012220657 0.049975999 0.44001678
0.048190065 0.030192792 0.47027987
0.012602356 0.054340243 0.44240367
0.048474543 0.034685962 0.47286528
0.012857857 0.058757611 0.44497398
0.048819765 0.039024398 0.47527844
0.013257931 0.063027792 0.44727802
0.049301133 0.043400962 0.47755569
0.013767267 0.067311123 0.44946167
0.049797531 0.047759838 0.47980371
0.014062096 0.071896031 0.45209453
0.049879566 0.051925808 0.48241532
0.014403273 0.076249652 0.45452228
0.050566658 0.056510307 0.48458499
0.014722941 0.080533125 0.45692983
0.050910413 0.060901187 0.48703396
0.015350102 0.084982641 0.45908248
0.051185589 0.065143257 0.48946708
0.015664596 0.089374021 0.46156633
0.051557809 0.069630548 0.49194515
0.016018182 0.093699381 0.46396106
0.05189262 0.073936284 0.4943493
0.016489498 0.098008707 0.46620649
0.052207671 0.078232497 0.49677059
0.016751751 0.10246047 0.46879122
0.052636757 0.082681015 0.49915636
0.017209794 0.1067751 0.47105575
0.052853245 0.087037385 0.50173306
0.017544821 0.11130248 0.47360373
0.053361092 0.091495596 0.50403214
0.018023506 0.11569013 0.47589138
0.053772721 0.095841795 0.50637197
0.018242922 0.12004097 0.47846103
0.054123707 0.1002569 0.50882816
0.018577874 0.12427521 0.48081854
0.054468047 0.10464519 0.51127476
0.018903442 0.12860727 0.48325074
0.054869991 0.10903071 0.51365155
0.019370526 0.1327896 0.48541856
0.055264696 0.11331911 0.51597375
0.019667864 0.13744363 0.48809338
0.055518877 0.11765601 0.51849329
0.020040426 0.14179638 0.49048358
0.05602935 0.12219386 0.52084112
0.020380601 0.14619116 0.49293929
0.056298193 0.12632169 0.52320743
0.020759352 0.15054464 0.49532264
0.056609649 0.13079666 0.52574921
0.021249995 0.15500563 0.49764386
0.0569827 0.13509659 0.52810442
0.021577243 0.15929194 0.50004429
0.057602655 0.13961402 0.53030974
0.021920022 0.16358267 0.50242931
0.057874732 0.1437792 0.53269655
0.022302922 0.16792929 0.5048033
0.024695985 0.16745612 0.51064825
0.031656947 0.16559033 0.51296431
0.036751077 0.16402403 0.51502472
0.051220343 0.15325895 0.53236902
0.054410547 0.15210016 0.53398299
0.058181606 0.14822179 0.53522265
0.024217047 0.16917311 0.50759852
0.027805574 0.16716528 0.51069558
0.031141412 0.16521448 0.51372802
0.034655169 0.16328555 0.51669306
0.038282864 0.16150966 0.51936209
0.041777469 0.15957132 0.52234727
0.045271643 0.15757467 0.52543867
0.04886445 0.15562473 0.52842969
0.052665204 0.15367676 0.53138494
0.056002062 0.15168689 0.53448838
0.058122355 0.15071638 0.53592551
0.0077039599 0.035310254 0.43581218
0.0092381379 0.032233398 0.43637624
0.012693304 0.030271249 0.43941084
0.016448185 0.028424177 0.44218963
0.019849408 0.02641907 0.44531074
0.023311559 0.024457727 0.4483428
0.026848298 0.022627329 0.45112506
0.030314092 0.020618083 0.45424372
0.033987716 0.018703071 0.45715868
0.037122503 0.016824638 0.46009064
0.040692851 0.014842283 0.46314415
0.04339854 0.015082855 0.46584189
0.0078768376 0.039715987 0.43847245
0.043826159 0.020094935 0.46886465
0.008383086 0.044051446 0.44069362
0.044332914 0.024533805 0.47115248
0.0086753163 0.048529789 0.44326025
0.044614207 0.028796092 0.47359154
0.009156771 0.052936308 0.44555688
0.044887211 0.033006005 0.47600633
0.0094864629 0.057258312 0.44797766
0.045439724 0.037502941 0.47827792
0.0097954599 0.061663382 0.45047688
0.045766339 0.04203631 0.48083973
0.010293304 0.066169955 0.45281923
0.046320617 0.046497889 0.48308623
0.010696017 0.070432499 0.45511517
0.046343174 0.050458591 0.48563457
0.010950066 0.074629784 0.45754412
0.046778593 0.054763485 0.48791945
0.011401191 0.079039603 0.45987871
0.047189865 0.059256908 0.4903554
0.011755237 0.083600119 0.4624258
0.047728874 0.063904017 0.49274054
0.012058138 0.087766364 0.46477693
0.047814269 0.068075985 0.49535206
0.012530623 0.09224017 0.46712792
0.048367158 0.072453842 0.49754575
0.012875466 0.096649021 0.46958727
0.048718996 0.076898284 0.50002003
0.013339191 0.10109766 0.4719322
0.049012948 0.081135467 0.50242782
0.013771803 0.10543603 0.47424218
0.049448889 0.085482091 0.50473922
0.013866914 0.1098316 0.4769876
0.049749479 0.089949831 0.50728905
0.0143743 0.11403885 0.4791241
0.050182156 0.094239727 0.50956744
0.014591132 0.1183614 0.4816784
0.050575685 0.098687366 0.5119946
0.014886991 0.12285189 0.48424864
0.050897263 0.10315801 0.5145216
0.015411236 0.12707993 0.48637873
0.05140252 0.1073072 0.51662284
0.015778083 0.13164966 0.48891672
0.051613752 0.11171001 0.51923591
0.016151894 0.13611446 0.49137828
0.052043304 0.1160468 0.52154851
0.016461052 0.14040126 0.4938004
0.052562475 0.12051319 0.52383953
0.016922928 0.14474253 0.49607772
0.052872263 0.12493195 0.52634668
0.017265864 0.14906746 0.49848479
0.053120043 0.12929197 0.52888882
0.017575311 0.15337269 0.50091857
0.053523067 0.13373177 0.53129965
0.018096842 0.15780233 0.50318289
0.053964414 0.13799851 0.53355277
0.018444281 0.16228524 0.50568736
0.054350793 0.14244884 0.53599012
0.018672742 0.16660021 0.508223
0.01976566 0.16773356 0.51090753
0.023975175 0.16612014 0.51319075
0.047108062 0.15186001 0.53555155
0.05353865 0.15108922 0.53595746
0.054589398 0.14668605 0.53846323
0.020912867 0.1677494 0.51070088
0.024377856 0.16575934 0.51378477
0.027634226 0.16395436 0.51656425
0.031128801 0.16197474 0.51962453
0.034655761 0.15997432 0.52271771
0.038149904 0.15806112 0.52565724
0.041756559 0.15608543 0.52869296
0.045276813 0.15426104 0.5314669
0.048848636 0.15221764 0.53463125
0.052220285 0.15019923 0.53778124
0.054292899 0.14912738 0.53941005
0.0040851417 0.033961568 0.43920577
0.0045186495 0.031817142 0.44166577
0.0079582334 0.029916411 0.44461724
0.01158182 0.027880836 0.44747856
0.015075239 0.026074508 0.45035669
0.018773075 0.023948902 0.45335546
0.022312503 0.021987364 0.45627576
0.025720567 0.020063378 0.45910436
0.029407918 0.018024955 0.46171841
0.032998927 0.015990155 0.46477097
0.03655589 0.014125548 0.46771842
0.039177768 0.013468158 0.46949854
0.0043368447 0.038373269 0.44177687
0.0045396453 0.036570322 0.44480136
0.0079321815 0.034649599 0.4476527
0.011454928 0.032672934 0.4506216
0.014996689 0.030811952 0.45366412
0.018494226 0.028773203 0.456577
0.02200231 0.02698403 0.45961529
0.025642496 0.024931509 0.46267861
0.02907154 0.023194652 0.46565393
0.032583669 0.021157727 0.46858367
0.036218435 0.019156858 0.47166461
0.039625235 0.018372277 0.4724043
0.0048284526 0.042670004 0.44399017
0.0049359407 0.040879868 0.44720209
0.0083748177 0.039091133 0.45016453
0.011757883 0.037171558 0.453006
0.015370338 0.0351163 0.45603761
0.018775478 0.033142406 0.45887855
0.022427395 0.031323653 0.46206138
0.025931481 0.029310834 0.46499327
0.029499177 0.027647521 0.46815446
0.032966942 0.025457546 0.47096565
0.036559526 0.023524962 0.47403136
0.039970543 0.022797966 0.47490346
0.0052209822 0.046955999 0.44631338
0.0052750623 0.045455117 0.44966117
0.0084890723 0.043467324 0.4522858
0.012147359 0.041591305 0.45544949
0.015738931 0.039578453 0.4584775
0.019339118 0.037534617 0.46150082
0.022785496 0.035703357 0.46445212
0.026369974 0.033460006 0.46736723
0.029795457 0.031806912 0.47037682
0.03334593 0.02981611 0.47336972
0.036838282 0.02792027 0.47634208
0.040171135 0.02711978 0.47737944
0.0055956789 0.05155737 0.44886267
0.0054180548 0.049870715 0.45183197
0.0089101512 0.047737196 0.45469564
0.012571506 0.04591196 0.45788586
0.016110944 0.043947194 0.46087852
0.019640286 0.042002756 0.46386936
0.023185648 0.040023018 0.4668617
0.026652861 0.037863597 0.46968624
0.030216902 0.035939202 0.47272432
0.033769526 0.034253493 0.47585875
0.037188344 0.032406975 0.47877279
0.040472407 0.031346735 0.47975785
0.005951805 0.055826332 0.45121777
0.0057916623 0.054080971 0.45416248
0.0093212463 0.052126963 0.45714921
0.012832149 0.050271481 0.46016034
0.01632122 0.048452742 0.46316427
0.019983333 0.046431407 0.46626592
0.023529187 0.044283941 0.46918228
0.027190179 0.042415924 0.47235262
0.030668944 0.040450953 0.47527853
0.034162797 0.038795654 0.47836223
0.03759414 0.036636271 0.48114735
0.040853091 0.035811059 0.4822655
0.0064404546 0.060301874 0.45355079
0.0062158941 0.058559641 0.45667103
0.0097772749 0.056371469 0.45958591
0.01325708 0.054587822 0.46259564
0.016811071 0.052727535 0.46565193
0.020524986 0.050704144 0.46880955
0.023928944 0.048697956 0.47163445
0.027502991 0.046742048 0.47466919
0.030961752 0.044915926 0.47763643
0.034561865 0.043075167 0.48075229
0.037837967 0.041153558 0.48347533
0.041295256 0.040317804 0.48461819
0.0066768201 0.064482227 0.45598963
0.0065948996 0.062950045 0.45908964
0.010176678 0.060730983 0.46201283
0.013672358 0.058954187 0.46504313
0.01713706 0.057015564 0.4679656
0.020783626 0.054990314 0.47104838
0.02434152 0.053065047 0.47407931
0.027865693 0.051111937 0.47706053
0.031373102 0.049087074 0.47999057
0.034881424 0.047350693 0.48305321
0.03834445 0.045292586 0.48591933
0.041738555 0.044580817 0.48691291
0.0072855474 0.069061741 0.45824853
0.0069001978 0.067222029 0.46137324
0.010505784 0.065176159 0.4644016
0.014000305 0.063409597 0.4674353
0.017699216 0.061412673 0.47058848
0.021131385 0.059580445 0.47352374
0.024587478 0.057427473 0.47633898
0.028365582 0.055667985 0.47968748
0.031730946 0.053535517 0.4824124
0.035258546 0.051705576 0.48545355
0.038747586 0.049773924 0.48840591
0.042131234 0.049036667 0.48937383
0.0076199658 0.073370181 0.46065491
0.0073934421 0.071508825 0.46387011
0.010917596 0.069677576 0.46690688
0.014460226 0.067441016 0.46977907
0.017982416 0.065882809 0.47293818
0.021474969 0.063906267 0.47587398
0.02517787 0.061718814 0.47894466
0.028683513 0.059861198 0.48194906
0.032039873 0.058073007 0.48482108
0.035491407 0.056099415 0.48771316
0.039135445 0.054088362 0.49079961
0.042297795 0.053221155 0.49182186
0.0078154523 0.077559516 0.46314782
0.0077485861 0.075939253 0.46628076
0.011351326 0.0739315 0.46932337
0.01482349 0.071897164 0.47221038
0.018381227 0.070150092 0.4753224
0.021833174 0.06815806 0.47820652
0.025479738 0.066356122 0.48139113
0.029052816 0.064308569 0.48438299
0.032476947 0.062326964 0.48724127
0.035872974 0.060349628 0.49007064
0.039483588 0.058360294 0.49313027
0.042942047 0.057837598 0.49411911
0.0081385607 0.081921697 0.46560249
0.0082355458 0.080200747 0.46875918
0.01171222 0.07847029 0.47178972
0.015216279 0.076402165 0.4746964
0.018787373 0.074596435 0.47779635
0.022300441 0.072622277 0.48075575
0.025747504 0.070704564 0.48366836
0.029187296 0.068726614 0.48654553
0.032736052 0.066839546 0.48958385
0.036238171 0.064889632 0.4925423
0.039804704 0.063046932 0.49562037
0.043182895 0.061858982 0.49644688
0.0084767286 0.086348288 0.46808124
0.0086161494 0.084623665 0.47119436
0.01212549 0.082572103 0.47411436
0.015550033 0.080739424 0.47704104
0.019057546 0.078798205 0.48000935
0.02270763 0.076916933 0.48316163
0.026256692 0.074933991 0.48615658
0.02955446 0.072991699 0.48889399
0.033225413 0.071146891 0.49208581
0.036554128 0.069166481 0.49483985
0.040161084 0.067105368 0.49786273
0.043656033 0.066579327 0.49892724
0.0089509236 0.090816155 0.47042632
0.0090638306 0.089173004 0.4737609
0.012264892 0.087123781 0.47634327
0.015831582 0.085301623 0.47943091
0.019385993 0.083158627 0.48235872
0.023052454 0.081194811 0.48549139
0.02652492 0.079382844 0.48848015
0.030111291 0.077340692 0.49148905
0.033386488 0.075558752 0.4942748
0.03710442 0.073493823 0.49741787
0.040662967 0.071697265 0.50050825
0.043890338 0.070859164 0.50149375
0.0093952008 0.095233962 0.47277418
0.0091386503 0.093553275 0.47584069
0.012771347 0.09153226 0.47891015
0.016258676 0.089684129 0.48189875
0.01977741 0.087570712 0.48480088
0.023401674 0.085791633 0.4879714
0.02692721 0.083807707 0.49094003
0.030358359 0.081740424 0.49376696
0.033871423 0.079896361 0.4967857
0.037491351 0.078012854 0.49990383
0.041011341 0.075971618 0.50284028
0.044418376 0.075207494 0.50369954
0.0097575597 0.099625826 0.47520185
0.0097230598 0.09770982 0.47837833
0.013242913 0.095833838 0.48138994
0.016800079 0.093815118 0.48437747
0.020276725 0.091977924 0.48735932
0.023777679 0.08997421 0.49029192
0.027298793 0.088019773 0.49326915
0.030757103 0.086364515 0.49631384
0.034300394 0.084339753 0.49928337
0.037836459 0.082222447 0.50220275
0.041400041 0.080450006 0.50530964
0.044453271 0.079453386 0.50627744
0.009939678 0.10377094 0.47768176
0.010130746 0.10197228 0.48077008
0.013519471 0.10012056 0.48364872
0.017162314 0.098257527 0.48680136
0.020711504 0.096350297 0.48983097
0.02420865 0.094323456 0.49274886
0.02764295 0.092442453 0.49566418
0.031149242 0.090410978 0.49859002
0.03460072 0.088868141 0.50167847
0.038258344 0.086662844 0.50469124
0.041744992 0.084729776 0.50764036
0.044881046 0.083808362 0.50858587
0.010371446 0.1080372 0.47994584
0.010385391 0.10658479 0.48315334
0.013899585 0.10474578 0.4861756
0.017447408 0.10264102 0.48911363
0.021065582 0.10058275 0.49215016
0.024514534 0.098769709 0.4951126
0.02805873 0.096767619 0.49809346
0.031521894 0.094927877 0.50105929
0.035092302 0.092945829 0.50407815
0.038504183 0.091118723 0.50699341
0.042118628 0.088980988 0.50998962
0.045386821 0.088227406 0.51093882
0.010859214 0.11252519 0.482288
0.010796019 0.11093365 0.48558775
0.01437386 0.10902233 0.48864698
0.017963327 0.10708134 0.49170542
0.021396626 0.10516797 0.49460492
0.024887037 0.10313639 0.49751323
0.028497789 0.10097845 0.50049615
0.031901393 0.099214435 0.50343108
0.035462204 0.097306624 0.50647324
0.038914673 0.09558253 0.50948006
0.042441435 0.09346851 0.51239073
0.045792282 0.092699885 0.513331
0.011223299 0.11696242 0.48474309
0.011194665 0.115586 0.48814738
0.014736049 0.1132689 0.49098149
0.018240228 0.11143039 0.49399301
0.02174313 0.10947958 0.49695188
0.025237273 0.10753286 0.49990299
0.028753702 0.10566209 0.50291324
0.032345481 0.10359085 0.50591481
0.035793699 0.10164213 0.50881457
0.039364174 0.099746525 0.51187289
0.042788066 0.097767532 0.51473212
0.046174381 0.097250044 0.51587683
0.011453741 0.12126261 0.48726681
0.011559858 0.1197484 0.49044684
0.014961174 0.11785135 0.49331862
0.018602166 0.11579393 0.4963806
0.022034883 0.11390723 0.4992916
0.02560053 0.1119222 0.50230384
0.029146779 0.10991637 0.5052852
0.032654647 0.10791019 0.50822431
0.036005437 0.10604793 0.51105642
0.039745945 0.10419476 0.51432091
0.043137778 0.10226224 0.51716608
0.046570066 0.10146962 0.5181663
0.011942156 0.12561581 0.48952058
0.01191081 0.12406705 0.4928019
0.015327354 0.12217745 0.4956938
0.018752407 0.12027682 0.49859005
0.022380605 0.11828701 0.50166881
0.026132122 0.11618116 0.50483012
0.02953117 0.11422376 0.50767189
0.033113748 0.11225069 0.51070815
0.036602668 0.11046247 0.51372582
0.040113308 0.10857725 0.5167231
0.043606959 0.10651396 0.51962054
0.04706832 0.10598229 0.52057147
0.012089976 0.13001044 0.49220318
0.012365578 0.12851319 0.49532914
0.015795249 0.12650339 0.49818069
0.019318808 0.12454049 0.50115675
0.02274178 0.12267348 0.50406599
0.02629916 0.12067749 0.50706416
0.02980658 0.11881204 0.51006693
0.033487421 0.11677718 0.51318294
0.036850601 0.11504748 0.5160892
0.040398959 0.11294302 0.51902795
0.043971166 0.11087289 0.52200854
0.047254685 0.11016744 0.52295768
0.012679531 0.13438772 0.49435323
0.012576501 0.13292381 0.4975723
0.01602985 0.13101363 0.50049525
0.019519124 0.12894574 0.50338578
0.022990145 0.12698659 0.50630581
0.026699863 0.1250924 0.50951779
0.030287895 0.12307566 0.5125401
0.033865787 0.12110047 0.51557028
0.037347816 0.11918037 0.51852024
0.040798441 0.11731927 0.52146256
0.044107739 0.11533204 0.52419209
0.047556598 0.1145629 0.52550209
0.013051611 0.13880196 0.49678397
0.012925615 0.13730088 0.49995199
0.016492229 0.13520564 0.50291502
0.019979566 0.13339669 0.50592148
0.023486208 0.13130449 0.50882
0.0271056 0.12951744 0.51198155
0.030622695 0.12745921 0.514907
0.034169473 0.12550998 0.51791483
0.03771013 0.12348473 0.52088124
0.04133378 0.12158144 0.52399445
0.044665456 0.1196354 0.52676737
0.048290234 0.11906904 0.52767736
0.013424574 0.14314099 0.49916476
0.01355415 0.14143105 0.50252604
0.016931698 0.13949396 0.50535351
0.020492032 0.13753979 0.50837392
0.023965124 0.13551491 0.51126629
0.027367886 0.13378826 0.51421738
0.030992381 0.13174684 0.51726854
0.034551051 0.12967257 0.52023238
0.037936568 0.1279939 0.52318639
0.041457061 0.12607569 0.52617943
0.045038179 0.12416752 0.52924371
0.048373558 0.12319997 0.53018141
0.013828267 0.14753732 0.5015465
0.013858568 0.14592458 0.50490975
0.017230872 0.1438995 0.50769126
0.020746026 0.14197169 0.51067412
0.024326846 0.14019401 0.51379758
0.027855136 0.13801807 0.51668167
0.031285074 0.13607967 0.51956606
0.034918439 0.13437733 0.52278155
0.0383556 0.13219702 0.52556354
0.041862592 0.13036674 0.52858186
0.045327011 0.12846045 0.53151882
0.048861817 0.12768313 0.53247821
0.014016594 0.15205865 0.5042637
0.014225963 0.15025289 0.50728726
0.017676402 0.1481369 0.51011318
0.021189578 0.14625473 0.51311469
0.024618901 0.14454012 0.51610041
0.028192144 0.14251006 0.51910043
0.031651646 0.14056081 0.52201235
0.035207421 0.13858944 0.52501994
0.038738132 0.13661303 0.52799773
0.042293157 0.1346017 0.53098625
0.04569611 0.13280989 0.53390783
0.049071513 0.1320617 0.53508317
0.014628984 0.15651506 0.50643826
0.014587356 0.15452109 0.5096308
0.018012192 0.15262096 0.51252705
0.021494746 0.15075937 0.51550424
0.02505821 0.14890565 0.51857394
0.028533541 0.14694527 0.52149814
0.032132208 0.14491673 0.52452683
0.03568228 0.14293519 0.52752352
0.039180242 0.14105684 0.53051001
0.042777196 0.13915101 0.5335927
0.046086233 0.1372074 0.53634191
0.04958456 0.13634555 0.53730625
0.014940663 0.1607563 0.50882781
0.014905648 0.1589787 0.51201338
0.018360298 0.15701897 0.51491517
0.021864016 0.15535112 0.51800394
0.025488798 0.1531333 0.52097499
0.028864689 0.15137771 0.52388334
0.032582682 0.14924003 0.52699333
0.036078863 0.14743371 0.5300107
0.039407428 0.14545619 0.53276587
0.042991534 0.14377692 0.53593779
0.046434417 0.14170012 0.5387733
0.049830172 0.140609 0.5398289
0.015147321 0.16510737 0.51141268
0.015336246 0.16350211 0.51432675
0.018820435 0.16151614 0.51721627
0.022170383 0.15960947 0.52028257
0.025702178 0.15751967 0.52320981
0.029507007 0.15545802 0.52644986
0.032781225 0.15371522 0.52925235
0.036370546 0.15157032 0.53221762
0.039872937 0.14971609 0.53522003
0.043364588 0.14806922 0.53820634
0.046949353 0.14600199 0.54118621
0.050418805 0.14521638 0.54209459
0.017266991 0.16620469 0.51407641
0.020837177 0.16439652 0.51681304
0.024161208 0.16242166 0.5198912
0.02768448 0.16030417 0.52319783
0.031265568 0.1584425 0.52603006
0.034757871 0.15650614 0.52901208
0.038424138 0.15455933 0.53198612
0.041962907 0.15264985 0.53491199
0.045416601 0.15072861 0.53787237
0.048834782 0.14879069 0.54086852
0.050542627 0.14743946 0.54306233
