# .PCD v0.7 - Point Cloud Data file format
VERSION 0.7
FIELDS x y z
SIZE 4 4 4
TYPE F F F
COUNT 1 1 1
WIDTH 837
HEIGHT 1
VIEWPOINT 0 0 0 1 0 0 0
POINTS 837
DATA ascii
-0.028985541 0.063839898 0.73843759
-0.030646749 0.063512832 0.74064982
-0.026812837 0.067583933 0.72934777
-0.027860187 0.06696108 0.73279834
-0.029988203 0.066241987 0.73706943
-0.032925244 0.065581575 0.74094582
-0.03643705 0.064899519 0.74422234
-0.039676178 0.064711705 0.74619597
-0.028412379 0.070008501 0.72720307
-0.030394815 0.070355862 0.73121351
-0.032976214 0.070222333 0.73545164
-0.036034852 0.069569975 0.73940969
-0.039235853 0.068214662 0.74301797
-0.042591196 0.066825882 0.74575239
-0.030243604 0.072600625 0.72192651
-0.031210203 0.072999969 0.72468388
-0.033603672 0.073616266 0.72921145
-0.036267363 0.073547363 0.73344904
-0.039364733 0.072884068 0.73745871
-0.042626571 0.071586922 0.74106377
-0.04620095 0.069555782 0.74439687
-0.049054809 0.068942502 0.74551213
-0.032746091 0.074513845 0.72043616
-0.0348396 0.07569541 0.72238368
-0.037149921 0.076251298 0.72698623
-0.039981514 0.076244868 0.73125386
-0.042963784 0.075544648 0.7352187
-0.046139099 0.074196525 0.73885894
-0.049705904 0.072213024 0.74214172
-0.050844945 0.070306107 0.74435377
-0.038763028 0.077707954 0.7207548
-0.041242711 0.078353703 0.72441143
-0.043743592 0.078243822 0.72869724
-0.046698745 0.077529393 0.73270595
-0.050094135 0.07619448 0.73635072
-0.052761242 0.07444866 0.73928791
-0.042107813 0.078936532 0.71989179
-0.044901576 0.079531528 0.72226417
-0.047945909 0.079589635 0.72591597
-0.050815426 0.078917496 0.72973967
-0.053414028 0.077526286 0.73358077
-0.054889344 0.075997636 0.73657894
-0.050859682 0.079988174 0.72494727
-0.052556135 0.079613179 0.7271421
-0.022181474 0.058228906 0.73199725
-0.023482576 0.057895374 0.73506415
-0.025597967 0.057296246 0.73888642
-0.028491477 0.056615282 0.74272811
-0.0316335 0.055988755 0.7458359
-0.021928309 0.061699308 0.72552371
-0.022648368 0.061154023 0.7293902
-0.02463061 0.061459348 0.73388499
-0.027209438 0.061327107 0.73825312
-0.030253213 0.060592622 0.74229741
-0.033628192 0.059356567 0.74579424
-0.037164368 0.057874043 0.74861789
-0.040706929 0.057237491 0.7504704
-0.023296878 0.064501375 0.72348309
-0.024695389 0.065288462 0.72797251
-0.026070308 0.064987533 0.73235673
-0.02737885 0.06442181 0.73559803
-0.033251844 0.062977895 0.74343854
-0.036116894 0.062659502 0.7456305
-0.039921448 0.061802972 0.7480399
-0.043555528 0.059762314 0.75030863
-0.04759809 0.059362262 0.7513538
-0.024937412 0.066992745 0.71788102
-0.025777144 0.068097137 0.72149748
-0.026807418 0.068827905 0.72530186
-0.0435059 0.064940713 0.74745739
-0.046881903 0.063329168 0.74920136
-0.049823556 0.061283574 0.75067306
-0.027888373 0.069961518 0.71543515
-0.028967608 0.071452856 0.71952194
-0.046533972 0.067159906 0.7466324
-0.050209533 0.066651523 0.7473858
-0.053201795 0.064027682 0.7491771
-0.031375952 0.072596461 0.71346503
-0.032661602 0.07420817 0.71722668
-0.035115197 0.075966358 0.71913403
-0.052799594 0.071737066 0.74284405
-0.053823791 0.069358923 0.74508786
-0.056691267 0.066723615 0.74692893
-0.035102692 0.074622132 0.71164447
-0.036597326 0.076158091 0.71474707
-0.038498074 0.077522673 0.71800745
-0.055304233 0.073714361 0.74004453
-0.057621639 0.07133206 0.74240834
-0.059888788 0.068828933 0.74433839
-0.04064624 0.077389531 0.71239072
-0.042899556 0.078872144 0.71658283
-0.046132267 0.079828873 0.71986228
-0.048818089 0.080134645 0.72250938
-0.054345902 0.078844875 0.72987634
-0.056027912 0.077547975 0.73295093
-0.05807592 0.0754015 0.73657596
-0.061036292 0.072789639 0.73934472
-0.062180847 0.070302844 0.74194711
-0.044473279 0.07832998 0.71153182
-0.047109231 0.079370365 0.71418053
-0.049834922 0.080119848 0.71811014
-0.052524269 0.080182046 0.72235376
-0.055523209 0.079478361 0.72642475
-0.058817942 0.078027591 0.73002553
-0.061653949 0.076002106 0.73336869
-0.063153043 0.073935449 0.7364285
-0.053162314 0.079999328 0.71625036
-0.056120895 0.079973534 0.71983826
-0.058932059 0.079322167 0.72363997
-0.061421443 0.078120828 0.72715497
-0.021632407 0.051214822 0.73502874
-0.023922946 0.050831553 0.73907781
-0.026725406 0.050158288 0.74279535
-0.029944088 0.049318265 0.74603891
-0.019501392 0.055212356 0.7258122
-0.020431392 0.05485801 0.7299003
-0.022074694 0.054628849 0.73434347
-0.024556294 0.05407045 0.73897648
-0.027659874 0.053454012 0.74303764
-0.031274602 0.052573353 0.74652845
-0.035129361 0.051615827 0.74929005
-0.038783483 0.050667576 0.75129586
-0.020018764 0.058278456 0.72002244
-0.02035103 0.058468055 0.72396475
-0.021160943 0.058598042 0.72832876
-0.037575737 0.054660019 0.749946
-0.041435059 0.053685162 0.75167298
-0.045063931 0.052594185 0.75290841
-0.021927807 0.061122932 0.71375513
-0.021634035 0.061603475 0.71773499
-0.021761723 0.062141463 0.72160983
-0.044677496 0.057007037 0.75168467
-0.048065864 0.055426631 0.75267839
-0.051989578 0.05438048 0.75321776
-0.02384045 0.063702419 0.71201336
-0.02395121 0.065000661 0.71510983
-0.051517367 0.058647193 0.7518329
-0.054373503 0.056641482 0.75244677
-0.026847072 0.066738367 0.70969462
-0.027008072 0.068216376 0.71262467
-0.055458203 0.061695136 0.75026089
-0.057792269 0.059426781 0.75093228
-0.030196901 0.069183275 0.70754361
-0.030748907 0.071057558 0.7104131
-0.059147894 0.064437553 0.74795938
-0.061358795 0.062000711 0.74873334
-0.033769876 0.071127698 0.70574671
-0.035061173 0.073297948 0.70834327
-0.062666148 0.066891074 0.74488676
-0.064489514 0.064094856 0.74617124
-0.039273612 0.074680977 0.70658886
-0.041427862 0.076725334 0.70927048
-0.064045794 0.071428247 0.73950601
-0.065728776 0.068530768 0.7416777
-0.066844985 0.065358542 0.74394679
-0.043263812 0.075520054 0.70524693
-0.045701824 0.077348165 0.70808733
-0.048445396 0.078864932 0.71120512
-0.064577922 0.075185239 0.73268795
-0.066669285 0.072502196 0.73573375
-0.068226397 0.069707476 0.73848104
-0.049500339 0.0773836 0.70683575
-0.052150011 0.078598112 0.71000206
-0.055347271 0.079354301 0.71359706
-0.058553129 0.079436906 0.71753901
-0.061681859 0.078718089 0.72170639
-0.064444713 0.077256434 0.72577155
-0.066978954 0.075161159 0.7294172
-0.068778701 0.072966442 0.73253
-0.056277554 0.078192905 0.70954102
-0.058397576 0.07851328 0.71195757
-0.06119157 0.078557223 0.71571404
-0.064073257 0.077888019 0.71943599
-0.066839591 0.076563209 0.72301084
-0.068407319 0.075417139 0.72548902
-0.023928553 0.043451808 0.73936468
-0.025820922 0.04288638 0.74176776
-0.018393297 0.048171785 0.7258746
-0.019334104 0.048390463 0.72972465
-0.021004939 0.047487736 0.73431432
-0.023297759 0.046474107 0.7385655
-0.026352588 0.045820516 0.74260628
-0.029962739 0.045326553 0.74611723
-0.033814222 0.045072787 0.74892855
-0.03721676 0.043939028 0.75077051
-0.018341582 0.051878877 0.72003806
-0.018555794 0.051643316 0.72398406
-0.0192715 0.051384579 0.72850716
-0.035540137 0.047618534 0.74999231
-0.03959132 0.046826426 0.75182271
-0.043389469 0.046080053 0.75308287
-0.019641794 0.055079073 0.71392047
-0.019169077 0.055049852 0.71773905
-0.019016266 0.055038251 0.72182196
-0.04229987 0.049624719 0.75266379
-0.046409409 0.048720263 0.75357783
-0.050074052 0.047628008 0.75407445
-0.021085702 0.058054108 0.71209812
-0.020510813 0.058557928 0.71546721
-0.049332455 0.051830314 0.75361878
-0.052521605 0.050664291 0.75381011
-0.023385724 0.061019026 0.70914316
-0.056567285 0.05337793 0.75299114
-0.027203009 0.062640883 0.7035771
-0.026411371 0.06387876 0.70631945
-0.060608566 0.056107983 0.75141913
-0.063028269 0.054273129 0.75120306
-0.029241193 0.064206682 0.7023527
-0.030088872 0.066611484 0.70401293
-0.064272329 0.058725946 0.74915075
-0.065094367 0.055782236 0.74993122
-0.034168262 0.069036059 0.7023927
-0.067297697 0.061349094 0.74628055
-0.038407728 0.070885509 0.70119762
-0.040141299 0.073093772 0.70302731
-0.069070727 0.06642364 0.74135447
-0.070052892 0.063586622 0.74289125
-0.041999497 0.07147263 0.69976223
-0.044369351 0.073755525 0.70189577
-0.046967179 0.075873375 0.70432013
-0.070258215 0.070581093 0.73508161
-0.071464069 0.067565069 0.73771828
-0.072498843 0.064515285 0.73992413
-0.048240978 0.074085981 0.70118201
-0.051065627 0.07579115 0.70366305
-0.054021768 0.077301726 0.70670259
-0.070235759 0.073609546 0.72817385
-0.072142377 0.070887364 0.73145944
-0.073337629 0.068354532 0.73426908
-0.054842759 0.075330794 0.70303053
-0.057213537 0.076515764 0.70600128
-0.060777809 0.077003151 0.70924056
-0.064326018 0.076850541 0.71286607
-0.067298256 0.076202065 0.71697974
-0.069683537 0.074995026 0.72115481
-0.071771942 0.073142499 0.72525418
-0.073721655 0.071005993 0.72774613
-0.067110471 0.075468756 0.71235985
-0.068387933 0.075153664 0.71398431
-0.01982069 0.040846404 0.73002875
-0.021087654 0.041042138 0.73346955
-0.023338197 0.040766176 0.73769104
-0.026309794 0.039981 0.74158144
-0.029724836 0.039085731 0.74486059
-0.032525633 0.037914228 0.74680585
-0.018177979 0.044986892 0.72384477
-0.01907821 0.043689635 0.72846735
-0.020463884 0.043660074 0.73287439
-0.022059333 0.043651462 0.73635423
-0.030260108 0.041374676 0.74592388
-0.034199022 0.040214412 0.74848545
-0.038508438 0.040306374 0.75076336
-0.018568605 0.047738098 0.71380121
-0.01810034 0.048037082 0.71790814
-0.017972749 0.047605045 0.72189575
-0.040638588 0.042485751 0.75199986
-0.044584114 0.041979812 0.75298625
-0.019275013 0.051264048 0.71234226
-0.018592477 0.05116412 0.71552962
-0.047579911 0.044553731 0.75380236
-0.050837494 0.043940566 0.75395578
-0.022153348 0.053940263 0.70574254
-0.020988382 0.054319806 0.70879
-0.055114545 0.0464257 0.75388741
-0.058262762 0.04558032 0.75346214
-0.023855144 0.056824334 0.70432639
-0.022995327 0.057876147 0.70666206
-0.058541972 0.050114669 0.75319916
-0.060569987 0.048267484 0.75283808
-0.026780646 0.059951369 0.70203286
-0.02494733 0.060454112 0.70511091
-0.063964732 0.051358923 0.75136918
-0.030363832 0.062616214 0.69979018
-0.031656399 0.065529704 0.70089591
-0.067569241 0.054142311 0.74908829
-0.034094349 0.064486653 0.69788122
-0.034890313 0.066735163 0.69919163
-0.070241958 0.058656864 0.7457875
-0.070831135 0.056043029 0.74642068
-0.037428562 0.065283358 0.69617158
-0.039171129 0.067908496 0.69750637
-0.073189072 0.059952859 0.74254966
-0.073533684 0.056935109 0.74388444
-0.043798413 0.069474354 0.69696414
-0.045857187 0.071454547 0.69837612
-0.074887633 0.064816236 0.73664755
-0.075347945 0.062120192 0.73859042
-0.049919277 0.071699768 0.69804186
-0.052737266 0.073548362 0.70017773
-0.075573713 0.068185791 0.7302686
-0.076396212 0.065553553 0.73306644
-0.056046057 0.07310909 0.70011061
-0.059989326 0.074059717 0.70279771
-0.062920719 0.075163707 0.70653456
-0.065095477 0.075530693 0.70945394
-0.070599705 0.0742888 0.71698624
-0.072828829 0.072791867 0.71956223
-0.075122938 0.070595562 0.7228865
-0.076417193 0.068399563 0.72708732
-0.063088544 0.073048525 0.7028771
-0.06510286 0.073764637 0.70572531
-0.067978375 0.074037261 0.70973408
-0.071005613 0.073291153 0.71361858
-0.073754065 0.071794182 0.71711504
-0.075839147 0.070081756 0.71957016
-0.019967958 0.037793703 0.72779453
-0.021525491 0.03688807 0.73194301
-0.024002986 0.035753027 0.73630947
-0.026985412 0.035080783 0.74024713
-0.030587405 0.034771226 0.74388003
-0.034100316 0.034649909 0.74656713
-0.018367738 0.041516762 0.718476
-0.018593848 0.04040296 0.72219676
-0.019124139 0.039706327 0.72604793
-0.035865188 0.035894558 0.74820143
-0.039543215 0.035611309 0.74983054
-0.043348763 0.035662048 0.75119495
-0.018958658 0.044794738 0.71231091
-0.018404733 0.04382256 0.71572322
-0.04607657 0.037494756 0.75234091
-0.049494363 0.03795857 0.75291228
-0.019775726 0.047377106 0.70954126
-0.052847821 0.039591748 0.75330496
-0.02221862 0.050433952 0.70443243
-0.021012813 0.050133254 0.70676219
-0.056293469 0.041817024 0.75344294
-0.059010405 0.041978601 0.75295138
-0.024483515 0.053298526 0.7016421
-0.062676646 0.044389319 0.75213653
-0.027588245 0.05600084 0.69877136
-0.066689484 0.046959482 0.75052482
-0.031143505 0.05862949 0.69653749
-0.070272811 0.049676858 0.74828124
-0.035283387 0.061286665 0.69488782
-0.073420487 0.05243114 0.74540931
-0.039127827 0.063105211 0.69382471
-0.041071553 0.06501466 0.69421905
-0.07626646 0.056870274 0.74099672
-0.075864583 0.054584838 0.74240208
-0.044934481 0.066020899 0.69373149
-0.078115672 0.058298245 0.73758256
-0.048639886 0.0670899 0.69380581
-0.051632438 0.068601154 0.69491267
-0.079372123 0.062143717 0.73149216
-0.079394072 0.059805542 0.73423779
-0.055137984 0.068950593 0.69540679
-0.058413152 0.070068285 0.69723576
-0.061512701 0.071078919 0.69943362
-0.07830359 0.067172512 0.72162777
-0.079267398 0.06528309 0.72496206
-0.079953007 0.063152075 0.72818267
-0.064013667 0.070534319 0.70017707
-0.067379385 0.070923224 0.70323461
-0.07101617 0.070607975 0.70690286
-0.073895641 0.069980942 0.71080101
-0.076387085 0.068813212 0.71510607
-0.078147292 0.067332298 0.71878821
-0.020588955 0.033553105 0.72237438
-0.020914989 0.033762142 0.72549921
-0.02279035 0.032256104 0.73023975
-0.025245044 0.031142499 0.73451555
-0.028213508 0.03045089 0.73843277
-0.031759091 0.030200196 0.7420916
-0.035905465 0.030402474 0.74539346
-0.038684443 0.029536786 0.74646431
-0.019360423 0.037769724 0.71637595
-0.019708231 0.035882965 0.72034878
-0.019665733 0.036394607 0.72391421
-0.037354048 0.032721832 0.74764156
-0.040844955 0.030977359 0.74821472
-0.044839777 0.031739354 0.74987882
-0.019999892 0.040734075 0.71036363
-0.019453064 0.039430141 0.71343893
-0.047992785 0.032835778 0.75094485
-0.051118948 0.033671636 0.75152206
-0.022317924 0.043553777 0.70398271
-0.020997528 0.043220874 0.706837
-0.055128623 0.035327226 0.75194383
-0.058304403 0.035394907 0.75151742
-0.02314269 0.046335451 0.70243645
-0.021498214 0.046396833 0.70522797
-0.057207499 0.038416211 0.75266004
-0.060377687 0.037769176 0.75170422
-0.025753897 0.049164448 0.69899714
-0.064920358 0.040153503 0.7506755
-0.028955942 0.052006967 0.69608951
-0.068914458 0.042644586 0.7490449
-0.032554507 0.054586299 0.69381273
-0.072601944 0.045301821 0.74673557
-0.036525123 0.057155546 0.69220912
-0.075737856 0.048082054 0.74388409
-0.041030228 0.059607837 0.69119805
-0.042825975 0.062331639 0.69187963
-0.07869228 0.054035187 0.73914003
-0.078375183 0.051087786 0.7403782
-0.043959249 0.060143776 0.69047344
-0.046312306 0.062078729 0.69097072
-0.080492772 0.054175898 0.73602301
-0.08004871 0.051627375 0.73788941
-0.05052954 0.063464448 0.69124198
-0.053551175 0.064690039 0.6920321
-0.081942305 0.058161475 0.72953862
-0.081613481 0.056231555 0.73241889
-0.056700561 0.065382771 0.69287783
-0.060590632 0.066390738 0.69466752
-0.080364093 0.06430234 0.72053444
-0.081732988 0.061540775 0.72262752
-0.08218246 0.059499249 0.72642785
-0.063687563 0.065758236 0.69538033
-0.065648094 0.067068443 0.69761848
-0.069684237 0.06720268 0.70079374
-0.073309086 0.066786982 0.70435691
-0.076235354 0.066187367 0.70833343
-0.078718297 0.065033875 0.71257114
-0.080623016 0.063437074 0.7171905
-0.081810184 0.061667051 0.71939546
-0.021765716 0.030931758 0.72114372
-0.022725753 0.029592905 0.72353321
-0.024572071 0.028067717 0.72807193
-0.027046148 0.026961669 0.73243201
-0.030008586 0.026212102 0.73625839
-0.033484008 0.026047258 0.73996985
-0.037640102 0.026190007 0.7432521
-0.039705686 0.02723383 0.74531633
-0.021173982 0.033530846 0.71427703
-0.021519983 0.031660683 0.71831238
-0.023149146 0.0284945 0.72014201
-0.040703766 0.024570622 0.74351937
-0.042617958 0.026763218 0.74608439
-0.04660048 0.027748812 0.74788904
-0.021770258 0.036704239 0.70829964
-0.021256329 0.035191126 0.71129179
-0.049706817 0.028456081 0.74873918
-0.052832156 0.029623874 0.74949926
-0.023383342 0.041219298 0.70275724
-0.022785565 0.038978178 0.70477611
-0.056991078 0.031108001 0.74982309
-0.059099957 0.033480603 0.75057971
-0.024926668 0.04226413 0.70033789
-0.024773458 0.038824618 0.70150101
-0.060813788 0.030502716 0.74861348
-0.062197462 0.033555582 0.74960715
-0.027614441 0.045016456 0.69683617
-0.066719502 0.035985906 0.74858826
-0.030730013 0.047785107 0.69400936
-0.070857152 0.038531356 0.74686998
-0.03437563 0.050562859 0.69174099
-0.074374795 0.04116334 0.74465662
-0.038320392 0.052970536 0.69011879
-0.077454746 0.04402573 0.74189007
-0.042768598 0.055399563 0.68911541
-0.046099968 0.054724321 0.68811136
-0.081968546 0.04632324 0.7352044
-0.080132946 0.04687864 0.73835689
-0.045133866 0.057373207 0.68909872
-0.048132412 0.057737466 0.68880367
-0.082305714 0.049885899 0.73393148
-0.08091528 0.049681615 0.73688161
-0.052133542 0.059491955 0.68926084
-0.055442899 0.060391504 0.68988127
-0.083825678 0.0537205 0.72739148
-0.083323702 0.052374408 0.7303372
-0.058463592 0.061362606 0.69087493
-0.062529668 0.062178124 0.69259417
-0.083696514 0.056495097 0.71672517
-0.083608598 0.057195969 0.72042835
-0.083892301 0.055506047 0.72446096
-0.064649403 0.063626111 0.69433844
-0.067350149 0.062878929 0.69544399
-0.071473017 0.062942147 0.6986227
-0.07510218 0.06260255 0.70228231
-0.078142539 0.061944693 0.70636702
-0.080527589 0.060845137 0.71054262
-0.082385898 0.059314921 0.71515882
-0.082825445 0.059277363 0.71832037
-0.025123594 0.025838507 0.72191274
-0.026945142 0.024295041 0.72567886
-0.029346023 0.023218045 0.7299841
-0.032403257 0.022488141 0.73396498
-0.035932027 0.022234671 0.73757112
-0.039183933 0.022573397 0.74049866
-0.023344882 0.029954651 0.71265793
-0.024031568 0.027842814 0.71588022
-0.025115006 0.025799159 0.71917534
-0.041816294 0.021968262 0.74124026
-0.044915318 0.02311543 0.74358511
-0.048243631 0.024300741 0.74547881
-0.023889927 0.033312038 0.70659196
-0.023891104 0.031004213 0.70936096
-0.051600985 0.024579046 0.74589717
-0.054371521 0.026250105 0.7471565
-0.025197832 0.034699067 0.70325947
-0.058339518 0.027101099 0.74702853
-0.027379965 0.038516924 0.69844073
-0.026971048 0.036207333 0.69988096
-0.062276024 0.028124973 0.74653345
-0.064074859 0.030007038 0.74697298
-0.029867901 0.040748358 0.69535744
-0.068102218 0.03186027 0.74582839
-0.033012256 0.043491155 0.69249588
-0.072099909 0.034412928 0.74423218
-0.036573183 0.046187166 0.69026411
-0.075704977 0.037032589 0.74194771
-0.040659741 0.048751846 0.68861842
-0.078860596 0.039986275 0.73911595
-0.044404015 0.051174421 0.68780124
-0.047020514 0.051238943 0.68731111
-0.082324557 0.043112248 0.73395002
-0.081065357 0.042598456 0.73634064
-0.050296873 0.053437497 0.68745089
-0.083524577 0.045833688 0.73120707
-0.053752415 0.055185981 0.6878593
-0.057139661 0.055620365 0.68841249
-0.084904224 0.049273975 0.72499359
-0.084373608 0.048330143 0.72831595
-0.060172819 0.057203855 0.68954903
-0.06381429 0.057567168 0.69097483
-0.067407489 0.057413332 0.69262087
-0.084161282 0.05354232 0.71483672
-0.084738545 0.052571066 0.71868294
-0.084933475 0.051541556 0.722417
-0.069225535 0.05858086 0.6942634
-0.072772726 0.058275312 0.69690263
-0.076378092 0.058058225 0.70061052
-0.079306744 0.057407662 0.70450282
-0.081733197 0.056288652 0.7087611
-0.083329499 0.055303551 0.71292812
-0.027431017 0.023086628 0.72119194
-0.029597593 0.021291085 0.72358799
-0.032278463 0.019867036 0.72720212
-0.035207532 0.019190501 0.73108721
-0.038149405 0.019295458 0.73486191
-0.040130515 0.020144857 0.73791915
-0.026940079 0.024684478 0.71365482
-0.028111868 0.022616226 0.71780473
-0.030428477 0.020377047 0.72118402
-0.038536318 0.017547712 0.7315532
-0.040418338 0.017993109 0.73432255
-0.043293513 0.01904214 0.7379086
-0.047300119 0.019983977 0.74060684
-0.049265169 0.021953674 0.74334878
-0.026898025 0.027614068 0.70766783
-0.027843192 0.024780404 0.71059895
-0.050522894 0.019656818 0.74067551
-0.053484011 0.021376308 0.74264318
-0.028006081 0.030983785 0.70214736
-0.028525354 0.028218303 0.70407462
-0.057406254 0.021745734 0.74247444
-0.059520371 0.023701109 0.74383217
-0.029955057 0.036153406 0.69673258
-0.030034637 0.033194624 0.69828659
-0.064110823 0.025356084 0.74338585
-0.06605617 0.027855719 0.74448431
-0.032426953 0.037154496 0.69436044
-0.033059053 0.034496594 0.69497812
-0.068441853 0.026401311 0.74155271
-0.069169171 0.028623264 0.74289685
-0.035682514 0.039102137 0.6916852
-0.035601839 0.035616651 0.69279104
-0.072949789 0.030479066 0.74092644
-0.039338425 0.041805562 0.68939841
-0.042573422 0.040799908 0.68839651
-0.078241348 0.032590874 0.73576069
-0.07651329 0.033100791 0.73868471
-0.042714089 0.044916574 0.68793476
-0.044898085 0.043394841 0.68750399
-0.080264166 0.03527632 0.73418027
-0.079426438 0.036204726 0.73640376
-0.045055524 0.047635917 0.68731058
-0.048228178 0.046645265 0.68687814
-0.082285583 0.038755015 0.73199141
-0.081124052 0.03908379 0.73500901
-0.052446764 0.049161531 0.68680763
-0.055790801 0.048712451 0.68698847
-0.084689602 0.041990384 0.72533041
-0.08398547 0.041882321 0.72857881
-0.054814734 0.052102853 0.68724471
-0.058670051 0.051147658 0.68776888
-0.062463481 0.050732713 0.68871856
-0.085318774 0.045356467 0.71888173
-0.085206248 0.045115042 0.72273445
-0.061189972 0.05413834 0.68891037
-0.064557321 0.05280244 0.68990332
-0.0690303 0.052954212 0.69225401
-0.07280767 0.051843941 0.69466448
-0.081348509 0.049419448 0.70461416
-0.082809642 0.049514692 0.70784628
-0.084233232 0.04941944 0.71234649
-0.085121587 0.04810676 0.71692282
-0.070828483 0.055210747 0.69400132
-0.073580235 0.054123841 0.69594324
-0.077004626 0.053055584 0.69918019
-0.07999371 0.052443892 0.70316541
-0.082248271 0.052119896 0.70741773
-0.083512053 0.052218664 0.71082038
-0.03477294 0.018048272 0.72666943
-0.03681346 0.017576583 0.72921842
-0.029698657 0.022082511 0.71282691
-0.031567991 0.019964026 0.71552908
-0.033581644 0.018167969 0.71964437
-0.035949215 0.016968923 0.72378725
-0.039002329 0.016255898 0.72783011
-0.042548176 0.016110437 0.73148304
-0.045948599 0.016614448 0.73470372
-0.048422962 0.017799098 0.73771244
-0.029836357 0.02490313 0.70651996
-0.031209517 0.022223286 0.7092889
-0.033040151 0.019554134 0.71257836
-0.049176496 0.015859364 0.73409015
-0.052235641 0.017394014 0.73717552
-0.055043839 0.019009778 0.73953027
-0.030857392 0.028620705 0.70078743
-0.031844445 0.025615655 0.70299798
-0.033146478 0.022566698 0.70554978
-0.056320768 0.017241312 0.73640448
-0.05889342 0.019378211 0.73887503
-0.061344348 0.021643648 0.74095607
-0.033262804 0.029506566 0.69789857
-0.03427428 0.02680465 0.69929749
-0.0633265 0.020076413 0.73766959
-0.064818256 0.02219471 0.73954213
-0.035977818 0.03175693 0.69452447
-0.06911464 0.024089346 0.73836869
-0.03797185 0.037248109 0.69098812
-0.039045863 0.034474239 0.69159216
-0.073187418 0.026544934 0.73679513
-0.073845126 0.028877085 0.73862815
-0.039974049 0.038754307 0.68971062
-0.042681091 0.037072066 0.68934393
-0.076851986 0.029134596 0.73435098
-0.075900272 0.030317945 0.7373004
-0.04666708 0.039788466 0.68778563
-0.079908252 0.032094188 0.73159993
-0.050651573 0.042454734 0.68696547
-0.053833034 0.041309748 0.6871441
-0.082706392 0.034495085 0.7255497
-0.082273319 0.035226047 0.72863209
-0.053186651 0.045230236 0.6867066
-0.056943733 0.04437704 0.68720645
-0.061013181 0.043490693 0.68811679
-0.084195808 0.037791982 0.71891046
-0.084122874 0.038093578 0.72306788
-0.083686672 0.038242083 0.72691768
-0.0598942 0.047043569 0.68768483
-0.063748464 0.046344779 0.6889618
-0.067698568 0.045495898 0.69074994
-0.084031701 0.041765902 0.71230406
-0.084730268 0.041434113 0.71675742
-0.084970765 0.041352838 0.72063679
-0.066020191 0.049166329 0.68996936
-0.069348276 0.048159208 0.69177181
-0.073345192 0.047799543 0.69466424
-0.076948464 0.047503252 0.69817281
-0.080012254 0.046716314 0.70222855
-0.082309127 0.045624588 0.70649874
-0.083943471 0.044776756 0.71097744
-0.08487682 0.044798147 0.71480769
-0.077434294 0.050193828 0.69894361
-0.079277962 0.049881272 0.70130122
-0.034745909 0.017820142 0.71521986
-0.036665849 0.016469758 0.71790344
-0.039164018 0.015274521 0.72136045
-0.042054214 0.014608398 0.72512341
-0.044899546 0.014585439 0.72864413
-0.046759844 0.015024833 0.73134011
-0.034494959 0.020222411 0.70818204
-0.036320396 0.017970342 0.71138555
-0.038610134 0.015978752 0.71505117
-0.041515049 0.014456339 0.71906668
-0.044667959 0.013712991 0.72313768
-0.047927283 0.013804067 0.72723287
-0.051004484 0.014538012 0.73075151
-0.053785913 0.015722537 0.73384887
-0.035070688 0.023318149 0.70243734
-0.036551643 0.020753358 0.70491117
-0.038566854 0.018010464 0.7081362
-0.054857943 0.014272787 0.72953588
-0.057774059 0.015875142 0.73279923
-0.059991073 0.017597707 0.73549789
-0.036773361 0.027723515 0.69666862
-0.037635818 0.024529045 0.69913632
-0.039176058 0.021620084 0.70144027
-0.061968088 0.01642612 0.73144096
-0.064035624 0.018455556 0.73416007
-0.03889031 0.02906129 0.69454801
-0.040619709 0.026345333 0.69581306
-0.068328872 0.019910175 0.73244101
-0.069536455 0.022046184 0.73506391
-0.041967127 0.031182185 0.69200164
-0.044172704 0.028681228 0.69282138
-0.072537832 0.022082111 0.73037142
-0.073129654 0.023967326 0.73317897
-0.045455497 0.03371435 0.68985045
-0.047829229 0.031426121 0.69051999
-0.07624422 0.024856839 0.72809863
-0.076555245 0.026454842 0.73091525
-0.048869878 0.036542401 0.68831569
-0.051612854 0.034549516 0.68892312
-0.079304516 0.028062204 0.725591
-0.079391487 0.029372435 0.72883826
-0.051274061 0.038653098 0.68758136
-0.05519798 0.037531301 0.68814415
-0.058876216 0.036262907 0.68910319
-0.081525743 0.030977469 0.71923894
-0.081641302 0.031503271 0.72307509
-0.081303835 0.03191264 0.72707021
-0.058247101 0.040728226 0.68783349
-0.061943762 0.039555281 0.68910122
-0.065866485 0.038335685 0.69093806
-0.082148038 0.034609299 0.7123946
-0.082895793 0.034511723 0.71692634
-0.083300591 0.034933381 0.72083163
-0.064487249 0.04258506 0.68945462
-0.068130597 0.041567862 0.69145519
-0.072042525 0.040688839 0.69423687
-0.075702988 0.039765596 0.69778419
-0.07879328 0.039110363 0.70185637
-0.081213504 0.038449585 0.70644099
-0.082839385 0.03820473 0.71085608
-0.083838686 0.038071185 0.71498781
-0.070453569 0.044673406 0.69242591
-0.073413201 0.043774169 0.69478357
-0.076620825 0.043068137 0.69801736
-0.079368584 0.042299621 0.70168805
-0.081537016 0.041884441 0.70549309
-0.082947291 0.041811701 0.70869333
-0.040124401 0.016262079 0.71102899
-0.04172527 0.015060868 0.7136364
-0.0442972 0.01382751 0.71722674
-0.047154624 0.013171259 0.72097915
-0.050099365 0.013143383 0.72455245
-0.052340187 0.013515692 0.72715455
-0.040056378 0.019184332 0.70444703
-0.041577265 0.017184261 0.70736039
-0.044518992 0.015078858 0.71082449
-0.047653347 0.013684183 0.71432418
-0.050795645 0.012957707 0.71845311
-0.053454056 0.013027944 0.72270083
-0.056174185 0.013776142 0.72661567
-0.058884233 0.014830656 0.72925246
-0.042193934 0.020391492 0.70141232
-0.045262225 0.017754819 0.70416069
-0.04737597 0.015606068 0.70775282
-0.048817977 0.014291465 0.71095103
-0.054333739 0.013003156 0.71815062
-0.057195447 0.013317391 0.72082955
-0.060348064 0.014262967 0.72423446
-0.062517419 0.015682146 0.72828948
-0.065241285 0.017324746 0.73032981
-0.043446232 0.024287054 0.69644409
-0.045628257 0.021830916 0.6983521
-0.047915518 0.019502483 0.7006315
-0.064838611 0.015628874 0.72275907
-0.066705696 0.016988236 0.72603542
-0.068258852 0.018578742 0.72916615
-0.046607226 0.026411619 0.69384861
-0.049512163 0.023742 0.69571441
-0.067733541 0.016939564 0.72188061
-0.070567235 0.018889431 0.72353607
-0.072042674 0.020648915 0.72733408
-0.049847797 0.029011097 0.69167072
-0.053159684 0.026461331 0.69341314
-0.056885567 0.026167095 0.6940195
-0.074160494 0.021531092 0.72112292
-0.075386271 0.023135129 0.7252174
-0.05336985 0.031734936 0.69015759
-0.056446657 0.029847242 0.69155467
-0.059787437 0.028275963 0.69325948
-0.076561689 0.02442926 0.7153179
-0.077416182 0.024925545 0.71929181
-0.078283593 0.02605046 0.72288382
-0.055870619 0.033811603 0.68942881
-0.059643414 0.033407316 0.69042403
-0.06331747 0.031175431 0.69279444
-0.067427993 0.030548986 0.69526839
-0.070206016 0.030089635 0.69751674
-0.075630933 0.028962743 0.70445478
-0.077203616 0.028217744 0.70826489
-0.078473538 0.027728364 0.71265137
-0.080027744 0.028673815 0.71740001
-0.062607646 0.035907228 0.69030845
-0.066092573 0.035295084 0.69212013
-0.069692306 0.033889934 0.69493842
-0.072980098 0.032489609 0.6984545
-0.076031849 0.031795852 0.70246106
-0.078702644 0.031749383 0.70688504
-0.080613688 0.031913623 0.71138716
-0.081438348 0.031584188 0.71523517
-0.071539752 0.037242536 0.69480973
-0.074741989 0.036453504 0.69801813
-0.07766594 0.035897147 0.70180506
-0.079893634 0.03525205 0.70586497
-0.081125677 0.034847327 0.70886928
-0.050975773 0.013478555 0.7138359
-0.052220307 0.013165969 0.7156598
-0.048534378 0.017230075 0.70401126
-0.049919009 0.015607765 0.70720023
-0.052322082 0.014234278 0.71097612
-0.055283733 0.013543729 0.71485889
-0.058503076 0.013628781 0.7185151
-0.061010655 0.014155287 0.72090596
-0.050470099 0.018727917 0.70144492
-0.053268973 0.016905129 0.7045055
-0.056490302 0.015588168 0.70809126
-0.059508383 0.014896739 0.71204275
-0.062256299 0.014859647 0.71628773
-0.064581953 0.015454728 0.72010005
-0.052262131 0.022762027 0.69648308
-0.053499889 0.020986799 0.6985572
-0.05706865 0.018959831 0.70186967
-0.060327705 0.017647786 0.70545506
-0.063331433 0.016906291 0.70951623
-0.06607914 0.016866371 0.71374959
-0.068448894 0.017447837 0.71836466
-0.070275538 0.018446663 0.72057647
-0.053984996 0.023965767 0.69544107
-0.057114892 0.023629991 0.69633418
-0.060650274 0.021588923 0.6996575
-0.063962981 0.020273114 0.70331568
-0.067021601 0.019616224 0.70727211
-0.069741502 0.01955599 0.71157271
-0.072136387 0.020174293 0.71614665
-0.072540402 0.020110156 0.71911132
-0.060761619 0.026332099 0.69503093
-0.063947901 0.024928056 0.69769073
-0.067383938 0.023641225 0.70137626
-0.070287704 0.022864103 0.70538139
-0.073057421 0.022880265 0.70966351
-0.074855968 0.02307494 0.71367836
-0.063749216 0.028513841 0.69457608
-0.066813678 0.028205466 0.69655114
-0.070361547 0.027552133 0.69982374
-0.073262393 0.026830345 0.70372385
-0.075450212 0.026243545 0.70790464
-0.07643801 0.025469951 0.711501
-0.072416425 0.029729992 0.69982022
-0.074177139 0.029327434 0.70213187
