# .PCD v0.7 - Point Cloud Data file format
VERSION 0.7
FIELDS x y z
SIZE 4 4 4
TYPE F F F
COUNT 1 1 1
WIDTH 1190
HEIGHT 1
VIEWPOINT 0 0 0 1 0 0 0
POINTS 1190
DATA ascii
0.29315239 -0.12869874 0.99700415
0.32653302 -0.12854223 0.99858147
0.28406432 -0.12395568 0.99658316
0.28514281 -0.12338945 0.99658304
0.29276538 -0.12676305 0.99709642
0.32746592 -0.12644726 0.9986611
0.33462402 -0.12379768 0.99884981
0.33583146 -0.1237364 0.99905163
0.2885299 -0.11902793 0.99704057
0.2917726 -0.11860777 0.99699634
0.29706693 -0.11873855 0.99762189
0.32323891 -0.11858355 0.99873275
0.32956338 -0.1183241 0.99883407
0.33223692 -0.11985658 0.99895823
0.33545914 -0.12266958 0.99904561
0.28870377 -0.11738556 0.99704295
0.29253757 -0.11752656 0.99702507
0.29665637 -0.1169291 0.99748033
0.32345772 -0.11689947 0.9987722
0.32797706 -0.11708817 0.99863344
0.33131394 -0.11711068 0.99901021
0.294478 -0.14838021 0.99233353
0.29761839 -0.14855374 0.99285829
0.32318267 -0.14826725 0.99388522
0.32586572 -0.14811593 0.99377626
0.29309523 -0.14533035 0.99409992
0.29782522 -0.14608552 0.99448031
0.30093807 -0.14467037 0.99333328
0.31965029 -0.14462148 0.99384451
0.32241035 -0.14599949 0.99525058
0.32718015 -0.14533347 0.99552089
0.29004222 -0.13874145 0.99262249
0.29179108 -0.14051813 0.99431455
0.29799426 -0.14003541 0.99483943
0.30062261 -0.14110363 0.99322951
0.31971925 -0.14191006 0.99366105
0.32233161 -0.14042647 0.99576914
0.32846665 -0.14043678 0.99595892
0.33030185 -0.13813779 0.99415845
0.28946963 -0.13600796 0.99329042
0.29259062 -0.13544558 0.99552572
0.2984021 -0.13556062 0.99370921
0.32225326 -0.13574144 0.99478906
0.32774532 -0.13577265 0.99699378
0.33075738 -0.13533083 0.99519926
0.28819793 -0.1302487 0.99411297
0.2922256 -0.13077974 0.99645478
0.29904214 -0.13025846 0.99425238
0.32164943 -0.13020574 0.99524856
0.32772282 -0.13081622 0.99804145
0.33165625 -0.13030566 0.99588323
0.28392744 -0.12456724 0.99415576
0.28713471 -0.12460256 0.99445009
0.29234618 -0.12440681 0.99632269
0.29893059 -0.12579529 0.99480808
0.3215853 -0.12573953 0.99588215
0.32854977 -0.12494177 0.99835366
0.33310431 -0.12481895 0.99636841
0.33611169 -0.12426081 0.99664921
0.28410774 -0.12259272 0.99503034
0.28740662 -0.12053012 0.99413478
0.29284042 -0.12057367 0.99429619
0.29819632 -0.12010536 0.99442106
0.32221332 -0.11992992 0.99551606
0.32727283 -0.12038273 0.99600095
0.33276525 -0.12077947 0.99622929
0.3358413 -0.12229498 0.99734145
0.28819183 -0.11658497 0.99500895
0.29316905 -0.11690149 0.99511617
0.29705212 -0.11599328 0.995116
0.32332098 -0.11584618 0.99625391
0.32725886 -0.11668261 0.99657887
0.3318069 -0.11623152 0.99701655
0.29445958 -0.14849657 0.98937207
0.29771855 -0.14879468 0.98955446
0.32334307 -0.14843267 0.99070668
0.32607001 -0.1483196 0.99139106
0.29274049 -0.14581594 0.98917478
0.30010581 -0.14772548 0.98896086
0.30142799 -0.14523986 0.99008119
0.31960884 -0.14500143 0.99097204
0.32112175 -0.14746793 0.98976326
0.32768014 -0.14594747 0.99055767
0.29019481 -0.13844834 0.99109769
0.29121029 -0.14068004 0.98924929
0.30016723 -0.13855593 0.98915529
0.30104554 -0.14084159 0.9898659
0.31978473 -0.14132273 0.99057353
0.32052124 -0.13898727 0.99057448
0.3293097 -0.14047305 0.99086112
0.33024344 -0.13804661 0.99318248
0.28980032 -0.13519166 0.98940539
0.29125834 -0.13543878 0.98833019
0.29928616 -0.13511166 0.99009597
0.32156038 -0.13508873 0.99106848
0.32976228 -0.13577177 0.99057484
0.33065665 -0.13475218 0.99155444
0.28865808 -0.1303785 0.99010068
0.29281917 -0.13042328 0.9884305
0.29788765 -0.13062139 0.98995423
0.32281432 -0.13086531 0.99104333
0.32786113 -0.13032982 0.98997271
0.33159232 -0.13055992 0.99196106
0.28810903 -0.12594022 0.99084246
0.292557 -0.12533967 0.99003935
0.29731572 -0.12522095 0.99049509
0.32340264 -0.1253013 0.99165481
0.32798275 -0.12530111 0.99165064
0.33214375 -0.1260538 0.99289525
0.28921801 -0.12128649 0.99119717
0.29151207 -0.12220393 0.99073291
0.29709265 -0.12130586 0.99126053
0.32352412 -0.12116107 0.9925102
0.32850271 -0.12174522 0.99258059
0.3308889 -0.12122363 0.99301815
0.29531586 -0.14812194 0.98661089
0.29709351 -0.1483116 0.98673558
0.29306507 -0.14491467 0.98456061
0.29864645 -0.14620006 0.98422712
0.30094549 -0.14396439 0.98581964
0.32022977 -0.14366594 0.98705047
0.32261235 -0.14587106 0.98562348
0.32758337 -0.14484368 0.98593783
0.29262206 -0.14020751 0.98432648
0.29891503 -0.13878313 0.98401397
0.30137688 -0.14108357 0.98470891
0.31988651 -0.14090966 0.98566389
0.32220224 -0.13873103 0.98473918
0.32858846 -0.14036052 0.98600984
0.29359084 -0.13608037 0.98577702
0.29762885 -0.13678257 0.98533857
0.32352567 -0.13642155 0.98657781
0.32740101 -0.13600987 0.987293
0.2948789 -0.14400838 0.98007727
0.29810503 -0.1450263 0.979734
0.32356966 -0.14471567 0.98088878
0.32658243 -0.14386649 0.98218554
0.29456311 -0.14092281 0.97981274
0.29889718 -0.14016463 0.97993994
0.30091313 -0.1412192 0.98161697
0.32049912 -0.14120795 0.98265284
0.32252729 -0.14004809 0.98119253
0.32699522 -0.14081047 0.98136425
0.29660642 -0.13787106 0.97774124
0.3243764 -0.13772056 0.97943974
0.32590032 -0.13755746 0.97902399
0.29585776 -0.14313853 0.97536385
0.29802597 -0.14405583 0.97488004
0.32405561 -0.14391017 0.97614652
0.294597 -0.14059132 0.97431171
0.29974204 -0.1408931 0.97442961
0.32233185 -0.14086276 0.9754473
0.32734826 -0.14070916 0.97582352
0.2947526 -0.13667774 0.97410363
0.29804593 -0.13654839 0.97435719
0.32360724 -0.13609396 0.97511035
0.32728016 -0.1364949 0.97574061
0.29834756 -0.14340891 0.97038543
0.32391384 -0.14324215 0.97209579
0.29434547 -0.14052752 0.96932077
0.29948542 -0.14166947 0.96939051
0.30184492 -0.13951224 0.96889573
0.32058331 -0.13946904 0.96958846
0.32343042 -0.14176546 0.97048688
0.32805115 -0.1403814 0.97072262
0.29400176 -0.13534153 0.96943736
0.2994644 -0.1348578 0.97041386
0.30190367 -0.1366072 0.96881092
0.32053965 -0.13614072 0.96976191
0.32291335 -0.13450177 0.97174227
0.32860851 -0.13542387 0.97106498
0.29510698 -0.13237719 0.96775639
0.29831243 -0.13236922 0.96805501
0.32393661 -0.13206634 0.96924168
0.32740584 -0.13225195 0.96970773
0.29405382 -0.14054792 0.96442717
0.29921237 -0.14233175 0.96465737
0.30262387 -0.13996944 0.9646346
0.32018191 -0.13981564 0.96560997
0.32374835 -0.14203961 0.96580726
0.32874984 -0.14037329 0.96584284
0.29257029 -0.1353184 0.96441275
0.30317259 -0.13589492 0.96488702
0.31955221 -0.1357284 0.96578616
0.33037072 -0.1351821 0.96614861
0.2944091 -0.13067222 0.96412194
0.29883453 -0.12989463 0.9646548
0.30251792 -0.1311233 0.96366
0.32042611 -0.13120557 0.96518141
0.32425341 -0.12959635 0.96601444
0.32869339 -0.13052081 0.96571064
0.29644963 -0.12750553 0.96218824
0.29759479 -0.12767392 0.96220732
0.3213059 -0.12797599 0.96319544
0.32483265 -0.12745331 0.96367401
0.32761717 -0.12762938 0.96374071
0.29476225 -0.14012434 0.95958465
0.29943812 -0.14119574 0.95971119
0.30281308 -0.13938095 0.96003556
0.32058045 -0.13935906 0.96099728
0.32399279 -0.14087203 0.96091384
0.32851756 -0.13982095 0.96115351
0.29230189 -0.13549946 0.95952737
0.30379719 -0.13564733 0.95958483
0.31940275 -0.13559708 0.96039069
0.33095035 -0.13547781 0.96082532
0.2927672 -0.13046187 0.95938891
0.29924628 -0.12802729 0.9620567
0.30353355 -0.13097115 0.95962203
0.31958702 -0.1308378 0.96047318
0.330567 -0.1301612 0.9613573
0.29491994 -0.12589282 0.95932269
0.29927337 -0.12511751 0.95945662
0.3023698 -0.1268791 0.95904326
0.32087138 -0.12668793 0.96010995
0.32380459 -0.12486868 0.96058846
0.32869953 -0.12576404 0.96067458
0.29587698 -0.12203795 0.95767218
0.29819188 -0.12178724 0.95797074
0.32506046 -0.12172353 0.95938241
0.3278437 -0.12197071 0.95912516
0.29576159 -0.13868785 0.95623416
0.29933605 -0.13906209 0.95624691
0.30232069 -0.13824259 0.95675266
0.3243632 -0.1387191 0.95743787
0.32768872 -0.13865685 0.95798498
0.29472426 -0.13522199 0.95487583
0.29960731 -0.13577014 0.95385617
0.30298561 -0.13523272 0.95569319
0.3207176 -0.13541478 0.95671761
0.32454246 -0.13560835 0.95514894
0.3289538 -0.13527544 0.95666188
0.29365394 -0.13084866 0.95416266
0.29995024 -0.1323494 0.95243841
0.30330569 -0.1307071 0.95514977
0.32038918 -0.13071547 0.95577025
0.32468644 -0.13195983 0.95359778
0.32996851 -0.13069232 0.95580053
0.29356232 -0.12528808 0.95456749
0.3014034 -0.12427334 0.95606136
0.30250618 -0.12567081 0.95419437
0.32120609 -0.12527846 0.95524371
0.32207417 -0.12447844 0.95740914
0.33028352 -0.12536047 0.95621234
0.29510501 -0.12068905 0.95426178
0.29945087 -0.11973217 0.95482552
0.30219039 -0.12198593 0.95363253
0.32153159 -0.12186211 0.95479882
0.32395265 -0.11966686 0.95627648
0.32877842 -0.12070443 0.95581675
0.29795438 -0.11792072 0.95261043
0.3258628 -0.11771543 0.95450836
0.32708728 -0.11784083 0.95453477
0.29583108 -0.12919188 0.94976807
0.2994734 -0.1297534 0.95014191
0.30282912 -0.12913345 0.94994146
0.32138172 -0.12920465 0.95058751
0.32475787 -0.12957576 0.95132941
0.32832348 -0.12889396 0.95131582
0.29407978 -0.12511848 0.9494465
0.29863396 -0.12793957 0.95012224
0.3031894 -0.12543537 0.95006418
0.32081038 -0.12546974 0.95090348
0.32537583 -0.12777579 0.95124859
0.33004445 -0.12539721 0.95108938
0.29538548 -0.12059416 0.9496997
0.30001819 -0.11918668 0.94982648
0.30282119 -0.12187595 0.94989014
0.32128352 -0.1214896 0.95089889
0.32436553 -0.11893023 0.95055538
0.3289507 -0.12064934 0.95120251
0.2980735 -0.11789739 0.95135385
0.32509556 -0.11773794 0.95256466
0.32754663 -0.11796833 0.95310861
0.30196166 -0.14862217 0.94336474
0.30505836 -0.14944501 0.94380391
0.31001908 -0.14986451 0.94390696
0.31480277 -0.14988993 0.94437587
0.31973335 -0.14869501 0.94462895
0.32251874 -0.14824766 0.94352663
0.29991329 -0.14552808 0.94266903
0.32111487 -0.14743879 0.94459975
0.32477197 -0.14545183 0.94461972
0.3277736 -0.14334953 0.94403303
0.29790503 -0.14265108 0.94223589
0.32683271 -0.14248587 0.9438948
0.32842138 -0.14158466 0.94375831
0.29715016 -0.13371806 0.9428196
0.29957137 -0.13465387 0.94413608
0.304243 -0.1342871 0.94391966
0.3207846 -0.13395809 0.94486767
0.32532895 -0.13456634 0.94497043
0.32767671 -0.13343862 0.94419235
0.29600754 -0.13038565 0.94436347
0.29956961 -0.13242236 0.94638467
0.30555114 -0.13053069 0.94484091
0.31888127 -0.13027784 0.94542444
0.32520437 -0.13222586 0.94732618
0.32868448 -0.13006607 0.94582146
0.29468381 -0.12530506 0.94442785
0.30480143 -0.12538341 0.94515532
0.31949705 -0.12560354 0.94546008
0.32999802 -0.12535316 0.94585639
0.29616058 -0.1221548 0.94502842
0.29976118 -0.12125913 0.94479954
0.30324543 -0.12204849 0.9444865
0.32130939 -0.12173426 0.94551116
0.32491457 -0.12092 0.94605356
0.32870421 -0.12198335 0.94637638
0.30093634 -0.14902969 0.93932843
0.3050456 -0.1503811 0.94003993
0.31021142 -0.15097521 0.94016218
0.31490433 -0.15038405 0.94063473
0.32016206 -0.15000474 0.94057781
0.32309991 -0.14888316 0.94001836
0.29743293 -0.14356904 0.93973148
0.29979914 -0.1460236 0.94006038
0.30415002 -0.14663368 0.93912488
0.31041479 -0.14743848 0.93892968
0.31506655 -0.1473484 0.93927401
0.32011521 -0.14535734 0.94041944
0.32510972 -0.14600028 0.94130224
0.32815698 -0.14351621 0.94060379
0.29667643 -0.14073333 0.94019216
0.30037525 -0.14023076 0.93950534
0.30483514 -0.13950361 0.93877107
0.30785358 -0.13892898 0.93765479
0.3206242 -0.1397406 0.93934995
0.32465523 -0.14021045 0.94091916
0.32923615 -0.1405599 0.94114745
0.29613891 -0.13520852 0.93915087
0.29937246 -0.13714187 0.94095272
0.30541292 -0.13630319 0.94127846
0.30831555 -0.13484913 0.93957698
0.31696185 -0.13498645 0.94000143
0.3196159 -0.13620214 0.94178438
0.32608992 -0.13696696 0.94192243
0.3295154 -0.13490674 0.94106656
0.29531282 -0.13109677 0.93880808
0.30692863 -0.12914264 0.94023931
0.30788714 -0.13160411 0.94015038
0.31726849 -0.13149007 0.94036776
0.31806734 -0.12905018 0.94058645
0.33005154 -0.13072258 0.94037396
0.29597613 -0.12538485 0.93968958
0.29960409 -0.12389026 0.93870032
0.304811 -0.12540329 0.94004399
0.32001024 -0.12551087 0.94060004
0.32565376 -0.12370701 0.93972617
0.32923061 -0.12516373 0.94123638
0.30087292 -0.12226723 0.94097471
0.30316392 -0.12254109 0.94163549
0.32197279 -0.12239135 0.94163859
0.32430398 -0.12205642 0.9419536
0.3280136 -0.12273651 0.94276857
0.30102697 -0.1492178 0.93475527
0.30523336 -0.15153024 0.93487251
0.31034026 -0.1522806 0.93498999
0.31505203 -0.15183143 0.93558335
0.32012719 -0.15111859 0.93587035
0.32436499 -0.14901416 0.93574107
0.29710439 -0.14500156 0.93403894
0.29861522 -0.14707495 0.93469912
0.30573004 -0.1445546 0.93517345
0.30995739 -0.14574601 0.9344582
0.31531289 -0.14577806 0.93540126
0.31896105 -0.14371188 0.93508589
0.32670522 -0.14652765 0.93604982
0.3287127 -0.14423409 0.93563622
0.29592434 -0.14037745 0.93381858
0.30272204 -0.14253286 0.93710697
0.30596188 -0.14183544 0.93612772
0.3090128 -0.13966236 0.93523675
0.31666645 -0.13940844 0.93562508
0.31991497 -0.14171089 0.93685234
0.32988667 -0.14087421 0.93582278
0.29496777 -0.13534716 0.93455219
0.30922654 -0.13578862 0.93573952
0.3164652 -0.13538799 0.93585908
0.33107623 -0.13555594 0.93571335
0.29489669 -0.13004084 0.93518156
0.30700272 -0.12975018 0.93471879
0.30962723 -0.12966771 0.9348079
0.3151122 -0.12968123 0.93503177
0.31881568 -0.12953791 0.93534499
0.33092847 -0.13040301 0.93610156
0.2962952 -0.1260168 0.93488079
0.30022424 -0.12520823 0.9347977
0.30525869 -0.12587252 0.93566823
0.31033251 -0.12591463 0.93576127
0.31534481 -0.12673543 0.93582201
0.3207204 -0.12546851 0.93591577
0.32558665 -0.12484574 0.93585026
0.32930729 -0.12668231 0.93678862
0.31120276 -0.15324363 0.93014413
0.31493738 -0.15318805 0.92884278
0.30140764 -0.14937916 0.92961824
0.30559322 -0.15177473 0.92965263
0.31005698 -0.15252742 0.93013859
0.31521687 -0.1523857 0.93097663
0.32117653 -0.15176266 0.93007356
0.32518798 -0.14953485 0.93077588
0.29746777 -0.14472389 0.92952913
0.29887652 -0.14691167 0.92932391
0.30769375 -0.14397302 0.93202394
0.31064779 -0.14396393 0.93001539
0.31531575 -0.14386156 0.93048447
0.32738009 -0.14718151 0.93114042
0.32902163 -0.14484678 0.93054217
0.29645941 -0.14083631 0.92975479
0.31014833 -0.1404245 0.93004584
0.31601787 -0.14074463 0.93011272
0.33042359 -0.14058869 0.93087143
0.29597962 -0.13538112 0.92924136
0.30919427 -0.13559219 0.92947364
0.31695986 -0.1357398 0.93025446
0.31815866 -0.13341329 0.92843419
0.33119333 -0.13514048 0.93115687
0.29618385 -0.13078551 0.92984861
0.29989129 -0.12854725 0.92809641
0.30694121 -0.13123989 0.93017423
0.31107318 -0.1303795 0.93004775
0.31568736 -0.12958434 0.93041044
0.3187829 -0.13124593 0.93074906
0.32762957 -0.12910314 0.92945409
0.33022094 -0.13071589 0.93127227
0.29777682 -0.12741444 0.93104172
0.30078456 -0.12723996 0.93059522
0.30577767 -0.12718961 0.93042648
0.30990145 -0.12738967 0.93062693
0.31520811 -0.1277722 0.93099076
0.32054162 -0.12668349 0.93097985
0.32504714 -0.12731324 0.93114197
0.32818404 -0.12717235 0.93277299
0.30779147 -0.15349036 0.92275149
0.31102076 -0.15340242 0.92450887
0.31468418 -0.15334305 0.92462128
0.31887701 -0.15314005 0.92354894
0.30194068 -0.14968157 0.92436767
0.30534315 -0.15162502 0.92510676
0.31078893 -0.15268183 0.92507356
0.31702408 -0.15262407 0.92470753
0.32088441 -0.15194593 0.92565894
0.32536826 -0.14952049 0.92584717
0.29786599 -0.14399719 0.92443568
0.29927737 -0.14643195 0.92420989
0.32771432 -0.14705747 0.92552757
0.3289645 -0.14449041 0.92598182
0.29745197 -0.14041531 0.92446017
0.31162879 -0.13992041 0.92588371
0.3150031 -0.13975589 0.92608452
0.32992065 -0.14035389 0.92584336
0.29750228 -0.1357367 0.92431891
0.29874918 -0.13317038 0.92295265
0.31059271 -0.13538155 0.92570651
0.31591299 -0.13561039 0.92593449
0.32991135 -0.13524982 0.92559445
0.29778287 -0.13168566 0.92575324
0.30048048 -0.13014026 0.92452717
0.30558145 -0.12863135 0.92490387
0.31113878 -0.12893578 0.92499018
0.31575125 -0.12827915 0.92515713
0.3211602 -0.12872677 0.92447454
0.32594946 -0.12993634 0.92526847
0.32921377 -0.13134611 0.92662495
0.30527341 -0.12760085 0.9258675
0.3098157 -0.12763681 0.92579609
0.31647742 -0.12779832 0.92492121
0.32068527 -0.12750617 0.92672062
0.32380891 -0.12787645 0.92736465
0.30278376 -0.15340623 0.91915625
0.30610904 -0.15426405 0.91973996
0.3109251 -0.15506411 0.9201231
0.31600821 -0.15471444 0.92047071
0.32083815 -0.15412898 0.92044824
0.32410333 -0.153411 0.92066085
0.30094171 -0.15062112 0.91977733
0.30419415 -0.15268244 0.92079276
0.31675681 -0.15291809 0.92274642
0.32201612 -0.15244414 0.9224298
0.3262178 -0.15051408 0.92099613
0.29791501 -0.14492142 0.91936201
0.29900858 -0.14617601 0.92010963
0.32760853 -0.14620456 0.92264879
0.32918298 -0.14510056 0.92054307
0.2978923 -0.14045669 0.91950655
0.32950225 -0.14020878 0.9212566
0.29822031 -0.13703211 0.91976255
0.29967535 -0.13463107 0.91921365
0.32732344 -0.13430022 0.92028552
0.32916513 -0.13655978 0.921471
0.30219534 -0.13156295 0.9195773
0.30586624 -0.12975554 0.91982818
0.31042153 -0.12864517 0.92069173
0.31627634 -0.12860951 0.9212091
0.32136473 -0.12961763 0.92036229
0.3251048 -0.13150696 0.92108506
0.31173617 -0.12761621 0.91877633
0.31595883 -0.12761481 0.91940022
0.31918278 -0.12785476 0.91909897
0.30673987 -0.15393856 0.91595507
0.31130365 -0.15432286 0.91516876
0.31609705 -0.15455191 0.91539443
0.3205395 -0.15382029 0.91650391
0.3018125 -0.14943217 0.91531461
0.30554935 -0.15157445 0.91426092
0.3095485 -0.15278411 0.91318548
0.31821707 -0.15278375 0.91353709
0.32180539 -0.15184277 0.91500604
0.32536274 -0.14952917 0.91598082
0.32866639 -0.14823321 0.91800427
0.29837993 -0.14506736 0.91589391
0.3009136 -0.14572774 0.91434586
0.32644293 -0.14596173 0.91465598
0.32922789 -0.14493945 0.91716254
0.29845825 -0.14035909 0.91626632
0.30049956 -0.14058562 0.91352326
0.32698968 -0.14023878 0.91441792
0.3291465 -0.14114717 0.91711497
0.298572 -0.13749088 0.91602945
0.30098936 -0.1355305 0.91450268
0.30530205 -0.13377605 0.91345596
0.32244417 -0.13369414 0.91408873
0.32659581 -0.13548321 0.91503596
0.32907683 -0.1368698 0.91802096
0.30240631 -0.13185923 0.91543502
0.30637637 -0.13045272 0.91543633
0.31118628 -0.13019978 0.915272
0.31646749 -0.13022077 0.91546363
0.32110044 -0.13030216 0.91590124
0.32526755 -0.13170618 0.91612971
0.31077737 -0.12761632 0.91716558
0.31603768 -0.12765504 0.91748083
0.31959239 -0.12793773 0.91770089
0.31183732 -0.078600548 0.91287088
0.31564078 -0.078657664 0.91333812
0.31205547 -0.075197086 0.91326582
0.31566116 -0.075391874 0.91360474
0.31301397 -0.072308578 0.9131428
0.31485888 -0.072246976 0.91340345
0.31277084 -0.15386671 0.91023666
0.31529295 -0.15394726 0.91068816
0.30340278 -0.14837442 0.91161901
0.30640543 -0.15021257 0.90992272
0.3100585 -0.15230632 0.91004092
0.31792855 -0.15230444 0.91000533
0.32117546 -0.15050051 0.91059023
0.32421336 -0.1483337 0.91154039
0.30290183 -0.14527892 0.91066527
0.30457193 -0.14595681 0.90808213
0.32373461 -0.14593221 0.90900874
0.32500511 -0.14521331 0.91144723
0.30269691 -0.1406806 0.91119432
0.30527684 -0.14001772 0.9086898
0.32291737 -0.139963 0.90960312
0.32507789 -0.14073014 0.91199231
0.30316904 -0.13715637 0.91196072
0.30665374 -0.13557094 0.91016144
0.31181076 -0.13357891 0.90849817
0.31647509 -0.13350399 0.90865737
0.32130939 -0.1356367 0.91075426
0.32440284 -0.13665549 0.91292775
0.30822301 -0.13254479 0.91180569
0.31154457 -0.13207 0.91111773
0.31605777 -0.13216949 0.91104293
0.31989077 -0.13255188 0.91248351
0.29815736 -0.11321125 0.90736288
0.29916927 -0.11342351 0.90722024
0.32880494 -0.11336052 0.90848905
0.32988328 -0.11331905 0.90876526
0.29798207 -0.11083134 0.90766007
0.30099121 -0.11009515 0.90776837
0.32401764 -0.1082937 0.90842903
0.32712528 -0.11013636 0.90893531
0.33002809 -0.11073893 0.90908647
0.29873496 -0.10706776 0.9074226
0.30185151 -0.10562523 0.90799099
0.30499193 -0.10496643 0.90805161
0.32304853 -0.10493957 0.90887684
0.32622477 -0.10553839 0.90908027
0.32933357 -0.1071353 0.90880787
0.30280581 -0.10143156 0.90785342
0.30650541 -0.10032734 0.90829504
0.30918226 -0.098539189 0.90801519
0.31884786 -0.098929435 0.90806276
0.32156941 -0.10028234 0.90902811
0.32524204 -0.10131149 0.9089728
0.30821764 -0.096267402 0.90827322
0.31075639 -0.095097274 0.90889329
0.31723592 -0.095036425 0.90907407
0.32035881 -0.096503273 0.90883964
0.30882025 -0.090069383 0.90792018
0.31171581 -0.09057302 0.90906167
0.31643584 -0.09086594 0.90898228
0.31931821 -0.090392686 0.90837216
0.30899644 -0.087694317 0.90772223
0.31126612 -0.085376903 0.90951991
0.31631872 -0.085095257 0.90945959
0.31917727 -0.087476432 0.90847254
0.31203529 -0.080210395 0.91023433
0.31583089 -0.080264308 0.91026038
0.31207311 -0.075902507 0.91197574
0.31549537 -0.075779244 0.91223812
0.31271699 -0.072325431 0.91216761
0.31499958 -0.072352581 0.91249454
0.3129366 -0.15353884 0.90500486
0.31528822 -0.1536373 0.90532154
0.30738929 -0.14923638 0.90495801
0.31070653 -0.15174013 0.90510219
0.31786788 -0.15156873 0.90519214
0.32080269 -0.14945188 0.90585726
0.30365631 -0.14379123 0.90300649
0.30534625 -0.14590503 0.90448356
0.32311255 -0.14590213 0.90556884
0.32464772 -0.1437321 0.90410209
0.30325028 -0.14031394 0.9034124
0.30548182 -0.14006673 0.90579927
0.32286653 -0.14004318 0.9065125
0.32516739 -0.14025059 0.90439534
0.30395159 -0.13756476 0.90349942
0.30714765 -0.13579248 0.90471923
0.31022298 -0.13378078 0.90638632
0.31833512 -0.13375159 0.9068653
0.32124063 -0.13564974 0.90537071
0.3245303 -0.13759121 0.9043538
0.30810645 -0.13253467 0.9031232
0.31182283 -0.1318495 0.90497196
0.31670281 -0.1319385 0.90540487
0.32029676 -0.13242233 0.90370131
0.29705405 -0.11471811 0.90418947
0.30022138 -0.11383558 0.90512621
0.32794714 -0.11385524 0.90627235
0.33132935 -0.11472622 0.90574867
0.29615676 -0.1102836 0.90480393
0.30251101 -0.11147634 0.90521729
0.30544287 -0.10940077 0.90448576
0.32308149 -0.10957071 0.90532523
0.32591957 -0.11167051 0.90635622
0.33212861 -0.11036465 0.90638286
0.29774454 -0.10552484 0.90414989
0.29978403 -0.10372572 0.90620685
0.30721977 -0.10568273 0.90526515
0.32081565 -0.1055932 0.90581679
0.32859296 -0.1038705 0.90746862
0.33068174 -0.10550572 0.90556514
0.29917347 -0.10267027 0.90292823
0.30153319 -0.10041092 0.90439427
0.30816463 -0.10169674 0.90614253
0.30992374 -0.099694267 0.90526044
0.31835672 -0.099949986 0.90561557
0.31989563 -0.10178982 0.90713882
0.32704902 -0.10049903 0.9057647
0.32942086 -0.1027775 0.90453571
0.30386493 -0.097706318 0.90380085
0.30678436 -0.095263168 0.90503794
0.31262749 -0.095395841 0.90533072
0.31575072 -0.095635369 0.9055962
0.32195869 -0.095071487 0.9057768
0.32470548 -0.097539589 0.90519595
0.30811602 -0.090329513 0.90495747
0.31406608 -0.091156721 0.90475613
0.31437275 -0.09071207 0.9046979
0.320577 -0.090361655 0.90560055
0.30816945 -0.085521832 0.90456778
0.31248182 -0.085047171 0.905599
0.31558675 -0.084899411 0.90550262
0.32028332 -0.085614465 0.90524834
0.30834496 -0.080737919 0.90422642
0.31205457 -0.080254264 0.90623301
0.31566551 -0.080320567 0.90563697
0.3199805 -0.0804535 0.90507233
0.30911985 -0.077561617 0.90394288
0.31193164 -0.07520134 0.90488029
0.31643021 -0.075125001 0.90547621
0.31970447 -0.07710427 0.90480894
0.31227201 -0.070519343 0.90490687
0.31606731 -0.070510752 0.90569967
0.31233516 -0.066524446 0.90480959
0.31618631 -0.066459738 0.90567166
0.31304362 -0.15370812 0.89995509
0.31590089 -0.15363693 0.90025401
0.30399936 -0.14866167 0.89828044
0.30769557 -0.14977823 0.89983141
0.3104963 -0.151546 0.90057093
0.31813133 -0.15165579 0.90094805
0.32136238 -0.14967591 0.90045696
0.3250176 -0.14848082 0.89952248
0.3030692 -0.14546655 0.89939624
0.30553541 -0.14732413 0.90159017
0.32299715 -0.14742476 0.90240586
0.32570156 -0.14550282 0.90046304
0.30260473 -0.14019589 0.90016168
0.30440328 -0.13804582 0.90218437
0.32428116 -0.13821736 0.902982
0.32626045 -0.1402633 0.90102249
0.30340016 -0.13598336 0.89920437
0.30539498 -0.13444647 0.90094668
0.32329941 -0.13435112 0.90175468
0.32541397 -0.13603394 0.90017658
0.30706915 -0.13132787 0.89955509
0.31168294 -0.12976214 0.90062374
0.31705472 -0.1297888 0.90099764
0.32189435 -0.13143848 0.90042639
0.31201926 -0.12781128 0.89802265
0.31650466 -0.12795699 0.8986131
0.29382768 -0.11850303 0.89698201
0.29632136 -0.11916007 0.89809793
0.32921088 -0.11831442 0.89881057
0.33222544 -0.11897653 0.8996768
0.33482185 -0.11850758 0.89882571
0.29343095 -0.11538322 0.89762837
0.29599568 -0.11629502 0.89989668
0.3013376 -0.1147479 0.89939094
0.32754755 -0.11509047 0.90045005
0.33269185 -0.11617368 0.90149605
0.33537412 -0.1154245 0.8995443
0.29396027 -0.11221128 0.89871323
0.29663768 -0.10981672 0.89948606
0.30228788 -0.1101326 0.89930147
0.30502334 -0.10897237 0.90098149
0.32350203 -0.10895071 0.90174335
0.3266581 -0.11015856 0.90031183
0.33232975 -0.10984945 0.90119541
0.33491302 -0.11228225 0.90035677
0.29757553 -0.10541004 0.90054244
0.30182391 -0.10600892 0.89876211
0.30647087 -0.10522906 0.90058267
0.32192117 -0.10483593 0.90126365
0.32709086 -0.10592961 0.89988995
0.33118698 -0.10540818 0.9020915
0.29909092 -0.10277918 0.90106082
0.30206898 -0.10083729 0.90046823
0.3066352 -0.10038666 0.90018153
0.30989316 -0.098805919 0.90204996
0.31891066 -0.099551648 0.90241355
0.32191989 -0.10043664 0.90090322
0.32672381 -0.10079719 0.90161204
0.32967699 -0.10280345 0.90284199
0.30782732 -0.095729113 0.90137631
0.31114835 -0.094737954 0.90083015
0.31741047 -0.094827965 0.90125871
0.32070282 -0.095172383 0.90190005
0.32438508 -0.097524546 0.90281391
0.30839533 -0.090452611 0.9000017
0.31368494 -0.091392703 0.90059453
0.31504059 -0.091320038 0.90069097
0.32096675 -0.090420917 0.90035599
0.308422 -0.0854166 0.90004712
0.31365371 -0.084911048 0.90035659
0.31530094 -0.085149243 0.90043783
0.32102612 -0.085484758 0.90053278
0.30893621 -0.081729069 0.90017235
0.31088427 -0.080035478 0.90042567
0.31496519 -0.080455258 0.89997107
0.32043144 -0.080775052 0.90075547
0.31219667 -0.076699264 0.90031451
0.31727862 -0.076438136 0.90035498
0.31979388 -0.077414468 0.89891219
0.31260738 -0.15363485 0.89503366
0.31655201 -0.15379031 0.89520514
0.30434877 -0.14876835 0.89480227
0.3069796 -0.15069097 0.89482325
0.31006792 -0.15247555 0.89576077
0.31919563 -0.15257052 0.8960219
0.322386 -0.15060622 0.89547491
0.32502636 -0.14856039 0.89580446
0.30292693 -0.14582342 0.89471608
0.32439497 -0.14791812 0.89767343
0.32630086 -0.14578021 0.89589238
0.3011772 -0.14058353 0.89483869
0.32798943 -0.14090315 0.89576185
0.29949412 -0.1357594 0.89258295
0.30158019 -0.13486442 0.89508069
0.32775235 -0.13497832 0.89621788
0.32989958 -0.13503662 0.89396751
0.30342698 -0.13096833 0.89386767
0.30624244 -0.12946865 0.89618754
0.32303664 -0.12966023 0.89709157
0.32584032 -0.13104238 0.8950575
0.29406756 -0.12346598 0.89253086
0.2964702 -0.12387547 0.8935622
0.30457541 -0.12781015 0.89262384
0.30707908 -0.12588543 0.89421058
0.31260943 -0.12530789 0.89510441
0.31707421 -0.12534331 0.89549512
0.32222578 -0.12585945 0.89496452
0.32700455 -0.12545612 0.89378339
0.33228269 -0.12369238 0.8948561
0.33481416 -0.12308048 0.89406478
0.29282269 -0.11999291 0.89434594
0.29677039 -0.12128395 0.89578104
0.30111796 -0.11992882 0.89388031
0.30920267 -0.12293555 0.89267498
0.32058054 -0.12273528 0.89305055
0.3278985 -0.11987308 0.89521956
0.33255425 -0.12149274 0.8971324
0.33601514 -0.11991162 0.89624625
0.29285672 -0.11603233 0.89474177
0.29601744 -0.11367455 0.89327925
0.30278161 -0.11557298 0.89503437
0.32626975 -0.1157607 0.89595026
0.33337384 -0.1137962 0.8948881
0.33616388 -0.1160329 0.89681053
0.2941145 -0.11262062 0.89625669
0.29796493 -0.11121371 0.89502501
0.30170128 -0.11132649 0.89503497
0.32765937 -0.1112645 0.89606148
0.33122945 -0.11100092 0.89690387
0.33495367 -0.11257316 0.89825779
0.30892369 -0.08964321 0.89555144
0.3122324 -0.090987131 0.89499146
0.31677994 -0.09070836 0.8951996
0.32076511 -0.089561149 0.89614546
0.30947471 -0.087428108 0.89517266
0.3115446 -0.084587157 0.8951807
0.31627235 -0.084004864 0.89517421
0.32030445 -0.085592389 0.8957302
0.30943364 -0.080876112 0.89707607
0.3120245 -0.080727972 0.89481413
0.31699735 -0.080910057 0.89551795
0.32033893 -0.080548942 0.89676219
0.3122021 -0.075431734 0.89520895
0.31718457 -0.074997731 0.89592922
0.32001862 -0.075890742 0.8968088
0.31259376 -0.070658609 0.89441526
0.31717369 -0.070340283 0.89526951
0.31264648 -0.066138625 0.89384544
0.31714281 -0.065932788 0.89439058
0.31286922 -0.15402257 0.89047754
0.3171483 -0.15419714 0.89068359
0.30474231 -0.14821534 0.89067894
0.30716908 -0.15030921 0.88995105
0.31077778 -0.15224247 0.89000928
0.3191486 -0.15234128 0.89009309
0.32251304 -0.15026648 0.89054543
0.32491025 -0.14804403 0.89032596
0.29912508 -0.14375368 0.88835937
0.30285206 -0.14563258 0.88962841
0.3248049 -0.14798112 0.88844246
0.32681981 -0.1456164 0.89078093
0.33070713 -0.14369278 0.88969153
0.29788655 -0.14041345 0.8888166
0.30049792 -0.14149334 0.89131224
0.32905036 -0.14124021 0.89263594
0.3318339 -0.14052548 0.89032388
0.29830915 -0.13552278 0.88959372
0.33136198 -0.13568109 0.89111567
0.29378819 -0.12833305 0.88725835
0.29852363 -0.12985836 0.88792998
0.30220556 -0.13001437 0.88950777
0.32771841 -0.12999329 0.8905738
0.33152825 -0.13006888 0.88938773
0.3358134 -0.12852268 0.88907081
0.29273239 -0.12505277 0.88881648
0.29755729 -0.12624836 0.89056808
0.3026377 -0.1256243 0.88917476
0.30539864 -0.12512499 0.89135253
0.3142218 -0.1233381 0.89088047
0.31530926 -0.12344846 0.89044076
0.32439539 -0.12507437 0.8919704
0.3272332 -0.12557663 0.8904466
0.33253732 -0.12627906 0.89187789
0.33679464 -0.12510909 0.89078736
0.2929022 -0.12055888 0.88938504
0.30209538 -0.12065506 0.88939971
0.30742496 -0.12196089 0.88949627
0.31225175 -0.12236546 0.88954067
0.31770694 -0.12225766 0.88993365
0.32282287 -0.12187625 0.89061475
0.32735693 -0.12064227 0.89064819
0.33655757 -0.12061575 0.89156705
0.29427943 -0.11713693 0.88925159
0.29743737 -0.11546645 0.88933098
0.30182517 -0.11535484 0.88979578
0.32784981 -0.11543658 0.89073265
0.33241168 -0.11545081 0.89116138
0.33545274 -0.11735576 0.89123458
0.29911181 -0.11262875 0.89180279
0.30100837 -0.11258224 0.89144498
0.31339636 -0.10849404 0.88820738
0.31584284 -0.10837482 0.8884114
0.32853365 -0.11266696 0.89246726
0.33051491 -0.1126098 0.89320332
0.31188342 -0.10437791 0.88924074
0.31663033 -0.10432768 0.88939327
0.31256303 -0.10191768 0.88911861
0.31639978 -0.10213053 0.88913059
0.30950379 -0.088541165 0.89221907
0.31186023 -0.088939898 0.89061356
0.31740171 -0.088860199 0.89126217
0.31986806 -0.088392437 0.8923381
0.30967557 -0.087459929 0.89172167
0.31262961 -0.085287295 0.88995403
0.31717059 -0.085171297 0.89006567
0.31999248 -0.086304232 0.89220524
0.31396034 -0.082331747 0.88836771
0.31736872 -0.082353815 0.88909304
0.31237239 -0.069615521 0.89203924
0.31767392 -0.068000302 0.89280421
0.3127073 -0.0660237 0.8914932
0.31716439 -0.065735519 0.89253652
0.3140316 -0.15376651 0.88692349
0.31648821 -0.15380706 0.88696766
0.30799562 -0.1494568 0.88579595
0.31233549 -0.1508186 0.88513267
0.31781524 -0.15107217 0.88515788
0.32220626 -0.14932586 0.8863796
0.29969499 -0.14365965 0.88637978
0.30254722 -0.14515807 0.88482326
0.30649751 -0.14710705 0.88403326
0.32399392 -0.14693257 0.88494867
0.3275817 -0.1450931 0.88601434
0.33023298 -0.14392646 0.88796741
0.29860821 -0.13995875 0.88480431
0.30080143 -0.14147125 0.88322377
0.32951209 -0.14144546 0.8846702
0.33153722 -0.13992177 0.88641798
0.29507235 -0.13381375 0.88207114
0.29635987 -0.13603945 0.88394159
0.33384895 -0.13593605 0.88577479
0.3352946 -0.1336087 0.88420749
0.2934024 -0.12958935 0.88372654
0.29683599 -0.1311743 0.88554209
0.30259126 -0.12838914 0.88697505
0.32722574 -0.12827782 0.88808608
0.33309972 -0.13126868 0.88735187
0.33668536 -0.12987733 0.8857761
0.2916863 -0.12537403 0.88421178
0.30307728 -0.12578842 0.88609076
0.31559926 -0.12298727 0.88438118
0.32691041 -0.12562828 0.88709116
0.33851647 -0.12548593 0.88649535
0.29247415 -0.12053259 0.88417876
0.30360821 -0.12021491 0.88540357
0.30750567 -0.12106586 0.88458985
0.31281006 -0.121563 0.88510036
0.31752765 -0.12140518 0.88532752
0.32271692 -0.12078049 0.88522387
0.32639414 -0.12046943 0.88647342
0.3377479 -0.12032698 0.88642234
0.29426402 -0.11722291 0.88460964
0.29735991 -0.11631069 0.88447154
0.30129093 -0.11690646 0.88504994
0.31330061 -0.1134027 0.88327235
0.31649992 -0.11348897 0.8835907
0.32889473 -0.11686618 0.88643825
0.33281314 -0.11636616 0.88609326
0.33588403 -0.11728434 0.88645858
0.30949172 -0.10903618 0.8843286
0.31240329 -0.11103761 0.88492244
0.31757313 -0.11062016 0.88525611
0.32033333 -0.1087264 0.88371444
0.30878565 -0.10551605 0.88496119
0.31035483 -0.10514274 0.88693911
0.31890592 -0.10546461 0.88685262
0.32122791 -0.10537133 0.88445997
0.30758858 -0.10003468 0.88410628
0.31201461 -0.0997269 0.88585639
0.31756514 -0.099856615 0.88607335
0.32212168 -0.10023034 0.88492423
0.30918193 -0.097762637 0.88288301
0.31340367 -0.096944556 0.88412637
0.31735787 -0.097218484 0.88407677
0.32086778 -0.097776458 0.88414425
0.31325203 -0.084429324 0.88613373
0.31724179 -0.084439129 0.88623714
0.31342474 -0.080596551 0.88492239
0.31712872 -0.08042372 0.88541931
0.31412563 -0.077405661 0.88385361
0.31748229 -0.077143654 0.88419938
0.31388786 -0.14868706 0.88129747
0.31699571 -0.1490227 0.88121796
0.30395266 -0.14413179 0.88048595
0.30760631 -0.14521396 0.87991309
0.31237116 -0.14680451 0.87945914
0.31888568 -0.14691734 0.87942195
0.32294381 -0.14523391 0.88062578
0.32650205 -0.14406514 0.88152391
0.29969788 -0.13854961 0.88097394
0.30235049 -0.14065786 0.87953502
0.30638564 -0.14245558 0.87766683
0.32441023 -0.14233989 0.87852371
0.32818922 -0.14057335 0.88065088
0.33071247 -0.13855612 0.88248646
0.29494888 -0.13364837 0.88049132
0.29759133 -0.13584152 0.87955862
0.30106857 -0.13781798 0.87796074
0.32999066 -0.13758205 0.87949073
0.33298212 -0.13588367 0.88121235
0.33574247 -0.13354315 0.88220721
0.29429376 -0.13046655 0.88023895
0.29705995 -0.13015555 0.87797886
0.33377254 -0.13008055 0.87960273
0.33642808 -0.13061988 0.88220483
0.29349154 -0.12520914 0.87928945
0.29764211 -0.12696151 0.87733388
0.30323991 -0.12354629 0.87774014
0.30855507 -0.12451367 0.87914401
0.31057525 -0.12346015 0.87932694
0.32035023 -0.12307269 0.87982035
0.32229385 -0.1241873 0.87961179
0.32803699 -0.12345464 0.8787455
0.33358309 -0.12672696 0.87899488
0.33722875 -0.12514594 0.88122702
0.29404119 -0.12077165 0.87955594
0.2978552 -0.11954734 0.87802655
0.30289769 -0.12030773 0.87919736
0.30756178 -0.12186237 0.88146937
0.31211808 -0.12042095 0.88073927
0.3185209 -0.11998052 0.88095409
0.32276872 -0.12191028 0.88188487
0.32797727 -0.1202096 0.88029301
0.33306116 -0.11958164 0.87971884
0.3367399 -0.12090845 0.88140982
0.29501146 -0.11774589 0.88181031
0.29787955 -0.11750728 0.88071364
0.30106533 -0.1174812 0.88109446
0.30984914 -0.11383386 0.87829626
0.31276891 -0.11545259 0.88014585
0.31782511 -0.11559812 0.88033688
0.32064807 -0.11378726 0.8788954
0.32934844 -0.11756252 0.88250613
0.33282018 -0.11756495 0.88232303
0.30879542 -0.11029971 0.87966406
0.31107083 -0.11226302 0.88110822
0.31902313 -0.1120356 0.88145286
0.32147321 -0.1101553 0.88009733
0.30693901 -0.10543126 0.87992841
0.32275379 -0.10532093 0.88072544
0.30526254 -0.10091233 0.88102269
0.30613407 -0.10072821 0.88035828
0.32305473 -0.10035431 0.8812415
0.30880514 -0.096917361 0.87987071
0.31274959 -0.094700158 0.88019353
0.31787136 -0.095012501 0.88029474
0.3210924 -0.0971407 0.88092685
0.31400344 -0.079581499 0.88180876
0.31691161 -0.079242818 0.88200521
0.31396928 -0.077398971 0.88120824
0.31743231 -0.077068143 0.88162333
0.3099232 -0.14311084 0.87744683
0.31402877 -0.14530635 0.87731218
0.31737757 -0.14555958 0.87739444
0.32069752 -0.14360431 0.87796271
0.30391514 -0.13933799 0.8766712
0.30785689 -0.14025363 0.87606972
0.31343982 -0.14056489 0.87507582
0.31811619 -0.14047717 0.87503892
0.32322723 -0.14021792 0.87687308
0.32683432 -0.13908361 0.87755656
0.2993688 -0.1341821 0.87586874
0.30285832 -0.13541707 0.87523985
0.30798361 -0.13540262 0.87413335
0.31321159 -0.13566571 0.87354529
0.31804356 -0.13562423 0.87360096
0.3232353 -0.13536158 0.87495965
0.32802197 -0.13534081 0.87638938
0.33175433 -0.13408734 0.87735128
0.29932818 -0.13115263 0.87576991
0.30322498 -0.13066497 0.87425482
0.3070271 -0.13084511 0.87292957
0.31536248 -0.13191049 0.87281007
0.31641427 -0.13297193 0.87288421
0.32392234 -0.13099536 0.87365812
0.32814759 -0.13063902 0.87546021
0.33195865 -0.13102446 0.87731165
0.29524574 -0.12354429 0.87670231
0.29835287 -0.12515515 0.87658525
0.3028833 -0.12552491 0.87564093
0.30829823 -0.12486681 0.87492669
0.31093907 -0.12403074 0.87271118
0.31998765 -0.12382147 0.87314218
0.32318285 -0.12490354 0.87536204
0.3281019 -0.12536044 0.87670702
0.3322047 -0.12527056 0.87807286
0.33556968 -0.12341345 0.87859994
0.29521799 -0.12221151 0.87685382
0.29734808 -0.12160735 0.87656295
0.31025663 -0.12206151 0.87526798
0.31131482 -0.12017 0.87435991
0.31948665 -0.12033492 0.87431049
0.32103425 -0.12196533 0.87566578
0.33387652 -0.12171774 0.87839973
0.30999666 -0.11510126 0.87456989
0.31084338 -0.11686157 0.87541389
0.32015938 -0.11629017 0.87662572
0.32119447 -0.11523686 0.87493336
0.30729726 -0.10962202 0.87479985
0.32342935 -0.10968225 0.87584883
0.30697811 -0.10623935 0.87421948
0.32380465 -0.10620452 0.87533712
0.30766609 -0.10067265 0.87482965
0.3227331 -0.1005098 0.87568963
0.30875841 -0.095938385 0.87503332
0.31214428 -0.093437478 0.87516373
0.3190228 -0.093654305 0.87547576
0.32191613 -0.095988452 0.87541729
0.31420457 -0.092863739 0.87464917
0.31672505 -0.092875615 0.87502432
0.31307927 -0.13343471 0.87252641
0.31834865 -0.13336071 0.87280226
0.30945963 -0.13038275 0.8722958
0.31279868 -0.13052644 0.87230837
0.31855062 -0.13049142 0.87258196
0.32196012 -0.13006824 0.87289411
0.30967489 -0.12740257 0.87229764
0.31357586 -0.12560014 0.87238294
0.31773558 -0.12565461 0.87258196
0.32161868 -0.12733966 0.87285715
0.31346467 -0.12035273 0.87192315
0.31772342 -0.12006743 0.8720057
0.31010792 -0.1146675 0.87061298
0.31271353 -0.11663248 0.86980879
0.31881356 -0.11679277 0.87034631
0.32145143 -0.11455131 0.871149
0.30573869 -0.10811442 0.868388
0.30744871 -0.10954903 0.87017721
0.32384616 -0.10973457 0.87114727
0.32591155 -0.1081989 0.87059343
0.30573839 -0.10762732 0.8691752
0.30733612 -0.10602596 0.87020838
0.32418701 -0.10594624 0.871158
0.32598034 -0.10755388 0.87074667
0.30862388 -0.1004658 0.86995667
0.32272831 -0.10054524 0.87084854
0.30934659 -0.096056342 0.87014043
0.31307 -0.093737885 0.87016064
0.31849191 -0.093834564 0.87035882
0.32192731 -0.096208081 0.87054765
0.31390044 -0.092969395 0.87258887
0.31635866 -0.092957735 0.87260056
0.31397581 -0.11405861 0.8664555
0.31804273 -0.11403541 0.86673343
0.3098917 -0.10964026 0.86566526
0.31331876 -0.11093777 0.86410326
0.31902629 -0.11103456 0.864519
0.32212022 -0.1097344 0.86631292
0.30905089 -0.10552828 0.86504579
0.32051724 -0.10794374 0.86307961
0.32322192 -0.10541943 0.86577195
0.30975881 -0.10072915 0.86527848
0.31161496 -0.09866941 0.86336982
0.32065877 -0.098345958 0.86393929
0.32240951 -0.10057899 0.86586249
0.31043428 -0.097033471 0.86647087
0.31337744 -0.095810376 0.86524326
0.31836277 -0.09572506 0.86548948
0.32148069 -0.097270608 0.86682039
0.31500679 -0.10868314 0.86214721
0.31738722 -0.1090192 0.86243725
0.31081164 -0.10556775 0.8623364
0.31457764 -0.10429377 0.85982215
0.31800881 -0.10425402 0.85979223
0.32153487 -0.10458855 0.86240011
0.3108151 -0.10252902 0.86212838
0.31468058 -0.10055897 0.85961574
0.31826779 -0.10017505 0.85971916
0.321473 -0.1017937 0.86252475
0.31494838 -0.097475149 0.86239898
0.31765315 -0.097653687 0.86234069
0.3201164 -0.11943091 0.85322148
0.32164598 -0.11967376 0.85307437
0.31970316 -0.11756081 0.85311687
0.31596917 -0.10317963 0.85637599
0.3171398 -0.10319445 0.85611224
0.31539175 -0.10079153 0.85574645
0.3179926 -0.10061525 0.85593677
0.31620091 -0.097741544 0.85645604
0.31711763 -0.097824827 0.8564536
0.3207632 -0.12389424 0.85134923
0.32200071 -0.12397471 0.8512795
0.31963345 -0.12029208 0.85089314
0.32223353 -0.12061669 0.85159618
0.31614658 -0.11464188 0.84956747
0.31925651 -0.1155516 0.85075021
0.321987 -0.11718633 0.85110664
0.31555599 -0.11124852 0.84837586
0.3186067 -0.11196576 0.84903187
0.31519949 -0.10480343 0.84945381
0.31737822 -0.10414393 0.84973145
0.31509942 -0.10075676 0.85036963
0.31775987 -0.10086276 0.85070938
0.31612805 -0.11399608 0.84650177
0.31871015 -0.11480354 0.84673679
0.31517944 -0.11032685 0.84542662
0.31844187 -0.11058815 0.84580189
0.3150115 -0.10535423 0.84497666
0.31749853 -0.10561436 0.84636462
0.3156468 -0.10192586 0.84632331
0.31721458 -0.10232084 0.8470276
