# .PCD v0.7 - Point Cloud Data file format
VERSION 0.7
FIELDS x y z
SIZE 4 4 4
TYPE F F F
COUNT 1 1 1
WIDTH 1190
HEIGHT 1
VIEWPOINT 0 0 0 1 0 0 0
POINTS 1190
DATA ascii
-0.013760153 0.079944417 0.58248502
-0.043719962 0.06513948 0.58242512
-0.0077439817 0.088255391 0.58249295
-0.008960844 0.088280037 0.582542
-0.014283778 0.081846766 0.58237529
-0.045493636 0.066594891 0.58238792
-0.053082019 0.065763026 0.58252442
-0.054196488 0.065274313 0.58237767
-0.013956347 0.090658613 0.58223879
-0.017039819 0.08958663 0.58243024
-0.021737214 0.087091699 0.58204573
-0.045236439 0.075515389 0.58212441
-0.051007554 0.072919905 0.58231038
-0.052716039 0.070352301 0.58230776
-0.054340679 0.066394955 0.58236676
-0.01484627 0.092049867 0.58224428
-0.018208008 0.090211362 0.5824362
-0.022173872 0.088896409 0.58216846
-0.046186693 0.076923117 0.58209491
-0.050134718 0.07473813 0.58243877
-0.05312147 0.07321959 0.58221388
-0.0059530884 0.061843388 0.58721107
-0.0087027354 0.060274556 0.58682948
-0.03171438 0.049089033 0.58696437
-0.034174945 0.04802794 0.58719504
-0.0061532408 0.065153152 0.58538371
-0.010057234 0.062356867 0.58521849
-0.013424882 0.062255219 0.58650565
-0.030186962 0.053928852 0.58684468
-0.03209392 0.051434696 0.58556539
-0.03666459 0.049894001 0.58551186
-0.0063120071 0.072440386 0.58672094
-0.0071487874 0.070035607 0.58511013
-0.01292856 0.067685425 0.58486742
-0.014733907 0.065588452 0.586595
-0.031453721 0.056326915 0.58703107
-0.034536961 0.056443997 0.58504379
-0.040021759 0.053690076 0.58513278
-0.042616516 0.054963056 0.58701473
-0.0070499834 0.075127535 0.58602774
-0.010180896 0.074190848 0.58393645
-0.015248257 0.071528539 0.58601499
-0.036522351 0.060689326 0.58601928
-0.041505132 0.058163047 0.58406621
-0.044321112 0.057249025 0.58599567
-0.008522748 0.080830216 0.58514827
-0.011979084 0.078508317 0.58299178
-0.018213378 0.07597398 0.58550143
-0.038477138 0.065901041 0.58553278
-0.043744147 0.062584996 0.58301854
-0.047399353 0.061328217 0.5853532
-0.0072495909 0.087818846 0.58491158
-0.010111467 0.086348414 0.58476329
-0.014931541 0.084157243 0.58312923
-0.020132259 0.080004513 0.58494127
-0.04044291 0.069911532 0.58489692
-0.047122851 0.06746348 0.58274424
-0.051166654 0.065578893 0.58493423
-0.05411477 0.064728856 0.58479029
-0.008329249 0.089486599 0.58404613
-0.012162854 0.089875847 0.58509058
-0.017005071 0.087406054 0.58517611
-0.0220051 0.085429624 0.58529449
-0.043587316 0.074834667 0.58529121
-0.047925211 0.072159454 0.58503658
-0.052664574 0.069346212 0.58505785
-0.054780435 0.066593885 0.58408648
-0.014664272 0.093035951 0.58425295
-0.018974243 0.090527087 0.58437186
-0.022849951 0.089604646 0.58454835
-0.046433304 0.077977434 0.58460444
-0.049590934 0.075463459 0.58445859
-0.053874146 0.073826179 0.58422786
-0.0057643205 0.061807685 0.5901686
-0.00855029 0.060081393 0.59013438
-0.031654626 0.048933975 0.59014696
-0.03416951 0.047802933 0.58958709
-0.0054191072 0.064977325 0.59028769
-0.01113737 0.059983253 0.59083581
-0.01347586 0.061593026 0.58977664
-0.029863335 0.053665854 0.58971226
-0.030062985 0.050808411 0.59098852
-0.036635168 0.049222227 0.59049267
-0.0065175164 0.072665334 0.58825111
-0.0063517168 0.070253119 0.59014374
-0.015300908 0.068153359 0.59064436
-0.015092356 0.065702185 0.58997434
-0.031649485 0.056885686 0.59011835
-0.033352025 0.058645543 0.59015089
-0.040551752 0.053384531 0.59026361
-0.042565472 0.055090517 0.58798701
-0.0075527309 0.075788811 0.58992374
-0.0087012732 0.074938253 0.5910641
-0.016092179 0.071608528 0.58966464
-0.036044057 0.061658241 0.58970451
-0.043046989 0.0573931 0.59057009
-0.04434187 0.057885587 0.58963215
-0.0087128812 0.08059001 0.58917737
-0.012342976 0.078724906 0.59103471
-0.01684496 0.076252416 0.58974272
-0.039052207 0.064876087 0.58978665
-0.043757543 0.063122109 0.59108531
-0.047069259 0.061208997 0.58926845
-0.010237288 0.084789962 0.58841145
-0.014447512 0.083356276 0.58941567
-0.018771067 0.08132723 0.58917642
-0.042091012 0.069577426 0.58920246
-0.046183273 0.067531511 0.5894146
-0.049615085 0.064974077 0.58836025
-0.013323786 0.088449739 0.58810741
-0.014944376 0.086613707 0.58867532
-0.020353703 0.08491312 0.58840168
-0.044085864 0.073208921 0.58835346
-0.048275873 0.070460819 0.5885092
-0.050658979 0.069852427 0.58818048
-0.0065847971 0.06181629 0.59296584
-0.0080933738 0.060849957 0.59292197
-0.0059247501 0.065732136 0.59491181
-0.010323382 0.062095728 0.59549844
-0.013442086 0.063035928 0.5940119
-0.030856133 0.054662589 0.59365797
-0.031940844 0.051654834 0.59519172
-0.036854722 0.050346527 0.59510344
-0.0076245209 0.070145026 0.59512562
-0.013871645 0.068613976 0.59572351
-0.015070762 0.065442443 0.59514105
-0.031725742 0.057309393 0.59502757
-0.034731627 0.058242232 0.59605646
-0.039760623 0.053905908 0.5950771
-0.010394782 0.073374175 0.5937205
-0.013670906 0.07095103 0.59434187
-0.03702163 0.059679314 0.59427983
-0.040697426 0.058301684 0.59374136
-0.0077686496 0.065823451 0.59947288
-0.010182045 0.063478693 0.59996229
-0.033120636 0.052356694 0.59996498
-0.036244974 0.051743928 0.59880638
-0.0088556577 0.068729728 0.59972286
-0.013072398 0.067469038 0.59979254
-0.014470148 0.065591104 0.59820879
-0.032017425 0.056830052 0.59806335
-0.034288999 0.056991033 0.5996142
-0.037947144 0.054309573 0.59964556
-0.011962034 0.070588514 0.6018849
-0.036910914 0.058282331 0.60144919
-0.038328592 0.057755832 0.60193372
-0.008840845 0.066259898 0.60422587
-0.010348254 0.064480603 0.60480767
-0.033722453 0.052956358 0.60472441
-0.0088107716 0.069122791 0.60521972
-0.013277704 0.066551924 0.60533559
-0.033516698 0.056466352 0.60534465
-0.038082872 0.054354988 0.6051966
-0.010691561 0.072557919 0.60543466
-0.013702314 0.071197152 0.60533082
-0.036775272 0.060168739 0.60573918
-0.039903335 0.058156442 0.60527635
-0.010742394 0.065006822 0.60931218
-0.033730019 0.053699456 0.60876453
-0.0084118685 0.069393583 0.61019403
-0.012496561 0.066074483 0.61035776
-0.015549447 0.066959895 0.61095917
-0.032339722 0.058613058 0.61111802
-0.033893131 0.055268884 0.61034983
-0.038650319 0.054437719 0.61032414
-0.010428719 0.074183263 0.610062
-0.015565615 0.072155632 0.60933453
-0.016897649 0.069533721 0.61104661
-0.03379624 0.061605979 0.61094278
-0.036730539 0.061971225 0.60907221
-0.041379295 0.058615923 0.61000746
-0.012673665 0.076375023 0.61179143
-0.015553458 0.074944034 0.61163861
-0.038632412 0.063743196 0.61161673
-0.041668102 0.062017825 0.61130869
-0.0079433918 0.069605008 0.61506939
-0.01176418 0.065700233 0.61507362
-0.015867906 0.066289514 0.6152513
-0.03166448 0.058563169 0.61507416
-0.033864532 0.054976672 0.61503905
-0.039080031 0.054231931 0.61523062
-0.008955989 0.074945495 0.6150164
-0.018190613 0.069683604 0.61502409
-0.032936879 0.062496647 0.61486959
-0.042862311 0.058144722 0.61499876
-0.012664994 0.078285575 0.61539042
-0.016988533 0.076993175 0.61505908
-0.019689772 0.074268848 0.61622012
-0.035715804 0.06616386 0.61551344
-0.039889015 0.065876424 0.61485505
-0.043430395 0.06307216 0.61536008
-0.015825875 0.080245607 0.61741477
-0.016774531 0.079582989 0.61744773
-0.037865572 0.068699762 0.61753732
-0.041269928 0.067581952 0.61721933
-0.043681864 0.066179127 0.61727917
-0.0085691577 0.069765709 0.61993909
-0.012273052 0.066715881 0.62002498
-0.016113371 0.066824734 0.61985415
-0.03203743 0.05888718 0.61970025
-0.034406368 0.056011155 0.61993855
-0.038929053 0.054924957 0.61990458
-0.0084367674 0.075002663 0.61988455
-0.018644091 0.069733687 0.62034917
-0.032642927 0.062790439 0.62025273
-0.043031737 0.057729382 0.62034285
-0.011099774 0.079303361 0.62004405
-0.018086011 0.078532189 0.61767316
-0.020501282 0.074033208 0.62029999
-0.034939345 0.06696327 0.6201787
-0.045088504 0.062645152 0.61979407
-0.015063923 0.08242964 0.62020797
-0.019305902 0.081175476 0.6202718
-0.02126799 0.078224912 0.62082535
-0.037928045 0.070108622 0.62059987
-0.041381907 0.070415668 0.62025505
-0.045358635 0.067426264 0.62039125
-0.017575946 0.085483499 0.62190014
-0.019768573 0.084667489 0.62170708
-0.043861609 0.072692208 0.62151688
-0.046227463 0.071232922 0.6219002
-0.0099683786 0.07067214 0.62333149
-0.012995336 0.068740234 0.62348104
-0.016049154 0.068129562 0.62311137
-0.035558984 0.057841893 0.62342775
-0.038580403 0.056400768 0.62303215
-0.010536334 0.074263103 0.6246413
-0.014612826 0.071612008 0.62588161
-0.017946292 0.070546135 0.62419993
-0.033750094 0.062440682 0.62398171
-0.037017368 0.060590621 0.62572241
-0.041169237 0.058886901 0.62441134
-0.011506859 0.078667372 0.62530518
-0.016391447 0.074547201 0.62731349
-0.020234136 0.074461997 0.62475729
-0.035519779 0.066809818 0.62491322
-0.038714658 0.063821144 0.62727857
-0.044090532 0.062550336 0.62531793
-0.013928212 0.083673596 0.62489653
-0.021448709 0.081047863 0.62376028
-0.021733277 0.07934317 0.62567544
-0.038659818 0.071318574 0.62547624
-0.039881166 0.071602337 0.62335253
-0.046773195 0.067170188 0.62492079
-0.017350933 0.087104119 0.62527204
-0.021684822 0.086006999 0.62490618
-0.023076225 0.082791522 0.62622231
-0.040460415 0.074237868 0.62593549
-0.043665394 0.075089738 0.6245693
-0.047494553 0.072015114 0.62524772
-0.021067835 0.088340759 0.62705106
-0.046173006 0.076017693 0.62642229
-0.047212098 0.075357951 0.62645155
-0.014014617 0.07926584 0.62979406
-0.017033108 0.07712879 0.62958598
-0.020300556 0.076188192 0.6299386
-0.036871783 0.06782297 0.63013566
-0.039752554 0.065967672 0.62954783
-0.043242797 0.064984828 0.62972331
-0.014258412 0.083698124 0.63003576
-0.017093424 0.079126552 0.6295675
-0.022281282 0.079332396 0.62983239
-0.038044415 0.071412407 0.62979406
-0.041106377 0.067303181 0.62965661
-0.046335094 0.067348167 0.63002765
-0.017458692 0.087156333 0.6298421
-0.022232639 0.086342961 0.62992585
-0.023537036 0.082684077 0.62998956
-0.040246949 0.07476107 0.62982011
-0.044131368 0.07568033 0.63030326
-0.047485739 0.072081119 0.62986499
-0.021133658 0.088333927 0.62831175
-0.045398489 0.076379791 0.62832916
-0.047507573 0.075067662 0.62789708
-0.010542731 0.059278041 0.63646919
-0.012959511 0.05714969 0.63617104
-0.017208517 0.054556176 0.63629341
-0.021490445 0.052386798 0.63604212
-0.0264406 0.051247686 0.63601321
-0.029084649 0.050425813 0.63724089
-0.010067971 0.062974736 0.63707113
-0.028235611 0.051754665 0.63610512
-0.032392643 0.051897638 0.63625121
-0.035990972 0.052448921 0.63697362
-0.0095426273 0.066453971 0.63741261
-0.03553091 0.053644553 0.63706899
-0.037347887 0.053743638 0.63727748
-0.012886822 0.074769311 0.63679528
-0.014685142 0.072823882 0.63559008
-0.019014491 0.071069255 0.6360184
-0.033980154 0.063954286 0.63582247
-0.037772704 0.061377969 0.63592619
-0.040343173 0.061353557 0.63681006
-0.013418884 0.078229018 0.6352011
-0.01577287 0.074774921 0.63334376
-0.021900665 0.073825978 0.63515747
-0.033947974 0.068085007 0.63517988
-0.038803764 0.063479155 0.63356721
-0.042818032 0.063886747 0.6352284
-0.014510868 0.08336331 0.63507664
-0.023545515 0.078758389 0.63480937
-0.036590047 0.071989998 0.63517219
-0.046100765 0.067514583 0.63525313
-0.01726358 0.085509039 0.63454378
-0.020871993 0.084706225 0.63493592
-0.023619458 0.082449958 0.63540685
-0.039941836 0.074640088 0.63520348
-0.043549277 0.073746741 0.63482535
-0.046472892 0.071096078 0.63467491
-0.0092804413 0.059453581 0.64045471
-0.012376609 0.056394558 0.63993055
-0.01673156 0.053552859 0.64004302
-0.021208255 0.051975437 0.63978404
-0.026073392 0.049966946 0.64007968
-0.02917723 0.04966899 0.64077193
-0.0086085815 0.065894701 0.639893
-0.009638451 0.062635474 0.63967192
-0.013215124 0.060165048 0.64080399
-0.018444896 0.056650363 0.64128345
-0.022655526 0.054645769 0.64115071
-0.028103486 0.054147869 0.64023572
-0.032314412 0.05132357 0.63958061
-0.036119703 0.052198198 0.64041674
-0.0092195161 0.068759643 0.63939846
-0.012721285 0.067570642 0.64025253
-0.017001592 0.06624347 0.64118856
-0.019910216 0.065431625 0.64244074
-0.031026727 0.058965944 0.6413272
-0.034482084 0.056712966 0.63994271
-0.038428135 0.054349244 0.63992262
-0.011167714 0.073962472 0.6404143
-0.013265461 0.07075204 0.6387611
-0.019050939 0.068796985 0.63870996
-0.022225635 0.068835333 0.64054155
-0.029906983 0.064841121 0.64051014
-0.031807102 0.062531874 0.6388495
-0.037255239 0.058952712 0.63900554
-0.041202515 0.059282467 0.64001614
-0.012254521 0.078016147 0.64071918
-0.02356533 0.074545532 0.63981688
-0.023317348 0.071917504 0.63994932
-0.031759456 0.067823961 0.64015812
-0.033573262 0.069644928 0.63997591
-0.043524656 0.062799431 0.64073235
-0.015437424 0.082810819 0.63986874
-0.019307237 0.082546905 0.64102173
-0.023337586 0.078840122 0.63991582
-0.036892634 0.071942322 0.64005053
-0.04270637 0.071052223 0.6411798
-0.045312151 0.068120658 0.63983357
-0.021259166 0.083385542 0.6388073
-0.023210537 0.08210367 0.63825119
-0.040083461 0.073834628 0.63910216
-0.042328965 0.073086344 0.63889337
-0.045372471 0.070804216 0.63824767
-0.0090915598 0.059337694 0.64502734
-0.011820605 0.055387799 0.64510119
-0.01605282 0.052432749 0.64521575
-0.020487795 0.050717447 0.64483696
-0.025352914 0.049081873 0.6447807
-0.030075286 0.04907351 0.64510226
-0.0074431831 0.064875789 0.64556479
-0.0078926757 0.062332921 0.64497387
-0.015396221 0.06139899 0.64482313
-0.0186115 0.058459308 0.6457296
-0.023420621 0.056018908 0.64503068
-0.027591482 0.056243543 0.64551139
-0.03329083 0.050245754 0.64490008
-0.036093444 0.051408712 0.6454044
-0.0084478157 0.069543391 0.64573133
-0.013691208 0.06451188 0.64275497
-0.016858147 0.063708134 0.64388037
-0.020519815 0.064306885 0.64490891
-0.027487719 0.061106816 0.64486855
-0.029410429 0.05757124 0.64379007
-0.038652554 0.053885628 0.6452713
-0.0098725278 0.074455068 0.64495504
-0.022463614 0.067665964 0.64441639
-0.029115397 0.064787984 0.64462566
-0.042089395 0.058113202 0.64543468
-0.012207637 0.079220153 0.64432311
-0.023135623 0.074081123 0.64533508
-0.025521139 0.072980568 0.64536524
-0.030425018 0.070513524 0.64539069
-0.033810925 0.068980806 0.64524597
-0.044277593 0.062780254 0.64504015
-0.01524459 0.082200684 0.64468706
-0.019113448 0.081170261 0.64494848
-0.023350023 0.078309275 0.64430743
-0.027868439 0.076002993 0.64444488
-0.031982366 0.073028348 0.64461184
-0.03735587 0.071758062 0.64476222
-0.041979738 0.070142388 0.64504862
-0.044520915 0.066818468 0.6442802
-0.016195981 0.051284466 0.65009576
-0.019504882 0.049692158 0.65156531
-0.0091508748 0.059127633 0.65017635
-0.011820777 0.055114344 0.65033203
-0.015492302 0.052437063 0.65004927
-0.02020012 0.050241608 0.64944637
-0.025767041 0.048154719 0.65061915
-0.030376118 0.048340946 0.65009964
-0.0077088876 0.065053381 0.65008646
-0.0079808757 0.062471375 0.65035546
-0.017282952 0.061105844 0.64805853
-0.019844908 0.059835035 0.65019917
-0.024080582 0.057831645 0.64994252
-0.033402041 0.049459107 0.64983511
-0.035888594 0.050826136 0.65050721
-0.0085556507 0.06897644 0.6498152
-0.020982748 0.063223317 0.65014607
-0.02608677 0.060313385 0.65034574
-0.039058894 0.054001682 0.65024197
-0.010545738 0.074080497 0.65030634
-0.022268128 0.067983299 0.65067434
-0.029172417 0.064366132 0.65024698
-0.031210078 0.065948434 0.65211976
-0.04219475 0.058525022 0.64999175
-0.012808096 0.07808736 0.64970899
-0.017050534 0.078468584 0.65162778
-0.022229875 0.072868459 0.64987218
-0.026301455 0.071794607 0.65018618
-0.03079458 0.070437059 0.65003335
-0.032831125 0.067561075 0.64983565
-0.04164134 0.065551683 0.65153098
-0.043309346 0.062914558 0.64983231
-0.015787479 0.080366641 0.64858949
-0.018534791 0.079188049 0.64917207
-0.02301183 0.077005833 0.64956731
-0.026615119 0.074980505 0.64955437
-0.031200346 0.072260216 0.64943188
-0.036452308 0.070851445 0.64968497
-0.040202953 0.068272039 0.64972758
-0.043135032 0.066963516 0.64824069
-0.012737397 0.052737914 0.65732586
-0.01573348 0.051338196 0.65571696
-0.01903788 0.049752366 0.65577096
-0.022831446 0.048082545 0.65703261
-0.0092786802 0.058725625 0.65544569
-0.01147968 0.05545228 0.65486181
-0.015871538 0.052074801 0.65514231
-0.021453651 0.049348328 0.65579104
-0.025244765 0.048210945 0.65501595
-0.030343439 0.048373342 0.65503144
-0.0081828218 0.065628886 0.65519273
-0.0083458703 0.062825218 0.65548241
-0.033528171 0.049534708 0.65545732
-0.035811711 0.051263016 0.65506029
-0.0094157411 0.069017082 0.65514946
-0.022361955 0.063097298 0.65437108
-0.025458647 0.061732896 0.65432376
-0.038510315 0.054538481 0.65524203
-0.011547296 0.073182158 0.65529287
-0.013753625 0.074948236 0.65671432
-0.023458833 0.067623459 0.65450108
-0.028119452 0.065037303 0.65451491
-0.040774506 0.059112906 0.65549028
-0.013667949 0.076651037 0.65387273
-0.016719609 0.076853015 0.65522003
-0.021967456 0.075916104 0.65507531
-0.02680029 0.073159315 0.65524149
-0.031221993 0.071682602 0.65528411
-0.035827011 0.068879649 0.65621167
-0.039597563 0.065642022 0.65563595
-0.041938856 0.062895201 0.65442914
-0.022192208 0.07695587 0.65409875
-0.026231768 0.074895881 0.65437633
-0.032076295 0.071793035 0.6555528
-0.036039744 0.070137948 0.65394634
-0.038691312 0.068398185 0.65344483
-0.0081546009 0.055123366 0.66069001
-0.010765826 0.052858692 0.66025794
-0.01472676 0.049983729 0.66009378
-0.019439032 0.04801853 0.65997738
-0.024015538 0.046384849 0.66021919
-0.027262699 0.045563996 0.660155
-0.0077794818 0.058424789 0.6599859
-0.0098049454 0.05510743 0.65911919
-0.021003695 0.049244583 0.65773803
-0.025902007 0.047325313 0.65829319
-0.030461149 0.047203623 0.6599161
-0.0076072272 0.064883366 0.66026336
-0.0080536269 0.063257486 0.65956622
-0.033698179 0.050403293 0.65832829
-0.035513148 0.050730117 0.66050339
-0.0095895017 0.068883941 0.66011798
-0.038015068 0.054948337 0.65980506
-0.011424485 0.071795262 0.65987712
-0.013776063 0.073303901 0.66049153
-0.038671244 0.061226226 0.66067618
-0.039354444 0.058358353 0.65957552
-0.017414555 0.074914917 0.66024268
-0.021513009 0.074886434 0.66015869
-0.026114827 0.073826961 0.65950292
-0.031383086 0.071232706 0.65925193
-0.035444349 0.068074964 0.66032892
-0.037970535 0.064699523 0.65977675
-0.027671821 0.074198872 0.66147602
-0.031470753 0.072300971 0.66104454
-0.034231849 0.07065215 0.66149187
-0.011321332 0.052944846 0.66406751
-0.015195274 0.050578211 0.66506022
-0.019384943 0.048227288 0.66505247
-0.023726556 0.046874464 0.66414583
-0.0089080008 0.059189808 0.66448355
-0.011246052 0.055625647 0.66570586
-0.014234639 0.052778915 0.66696179
-0.021994511 0.048899375 0.66700417
-0.02568116 0.048108086 0.66569966
-0.029933926 0.048568398 0.66488743
-0.033547498 0.048210539 0.66301608
-0.007816514 0.064615555 0.66374904
-0.0097221527 0.062924415 0.66541052
-0.032440677 0.051303539 0.66625994
-0.03548805 0.050922785 0.66388243
-0.010007219 0.068784207 0.6633805
-0.011618439 0.067725331 0.66621345
-0.035478931 0.056182869 0.66652262
-0.037109349 0.054352045 0.66392624
-0.011381936 0.071303591 0.66362232
-0.014356571 0.072008066 0.66525733
-0.018952068 0.071671844 0.66649872
-0.034330964 0.06407398 0.66664505
-0.037278853 0.060599789 0.6658873
-0.038996786 0.058190566 0.66301799
-0.017302329 0.074639782 0.66439027
-0.021478649 0.07412415 0.6645692
-0.025882786 0.07220488 0.6649518
-0.030599954 0.069822818 0.6650002
-0.034720898 0.067671351 0.6647734
-0.037825614 0.064549267 0.66473436
-0.026749672 0.074659832 0.66304159
-0.031445269 0.072268739 0.66296554
-0.034503933 0.07042335 0.66290706
-0.049442828 0.11811455 0.66737998
-0.05283469 0.11635476 0.66708589
-0.051175877 0.1210532 0.66699535
-0.054324225 0.11926125 0.66682053
-0.053319074 0.12321106 0.66716182
-0.055005666 0.12243664 0.66698515
-0.016509928 0.050430886 0.6700539
-0.018745728 0.049222913 0.66971737
-0.010651873 0.059500467 0.66824758
-0.012443801 0.056549396 0.67007846
-0.014776297 0.053042255 0.67012632
-0.02180762 0.049528696 0.67051917
-0.025539258 0.049679749 0.67008233
-0.029261233 0.050241314 0.66927111
-0.011549899 0.062512338 0.66917759
-0.01263406 0.061212346 0.67183387
-0.02980464 0.052654561 0.67177838
-0.031360373 0.052680451 0.6694001
-0.013444699 0.066706009 0.66863978
-0.015944609 0.066197172 0.67125893
-0.031768069 0.058346622 0.67114753
-0.033452481 0.056646731 0.66885889
-0.015473768 0.069631688 0.66789562
-0.019223319 0.069529466 0.66985124
-0.024654431 0.069041066 0.67174703
-0.028862022 0.067021042 0.67179972
-0.032312859 0.062911183 0.66992456
-0.03470955 0.060573794 0.66789377
-0.022045577 0.07150168 0.66827995
-0.025197804 0.070456401 0.66911805
-0.029182835 0.068352662 0.66939771
-0.032495134 0.066268973 0.66813266
-0.021517668 0.093381181 0.67226118
-0.022321086 0.092742167 0.67244959
-0.048880383 0.079532951 0.67252779
-0.049873665 0.07908266 0.67230082
-0.022437442 0.095582128 0.6719563
-0.025459746 0.094894052 0.67198479
-0.046866428 0.086204797 0.67237037
-0.048839614 0.083158046 0.67200571
-0.051169951 0.081319183 0.67198646
-0.02478363 0.098616831 0.67222774
-0.028236479 0.098503217 0.67180145
-0.031339545 0.097688243 0.67188346
-0.047518723 0.089628682 0.67187899
-0.050097167 0.087669954 0.67181998
-0.052149676 0.084858298 0.67223328
-0.030959042 0.1018306 0.67198217
-0.034776397 0.10115647 0.671709
-0.037956491 0.10156564 0.67211014
-0.046420164 0.096897498 0.67250144
-0.048286054 0.094451949 0.67166072
-0.051105071 0.091891825 0.67188269
-0.038121045 0.10402329 0.67180854
-0.040937919 0.10392311 0.6713044
-0.046761952 0.10107912 0.67141801
-0.048886754 0.098376721 0.671794
-0.04141698 0.10930493 0.67218858
-0.043825321 0.10753767 0.67117977
-0.047908455 0.10516861 0.67147344
-0.050670728 0.10431659 0.67221373
-0.042628534 0.11135455 0.67239434
-0.045765895 0.11237682 0.67070162
-0.05040393 0.11037269 0.67099124
-0.051853068 0.10698588 0.6721071
-0.048792697 0.11663975 0.67002285
-0.05216103 0.11489531 0.67016917
-0.050823759 0.12044059 0.66828489
-0.053947363 0.11901659 0.6681782
-0.053006589 0.12334846 0.66812247
-0.055047221 0.12229779 0.66789949
-0.01659216 0.050756339 0.67528778
-0.018662162 0.049611244 0.67507821
-0.013557822 0.057083793 0.67508274
-0.015407944 0.053359449 0.67508936
-0.021886943 0.050311595 0.67532468
-0.025482912 0.050880309 0.67479348
-0.012578279 0.063661434 0.67686272
-0.013202915 0.060985815 0.67546397
-0.029122572 0.053029228 0.67518646
-0.031405136 0.054314103 0.67672145
-0.01378707 0.066944763 0.67643881
-0.015988467 0.066120446 0.67415571
-0.031561259 0.058360387 0.67423266
-0.033438355 0.057189938 0.6764521
-0.015646692 0.069088623 0.67638373
-0.01934452 0.069221184 0.67531031
-0.023059705 0.069612749 0.67378461
-0.030340452 0.066005006 0.67367446
-0.03202695 0.063039549 0.67529941
-0.034056753 0.059854019 0.67646468
-0.021593319 0.071739122 0.67694819
-0.025295444 0.070654109 0.67527014
-0.029633503 0.068385571 0.6750592
-0.032559142 0.066381812 0.67692429
-0.019729083 0.092590757 0.67538118
-0.02299181 0.091946095 0.67458922
-0.047802664 0.079518691 0.67470318
-0.050413903 0.07723929 0.67537999
-0.020935483 0.096945494 0.67472661
-0.026096392 0.093031511 0.67460221
-0.029614534 0.093593001 0.67546612
-0.045332834 0.085543856 0.67542845
-0.04697147 0.08237689 0.67452735
-0.053104356 0.080770433 0.67478269
-0.024455771 0.10050581 0.67545205
-0.02716621 0.10116206 0.67348987
-0.03289663 0.096108839 0.67476821
-0.045107041 0.090103738 0.67483449
-0.052893601 0.088136502 0.67353755
-0.053951342 0.085779391 0.67553389
-0.026959512 0.10244544 0.67673737
-0.030137878 0.10338229 0.67537999
-0.035559077 0.099234097 0.67393464
-0.037990555 0.10025719 0.6748957
-0.045425527 0.096253797 0.67492384
-0.046039619 0.093889758 0.67347205
-0.052952662 0.091876388 0.67516959
-0.054003026 0.088803798 0.67650503
-0.033406746 0.10477169 0.67607868
-0.037158109 0.10562753 0.6749754
-0.042331547 0.10289249 0.67494828
-0.045025826 0.10127755 0.67482489
-0.050832178 0.099004805 0.67492634
-0.052159104 0.095581926 0.67563134
-0.040551104 0.10944702 0.6751163
-0.045489378 0.10605305 0.67558759
-0.045959875 0.10631493 0.67565966
-0.051696777 0.10383826 0.67503971
-0.042733062 0.1137312 0.67550796
-0.046840355 0.11220824 0.67467368
-0.049676787 0.11095522 0.6749109
-0.053543087 0.10822262 0.67537814
-0.045015462 0.11793858 0.67585701
-0.048627801 0.11667315 0.67402089
-0.051800322 0.11501276 0.67478031
-0.055573404 0.11297759 0.67554027
-0.04711679 0.12043913 0.67617536
-0.050722755 0.12127502 0.67536664
-0.054800585 0.11932145 0.67497563
-0.056813914 0.11610189 0.67579085
-0.053121805 0.12531012 0.67535555
-0.056548972 0.12360615 0.67473584
-0.054960851 0.12885703 0.67545557
-0.058465838 0.12717688 0.67476928
-0.016407009 0.050659649 0.68033719
-0.019003959 0.049440768 0.68016833
-0.010514719 0.059247889 0.6815995
-0.013380945 0.056566425 0.68021792
-0.015122888 0.053719029 0.67960638
-0.021911036 0.050202206 0.67957634
-0.025663484 0.050539568 0.68021363
-0.029425945 0.049994472 0.6813131
-0.011157853 0.062498584 0.68044263
-0.012619765 0.059690777 0.67836297
-0.028210057 0.051783133 0.67834097
-0.031407084 0.052333411 0.68040454
-0.01313104 0.067404754 0.6796568
-0.015781723 0.068483271 0.67771792
-0.033498392 0.059433158 0.67782372
-0.034272339 0.056758735 0.67987108
-0.015686769 0.070836633 0.68064928
-0.018227238 0.071284704 0.67899936
-0.034300398 0.063354731 0.67900521
-0.035373092 0.060936943 0.68067765
-0.02106129 0.073354393 0.68046552
-0.025927342 0.07267189 0.67960751
-0.0307303 0.070240617 0.67947787
-0.034293588 0.066614576 0.68026835
-0.026994642 0.07431937 0.68222117
-0.030961197 0.072173193 0.68183506
-0.01486091 0.090793177 0.68243468
-0.016840491 0.089068793 0.6814332
-0.046634573 0.075117216 0.68221474
-0.049067177 0.073160656 0.68148625
-0.051562231 0.072437435 0.68245435
-0.015927907 0.093747735 0.68177098
-0.017903842 0.09174034 0.67962152
-0.023348231 0.090747878 0.68036926
-0.046656758 0.078710616 0.6805014
-0.050811253 0.075422287 0.67969006
-0.053463656 0.074933708 0.68176156
-0.017863441 0.096326306 0.68071127
-0.021357987 0.097256228 0.68006086
-0.026257709 0.094453201 0.68050182
-0.029288953 0.09423475 0.67894775
-0.045840386 0.085983261 0.67902571
-0.048062027 0.083522014 0.68059909
-0.053303801 0.081246719 0.67997396
-0.054489929 0.077933714 0.68092901
-0.024209604 0.10075724 0.67904812
-0.027665403 0.098359779 0.68101954
-0.03224019 0.096944287 0.67941183
-0.046248574 0.090379633 0.67943311
-0.050322801 0.087119736 0.68104017
-0.054305315 0.085711464 0.6790269
-0.026761215 0.10242282 0.67859906
-0.030266492 0.10284128 0.6793263
-0.034536328 0.10121019 0.67982006
-0.03823014 0.1011306 0.67810148
-0.045968566 0.096427634 0.67814773
-0.048200198 0.094322369 0.67979318
-0.052360091 0.091839314 0.67930317
-0.054151487 0.088700555 0.67820859
-0.037732914 0.10481919 0.67868066
-0.041121334 0.10423313 0.67937702
-0.046693735 0.1013463 0.67923325
-0.049507491 0.099554345 0.67874211
-0.051782783 0.095786899 0.67799634
-0.040544339 0.10931277 0.68007958
-0.044874277 0.10609676 0.67972755
-0.046121974 0.10555415 0.67969275
-0.051805511 0.10371763 0.68029648
-0.042822178 0.1138043 0.68003547
-0.047735408 0.11191291 0.67996389
-0.049103968 0.11096232 0.67995751
-0.054073259 0.10810255 0.68012261
-0.044935837 0.11687025 0.67993373
-0.047444105 0.1175096 0.6797691
-0.050884243 0.11532021 0.68040854
-0.055657204 0.11257619 0.67987317
-0.050104249 0.11990954 0.67993975
-0.054763407 0.11787191 0.68013
-0.056515571 0.11590426 0.68168557
-0.015850097 0.051020026 0.68523383
-0.019312076 0.049115218 0.68524158
-0.010637943 0.059067007 0.68508995
-0.012129636 0.056171611 0.68518841
-0.014129072 0.053176668 0.68439215
-0.022252847 0.049008612 0.6845457
-0.025959706 0.049351323 0.68523699
-0.029247183 0.049994901 0.68502766
-0.010681052 0.062337991 0.68511146
-0.029046167 0.050813489 0.68313199
-0.031632874 0.051910393 0.68499774
-0.011465983 0.067803897 0.68490952
-0.035317384 0.055520847 0.6852048
-0.012027945 0.072916448 0.68708652
-0.014393542 0.072734281 0.68468612
-0.037773732 0.06091683 0.68473852
-0.039574839 0.059951097 0.68708402
-0.01773677 0.075418614 0.68598169
-0.021017313 0.075455047 0.68379205
-0.035974026 0.067762487 0.68365163
-0.037778419 0.065315001 0.68581086
-0.012674967 0.08633741 0.68689215
-0.014680484 0.08487682 0.68597096
-0.020124765 0.07775557 0.68727636
-0.023287015 0.078326352 0.68580496
-0.028523 0.076354071 0.6851632
-0.03251233 0.07431981 0.68497562
-0.036862902 0.071567453 0.68573958
-0.041265171 0.069817245 0.68713653
-0.046813536 0.069015004 0.68630463
-0.049316946 0.068447419 0.68721002
-0.013189582 0.089963108 0.68502241
-0.016197801 0.087015569 0.68376809
-0.020611193 0.086323962 0.68586427
-0.026441334 0.080047265 0.68743539
-0.036712326 0.075135671 0.68757689
-0.04461905 0.07438235 0.68574244
-0.048132334 0.07081487 0.68404293
-0.05189576 0.070700906 0.68508536
-0.015007281 0.093482316 0.68462855
-0.018826451 0.094208807 0.68623304
-0.024092527 0.089453265 0.68478692
-0.045032538 0.078773387 0.68493849
-0.052215505 0.07737828 0.68632215
-0.053786196 0.074092224 0.68452835
-0.017718416 0.095941156 0.68317229
-0.021737956 0.095504358 0.68457758
-0.025026375 0.093734056 0.68473727
-0.048289467 0.082171828 0.68489051
-0.051631443 0.080795527 0.68421108
-0.054310892 0.077697985 0.68302768
-0.041197661 0.10989106 0.68454921
-0.043530248 0.10722221 0.68525892
-0.047726609 0.10543571 0.68525749
-0.051838856 0.10466221 0.68449354
-0.042665232 0.11163382 0.68495268
-0.045785539 0.11324997 0.68503863
-0.050269946 0.11165877 0.68525982
-0.053185262 0.10842622 0.68488747
-0.045635998 0.11747381 0.68304938
-0.047925312 0.11649477 0.68542665
-0.052315749 0.11409599 0.68494934
-0.055513501 0.11290084 0.6838581
-0.050468586 0.12114451 0.68504024
-0.055143803 0.11929213 0.68454701
-0.057312399 0.11720942 0.683797
-0.052920915 0.12525485 0.68585092
-0.057190154 0.12347613 0.68520552
-0.054966271 0.12928568 0.68642253
-0.059097961 0.12744996 0.68608212
-0.015725601 0.050648771 0.6897971
-0.01947928 0.048576772 0.68978554
-0.01106943 0.059469543 0.68922687
-0.012271788 0.056527361 0.69006419
-0.014633982 0.053184807 0.69016987
-0.022072552 0.049355045 0.69046628
-0.026024943 0.049698543 0.69016719
-0.029151872 0.050619848 0.69049525
-0.0079515232 0.066016786 0.69128901
-0.010492884 0.062645435 0.69019049
-0.029009376 0.050761431 0.69237208
-0.031962208 0.051928859 0.69012749
-0.036251575 0.051934853 0.69139224
-0.0083572539 0.069548406 0.69077599
-0.010308933 0.067365229 0.68840152
-0.035987653 0.054808874 0.68837565
-0.03870048 0.054251552 0.69081175
-0.010953588 0.073718175 0.69001889
-0.040477455 0.058779255 0.68999934
-0.010034599 0.082216039 0.69214654
-0.013610865 0.078722559 0.69169062
-0.016895 0.076906055 0.69028169
-0.039743576 0.065505356 0.69037521
-0.043065697 0.063759774 0.69173306
-0.047573127 0.063234761 0.69224417
-0.0106215 0.085590057 0.6905421
-0.014469003 0.082329586 0.68901139
-0.019230884 0.080646366 0.69063395
-0.022009542 0.079815291 0.68858373
-0.03067302 0.077481344 0.68945599
-0.031577475 0.076905735 0.68994462
-0.039030958 0.071361177 0.68882912
-0.041280046 0.06967508 0.69048023
-0.045763303 0.066648111 0.6892913
-0.050046176 0.065814748 0.69057399
-0.012806046 0.089522094 0.68998176
-0.020977773 0.085328706 0.69038463
-0.025159717 0.081777766 0.69053018
-0.029293347 0.079258636 0.690705
-0.034231745 0.076909959 0.6905601
-0.039001074 0.074951716 0.69011199
-0.043605506 0.07402914 0.69028449
-0.051875491 0.069923796 0.68978429
-0.015561517 0.09197022 0.69017768
-0.019133436 0.092051908 0.69024169
-0.023122758 0.090182036 0.68997663
-0.046377383 0.078463331 0.69022244
-0.050464474 0.076403886 0.69000137
-0.052332722 0.073339961 0.69006628
-0.021999015 0.093791768 0.68784851
-0.023699865 0.092993334 0.68829209
-0.036465406 0.091181323 0.69208884
-0.038712945 0.090190843 0.69199616
-0.048297446 0.08059983 0.68852067
-0.05012317 0.079750881 0.68787533
-0.036996327 0.095517837 0.69098783
-0.041266382 0.093438968 0.69105107
-0.038698871 0.097417191 0.69114071
-0.042032316 0.095512487 0.69130301
-0.042073496 0.11068527 0.6879046
-0.04393547 0.10930848 0.68961543
-0.048948765 0.10689094 0.68921906
-0.051405348 0.10618562 0.68825626
-0.042690326 0.11158571 0.68840927
-0.046229612 0.11224514 0.69030917
-0.050343409 0.11031793 0.69040388
-0.052444998 0.10800048 0.68839467
-0.048675962 0.11432638 0.69195426
-0.051740956 0.1127692 0.69138449
-0.053093106 0.12633498 0.68821442
-0.058583461 0.12539566 0.68769103
-0.054976482 0.12940906 0.68877512
-0.059130162 0.12765442 0.68793529
-0.016734362 0.050430678 0.69340026
-0.018913032 0.049296018 0.69346768
-0.013222766 0.057004891 0.69425255
-0.016464509 0.053861476 0.69511223
-0.021248318 0.05118607 0.69533587
-0.026002286 0.050761517 0.69431478
-0.0084223934 0.065886483 0.69329244
-0.01023754 0.063303635 0.69497687
-0.01286347 0.059811641 0.69594538
-0.028611785 0.052132547 0.69582546
-0.032683402 0.05215333 0.69492376
-0.03565339 0.05197268 0.69309312
-0.0090424689 0.069714174 0.69481689
-0.01026151 0.067413628 0.69649541
-0.035984877 0.054580774 0.69635415
-0.038546745 0.05500339 0.69470012
-0.0085202698 0.076845601 0.69738674
-0.0087512806 0.074241683 0.69557661
-0.042368639 0.057548601 0.69544762
-0.044637516 0.059016228 0.697079
-0.0089846021 0.081336446 0.69565719
-0.011417445 0.078347996 0.69399941
-0.017863572 0.078238845 0.69282931
-0.039969515 0.067310333 0.69283795
-0.043850552 0.062025923 0.69383818
-0.047612581 0.061700489 0.69557512
-0.0093561215 0.085863553 0.69509453
-0.019425016 0.080365807 0.69373471
-0.031796724 0.077311739 0.69601113
-0.040832266 0.069841236 0.69381762
-0.051241804 0.064795613 0.69493979
-0.012223881 0.089842588 0.69516325
-0.022364045 0.085127674 0.69444531
-0.025432825 0.0826419 0.69543517
-0.029970724 0.079817116 0.69516605
-0.034265723 0.077846073 0.6951533
-0.039177526 0.076088592 0.69549251
-0.042653002 0.074698627 0.69441122
-0.05285925 0.069754772 0.69497782
-0.015320766 0.091994464 0.69481415
-0.018489311 0.091430098 0.69509268
-0.021758746 0.089129284 0.69469339
-0.033984177 0.086933881 0.69701445
-0.036817126 0.085420959 0.69684166
-0.046497278 0.076805048 0.69455987
-0.050208006 0.075508721 0.69508249
-0.052556068 0.07330814 0.69485694
-0.032576609 0.092519581 0.69578636
-0.034307159 0.089416653 0.69532531
-0.039126661 0.087473616 0.69522673
-0.042377222 0.087965623 0.69689214
-0.033545654 0.09597069 0.69512236
-0.035194997 0.095563389 0.69321769
-0.04268799 0.091457039 0.69369239
-0.044707231 0.090551704 0.69618803
-0.034892701 0.10142553 0.69592202
-0.0390561 0.099687926 0.69437468
-0.043966331 0.097087793 0.69440997
-0.04782382 0.094741218 0.69576478
-0.037282757 0.10277072 0.69721639
-0.041471265 0.10159111 0.69616598
-0.044879831 0.099580564 0.6963951
-0.047769155 0.097512066 0.69648701
-0.047014281 0.11281205 0.69415379
-0.050578959 0.11101875 0.69423163
-0.048833475 0.11618762 0.69537175
-0.052240461 0.11467736 0.6950435
-0.050843306 0.11875023 0.69647127
-0.053973738 0.11747795 0.69627827
-0.018649049 0.055152334 0.69901395
-0.02127259 0.053465318 0.69923449
-0.011776119 0.063681751 0.69937348
-0.014533447 0.061093189 0.70011169
-0.018061109 0.057551056 0.70078152
-0.02382989 0.054540526 0.70111448
-0.028257605 0.054208793 0.70009619
-0.031996064 0.053646296 0.69936055
-0.01049069 0.070565529 0.6986928
-0.01185954 0.067524008 0.70025069
-0.014585117 0.064151317 0.70230019
-0.03077672 0.056184854 0.70226264
-0.035029672 0.056033432 0.70030928
-0.038260885 0.056673158 0.69859016
-0.0084197409 0.077080756 0.69895935
-0.0097620953 0.073957562 0.70001101
-0.01192023 0.07066875 0.70176512
-0.037929915 0.05792769 0.70155007
-0.041432247 0.058075368 0.69996601
-0.044985756 0.058915392 0.69909751
-0.0092471 0.080224469 0.69918168
-0.011766 0.079312727 0.70156503
-0.044668358 0.062945388 0.70160985
-0.046905562 0.061223794 0.69913101
-0.010842928 0.085304506 0.70009375
-0.013688386 0.081922561 0.70223576
-0.020233888 0.082468152 0.70208412
-0.024607379 0.079199843 0.70092303
-0.026891002 0.079235896 0.70083207
-0.035818309 0.075205438 0.70078301
-0.037047997 0.073344432 0.70107955
-0.042471997 0.071451567 0.70220572
-0.045974158 0.066041932 0.70220846
-0.050029285 0.065781988 0.70014423
-0.013329383 0.089022547 0.69985253
-0.017222617 0.088444754 0.70155346
-0.021435618 0.085488111 0.70061284
-0.025000013 0.081967771 0.69855499
-0.029686071 0.081236303 0.6994912
-0.03561271 0.078765392 0.69956738
-0.038582928 0.075122744 0.69883043
-0.043932706 0.074349269 0.70065713
-0.048732705 0.072651364 0.70146155
-0.051494986 0.069786802 0.69993937
-0.01564105 0.091249615 0.69764447
-0.018265866 0.090203986 0.6988703
-0.021139488 0.088796332 0.69863451
-0.030505368 0.088191241 0.70182872
-0.032465383 0.085401438 0.70011359
-0.036925815 0.083008513 0.70015234
-0.040199429 0.083396308 0.70172048
-0.046431564 0.076059371 0.69850856
-0.049525045 0.074509919 0.69884914
-0.03119993 0.091795251 0.70041442
-0.032413654 0.088993356 0.6990751
-0.039634772 0.085637048 0.69909191
-0.042609766 0.086251795 0.70055729
-0.031729188 0.096973732 0.70006609
-0.045941491 0.089990914 0.69998801
-0.032296631 0.10174231 0.69889683
-0.033130713 0.10153113 0.6996001
-0.048452489 0.094288275 0.69948614
-0.037201788 0.10375625 0.70020849
-0.041730832 0.10397063 0.70006508
-0.046171598 0.10140104 0.70019656
-0.048123509 0.098045692 0.69971132
-0.049678031 0.11690021 0.69850844
-0.052435931 0.11589992 0.69844425
-0.050599173 0.11887978 0.69910675
-0.053858228 0.11762013 0.69884938
-0.017443974 0.061989285 0.70268059
-0.020124996 0.058194116 0.70300156
-0.023007246 0.056469865 0.70307142
-0.026871145 0.056723982 0.70265448
-0.013731525 0.068063684 0.70318258
-0.016819559 0.065495938 0.70396245
-0.021628376 0.062743537 0.70520884
-0.025844473 0.060733564 0.70545805
-0.030601647 0.058644839 0.70385784
-0.034359634 0.058034029 0.70333892
-0.011942524 0.07472264 0.70377779
-0.01448261 0.07207185 0.70456451
-0.019023592 0.069817528 0.70590258
-0.023553269 0.067258529 0.70672745
-0.027891476 0.065135814 0.70689124
-0.032702964 0.063023709 0.70576972
-0.037047226 0.06087482 0.70455879
-0.040981758 0.060308974 0.70376736
-0.013257033 0.077452429 0.70387471
-0.016895413 0.076178454 0.70556515
-0.020158239 0.074345648 0.70706165
-0.027124634 0.069671333 0.70755959
-0.027592732 0.068250552 0.70753324
-0.035216607 0.066648483 0.70710105
-0.03922445 0.065042965 0.70549273
-0.042532459 0.062958017 0.70381618
-0.013049779 0.086062446 0.70275784
-0.015100857 0.083235912 0.70301592
-0.018945117 0.080900371 0.70416498
-0.02404868 0.079084367 0.70512438
-0.026692213 0.078697354 0.70745754
-0.034888264 0.074833311 0.70743781
-0.037349418 0.072392941 0.7053653
-0.041594919 0.069759361 0.70424509
-0.045356434 0.067979097 0.70306695
-0.049215008 0.068126112 0.70269322
-0.013627193 0.08726383 0.70260525
-0.015788816 0.086858496 0.70299256
-0.027066957 0.080711655 0.70487231
-0.028821478 0.08194916 0.70582753
-0.036047291 0.078151867 0.70624793
-0.036755964 0.075974688 0.70496434
-0.04845237 0.0704033 0.70281631
-0.029919032 0.087067418 0.70555794
-0.029922629 0.085097529 0.70475322
-0.03855126 0.081422053 0.70396566
-0.039878458 0.081936091 0.70570326
-0.029966852 0.093169481 0.70520562
-0.044396594 0.085887268 0.70489025
-0.031170888 0.096349403 0.70577091
-0.046266425 0.088840559 0.70541847
-0.034299873 0.10100867 0.70519257
-0.047870081 0.094405636 0.70501763
-0.037401371 0.10475099 0.70503873
-0.041550405 0.10547256 0.70506215
-0.047612101 0.1021993 0.70506281
-0.049151056 0.098820165 0.70525259
-0.043626964 0.10507575 0.70566976
-0.045888945 0.10393149 0.70540947
-0.02439139 0.069333814 0.70773929
-0.029143898 0.06704028 0.70770293
-0.022512738 0.073685333 0.70780528
-0.025432462 0.072064832 0.70794433
-0.030598598 0.069520906 0.70793217
-0.033846945 0.068369865 0.70777518
-0.024037927 0.076254666 0.70781314
-0.028333019 0.076122306 0.70790511
-0.032033458 0.074211203 0.70789522
-0.034760624 0.070963673 0.70779663
-0.03056171 0.080874756 0.70835942
-0.03449785 0.079225652 0.70847028
-0.030051719 0.087486029 0.70951581
-0.031468436 0.084580749 0.71043748
-0.036868967 0.081701279 0.71017754
-0.040260926 0.082511328 0.70949543
-0.028988052 0.095344424 0.71154004
-0.029947072 0.093260974 0.70983034
-0.044554692 0.08574973 0.70960587
-0.04706439 0.086211808 0.71025294
-0.029237606 0.095764242 0.71075368
-0.031423293 0.096461773 0.70979404
-0.046553858 0.088985614 0.70961058
-0.047420546 0.086754873 0.71010298
-0.035050273 0.10086472 0.71010405
-0.047653325 0.09447439 0.70985353
-0.037675437 0.10448208 0.70995331
-0.042040002 0.1048919 0.71010214
-0.04684931 0.10237917 0.71015036
-0.048865058 0.098717615 0.71011776
-0.043224297 0.10515895 0.70771414
-0.045426399 0.10407093 0.7078141
-0.033611163 0.086387068 0.7138446
-0.037266612 0.084585279 0.71375167
-0.031905845 0.092179582 0.71444863
-0.034324225 0.089519739 0.71616459
-0.039397523 0.086874887 0.71600848
-0.042816292 0.086619116 0.71435684
-0.032968342 0.096245661 0.71502924
-0.042053506 0.089002527 0.71751404
-0.045708399 0.089997351 0.71494728
-0.035756566 0.10021715 0.71482897
-0.038258672 0.10126895 0.71681988
-0.046507131 0.097506359 0.71666169
-0.047150902 0.094687872 0.71481997
-0.038061284 0.1031967 0.71366847
-0.041188136 0.10300072 0.71502841
-0.0456907 0.10084482 0.7150088
-0.047839444 0.098042473 0.71382087
-0.036761343 0.090821937 0.71819532
-0.038749769 0.089451984 0.71801358
-0.034413882 0.095478773 0.71781582
-0.03824646 0.094986841 0.72049844
-0.041328788 0.093490109 0.72068417
-0.044435643 0.091562666 0.71823907
-0.035767488 0.098199382 0.71802378
-0.040000301 0.098285548 0.72070932
-0.043381393 0.09702424 0.72076893
-0.045635313 0.094087571 0.71811169
-0.041731764 0.10086764 0.71794111
-0.044066269 0.099500775 0.71812218
-0.036157735 0.079107359 0.72734386
-0.037409849 0.078209788 0.72756022
-0.036620606 0.080966763 0.72742951
-0.039848082 0.095431671 0.72400427
-0.040876724 0.094900787 0.72432083
-0.040374577 0.097838409 0.72460693
-0.042785026 0.096830264 0.72453487
-0.042490404 0.10019048 0.72393483
-0.043272126 0.099706501 0.72397882
-0.034663565 0.074864298 0.72924346
-0.035730459 0.074240878 0.72936934
-0.035246544 0.078600138 0.72964787
-0.037453115 0.077133931 0.72906357
-0.034604006 0.085238524 0.7308138
-0.037023958 0.083011456 0.72977352
-0.038747065 0.080322213 0.72954142
-0.035545494 0.088561684 0.73197734
-0.037977189 0.086543925 0.73146057
-0.03815306 0.094463721 0.73088437
-0.040405981 0.094074607 0.73070592
-0.039910547 0.098109283 0.72996491
-0.042254075 0.096819013 0.72974634
-0.034751758 0.085886672 0.73387545
-0.036707304 0.084006138 0.73375797
-0.035501428 0.089614168 0.73490644
-0.038314804 0.087915346 0.7346797
-0.037556939 0.094145969 0.73534828
-0.039719131 0.092774048 0.73407477
-0.039712466 0.096901238 0.73403192
-0.040965259 0.095833242 0.73339951
