# .PCD v0.7 - Point Cloud Data file format
VERSION 0.7
FIELDS x y z
SIZE 4 4 4
TYPE F F F
COUNT 1 1 1
WIDTH 1294
HEIGHT 1
VIEWPOINT 0 0 0 1 0 0 0
POINTS 1294
DATA ascii
0.20757858 -0.10818119 0.84453148
0.20501314 -0.10878278 0.84430623
0.20001253 -0.10890883 0.84429228
0.19502787 -0.10905885 0.84431618
0.1900185 -0.10914709 0.84449124
0.18502589 -0.10928077 0.84455949
0.18007918 -0.10938251 0.84464037
0.17487237 -0.1095202 0.84453601
0.16987202 -0.10961448 0.84478062
0.16493766 -0.10972545 0.84468943
0.16014516 -0.10985834 0.84471619
0.15687764 -0.10975053 0.84481442
0.20758335 -0.10769972 0.84969413
0.20499046 -0.10814331 0.84978384
0.2000227 -0.10827129 0.84970814
0.19511865 -0.10839543 0.84964985
0.1900728 -0.1084985 0.84977555
0.18500623 -0.10862635 0.84971845
0.18007217 -0.10877043 0.84951544
0.17500632 -0.10885979 0.8497479
0.16997628 -0.10895967 0.84989476
0.16504203 -0.10910102 0.84971237
0.16009533 -0.10920606 0.84980559
0.15688017 -0.10899791 0.84952939
0.20758061 -0.10697275 0.8542816
0.20502742 -0.10750555 0.8545779
0.20014921 -0.10760295 0.85471624
0.19513191 -0.10773247 0.8546378
0.18999979 -0.10786569 0.85455191
0.18507892 -0.10797702 0.8545931
0.18022276 -0.10808949 0.8546142
0.1750695 -0.10820469 0.85466778
0.17008799 -0.10833095 0.85460746
0.16515765 -0.10843283 0.85472143
0.16002721 -0.10857731 0.85455054
0.15687932 -0.10836796 0.85480046
0.20758322 -0.10641806 0.8592965
0.20513098 -0.10686445 0.85938513
0.20019336 -0.10693812 0.85971272
0.19527937 -0.10706167 0.85966074
0.18999673 -0.1072308 0.85933149
0.18502468 -0.10730062 0.85969424
0.18018669 -0.10743017 0.85958356
0.17503569 -0.10755523 0.85956258
0.17010565 -0.10767493 0.85954237
0.16524142 -0.10775743 0.85979044
0.16002592 -0.10790648 0.85960042
0.15676132 -0.10768097 0.85960138
0.20758098 -0.10561954 0.86458844
0.20508645 -0.10620192 0.86438018
0.19992565 -0.10629061 0.86463463
0.19496498 -0.10641302 0.86459953
0.19013877 -0.10654004 0.86450571
0.18514189 -0.10664123 0.86463684
0.18025994 -0.10677436 0.8645069
0.17514184 -0.10690592 0.86443108
0.17033054 -0.10699148 0.86464667
0.16510549 -0.10712273 0.86459231
0.15985566 -0.10724434 0.8646149
0.15686251 -0.10712436 0.86480236
0.20758216 -0.10508673 0.86897534
0.20495884 -0.10553439 0.86942768
0.2000477 -0.10565086 0.86942846
0.19511439 -0.10574795 0.86957908
0.18999778 -0.10585152 0.86971366
0.1852133 -0.10597867 0.86961132
0.1801981 -0.10612947 0.86937225
0.17505683 -0.10621835 0.86962187
0.17001832 -0.10634756 0.86954945
0.16505851 -0.10648472 0.86940324
0.16037531 -0.10656722 0.86961895
0.1570255 -0.10642179 0.86993921
0.20758319 -0.1044427 0.87415874
0.20514086 -0.10488779 0.87426233
0.20023663 -0.10497027 0.87451774
0.19524401 -0.10509434 0.87447584
0.19011888 -0.10518937 0.87467623
0.18503116 -0.10535637 0.87432814
0.18016142 -0.10542306 0.87469625
0.17490862 -0.10556133 0.87459397
0.16991645 -0.10569949 0.87444597
0.16493736 -0.10580859 0.87451434
0.16010883 -0.10593539 0.87442255
0.15683652 -0.10578296 0.87481278
0.20757993 -0.10357182 0.87965864
0.20511743 -0.10422483 0.87925684
0.19994833 -0.10429299 0.87966734
0.1950772 -0.10441999 0.87958163
0.19006866 -0.10455082 0.87949169
0.18519181 -0.10467536 0.87942564
0.18003759 -0.10478476 0.87952304
0.17499879 -0.10490446 0.87952232
0.17006125 -0.10502268 0.87951469
0.16492069 -0.10516328 0.8793748
0.15990987 -0.10527748 0.87941039
0.15673593 -0.10501672 0.8793757
0.20757982 -0.10290734 0.88462573
0.2051409 -0.10353969 0.8844099
0.20010273 -0.10366829 0.88434207
0.19500269 -0.10380389 0.88423258
0.19002984 -0.1039007 0.88439232
0.18497963 -0.10402413 0.88436562
0.18006733 -0.1041453 0.88433123
0.17484605 -0.10425859 0.88441128
0.16998918 -0.10436541 0.88447505
0.16512361 -0.10449156 0.88439476
0.16009964 -0.10460807 0.88441539
0.15687272 -0.10446949 0.88448709
0.20758435 -0.10244821 0.88954604
0.20517458 -0.10289724 0.88923979
0.20010002 -0.10300051 0.88936913
0.19520272 -0.10312053 0.88934076
0.19008805 -0.10323468 0.8893953
0.18518735 -0.1033835 0.88915074
0.18015398 -0.10349618 0.88920188
0.17505769 -0.10359845 0.88934255
0.17016052 -0.10370637 0.88940519
0.16515709 -0.10382746 0.88938767
0.15994439 -0.10394886 0.88940519
0.15677571 -0.10369306 0.88960189
0.20757776 -0.10153884 0.89426458
0.20511089 -0.10224222 0.89418173
0.20011806 -0.10232516 0.89444947
0.19524001 -0.10245166 0.89436883
0.1902141 -0.10257522 0.89433676
0.18492305 -0.10272177 0.89417893
0.18017045 -0.10284296 0.89411592
0.17510675 -0.10290426 0.8945592
0.17011853 -0.10304897 0.8943612
0.16513811 -0.10314544 0.89452481
0.16014466 -0.10328634 0.89435643
0.15683523 -0.10301308 0.89471835
0.20757535 -0.1007742 0.89924121
0.20535301 -0.10157657 0.899149
0.2001434 -0.10167006 0.89937609
0.19535023 -0.10178912 0.89933628
0.19024104 -0.10190204 0.89939922
0.18504056 -0.10205926 0.89914495
0.18003514 -0.10214817 0.89937001
0.175036 -0.10224554 0.89953029
0.17013368 -0.10239923 0.89924926
0.16515961 -0.10250603 0.89933407
0.16012858 -0.10263231 0.8992824
0.15684696 -0.10241066 0.89910811
0.20758106 -0.10033132 0.90441704
0.20524542 -0.10093305 0.90401226
0.20011425 -0.10103371 0.90417135
0.19501278 -0.10116666 0.90408206
0.19000573 -0.10126439 0.90424103
0.18502048 -0.10139582 0.9041425
0.18018606 -0.10152441 0.90403831
0.17514603 -0.10160983 0.90429574
0.16989979 -0.10171713 0.90442544
0.16509959 -0.10186902 0.90413976
0.15993521 -0.1019692 0.90430838
0.15694429 -0.10181759 0.90421569
0.20758012 -0.099679232 0.90902352
0.20488749 -0.10025558 0.90917575
0.19989422 -0.10038389 0.90910202
0.19521162 -0.100471 0.90928304
0.19026667 -0.10059638 0.90922272
0.18516034 -0.10071762 0.90922254
0.1800195 -0.10083424 0.90926319
0.17500219 -0.10097453 0.90910357
0.1700024 -0.10106142 0.90934283
0.16498521 -0.10120577 0.90915275
0.16012552 -0.10128491 0.90942526
0.15692484 -0.10115381 0.9090423
0.20757917 -0.098978452 0.91399193
0.20537615 -0.099604309 0.9139908
0.20020561 -0.099715158 0.9140802
0.19519514 -0.099819332 0.91419125
0.19007041 -0.099937625 0.91421646
0.18528605 -0.10006645 0.91410154
0.18017118 -0.10018569 0.91411787
0.17520273 -0.10028808 0.91423494
0.17019442 -0.10042681 0.91408551
0.1652277 -0.10051842 0.91428328
0.16006184 -0.10063913 0.9142977
0.15687066 -0.10044894 0.91440487
0.20758386 -0.098491132 0.91917092
0.20493679 -0.098960511 0.91891539
0.20008683 -0.099041075 0.91917545
0.19499633 -0.099167861 0.91913062
0.19008286 -0.099252492 0.91937149
0.18524984 -0.099429265 0.91890436
0.1802859 -0.09955366 0.91885495
0.17528734 -0.099629104 0.9191801
0.16999282 -0.099751361 0.91920578
0.16521268 -0.099871315 0.91915691
0.16016006 -0.099949934 0.91946793
0.15690553 -0.099905133 0.91905415
0.2075851 -0.0979103 0.92394513
0.20490816 -0.098287493 0.92398649
0.20015134 -0.098418936 0.92384702
0.19513059 -0.09849675 0.92415828
0.19009268 -0.098631337 0.92404532
0.18485001 -0.098771691 0.92392552
0.17991155 -0.098883569 0.92396581
0.17494169 -0.098977983 0.92414308
0.17004895 -0.09909758 0.92411703
0.16475451 -0.099203758 0.92426372
0.16025864 -0.099320672 0.92418694
0.1568971 -0.09918943 0.92396706
0.20758009 -0.097106613 0.92837989
0.20493583 -0.097628161 0.92894459
0.19998725 -0.097739615 0.92898977
0.19481832 -0.097859405 0.92901164
0.18996339 -0.097950727 0.92919165
0.18504417 -0.09806706 0.92919487
0.17980522 -0.098212749 0.92903423
0.17502147 -0.098308355 0.9291693
0.17023578 -0.098427579 0.92912698
0.16520092 -0.098590262 0.92880195
0.16001886 -0.098674953 0.92909032
0.15692632 -0.098514207 0.92894936
0.20758137 -0.096410111 0.93403673
0.2050761 -0.096962847 0.93392754
0.20009372 -0.097061053 0.93407851
0.19511937 -0.097222149 0.93375468
0.19009773 -0.097303256 0.93404138
0.18503471 -0.097446293 0.93386924
0.18009299 -0.097538292 0.93405974
0.17517152 -0.097660244 0.93402106
0.17009211 -0.097791269 0.93394238
0.16501328 -0.097913891 0.93392676
0.16014159 -0.098021582 0.93398654
0.1567525 -0.097863942 0.93363482
0.20757833 -0.095646381 0.93880093
0.20513825 -0.096322805 0.93873429
0.20025671 -0.096413285 0.93892539
0.19525689 -0.096551903 0.93877524
0.19001204 -0.096671201 0.9388144
0.18522336 -0.096762821 0.93898028
0.18006378 -0.096859775 0.93917239
0.17499614 -0.097009994 0.93894708
0.17019996 -0.0971331 0.93887728
0.16507471 -0.097235292 0.93902385
0.16024594 -0.097342581 0.93907899
0.15692353 -0.097228199 0.93878567
0.20757838 -0.094985053 0.94379616
0.20511197 -0.095630579 0.94394958
0.20000714 -0.09577246 0.94379365
0.19491136 -0.095862776 0.94402432
0.19017158 -0.096020721 0.94368225
0.18483041 -0.096114606 0.94392985
0.17999342 -0.096213393 0.94405043
0.17494643 -0.096372321 0.94375587
0.17008454 -0.096463695 0.94393677
0.16500002 -0.096578956 0.94397765
0.1601875 -0.096688613 0.94401199
0.15685803 -0.096467212 0.94373345
0.20757841 -0.094325483 0.94876766
0.20494871 -0.0950009 0.94871855
0.20025799 -0.095092952 0.94886369
0.19508092 -0.095231295 0.94874734
0.19003876 -0.095352404 0.94873661
0.18502113 -0.095440805 0.9489677
0.18011421 -0.095571481 0.94886076
0.17516635 -0.095682636 0.94890809
0.16996193 -0.095798053 0.94896919
0.16512811 -0.095887475 0.94915974
0.16009377 -0.096042901 0.94888926
0.15684548 -0.095876858 0.94887811
0.20758055 -0.093713753 0.95406872
0.20511425 -0.09432438 0.95378131
0.20017813 -0.09443219 0.95385176
0.19535539 -0.094542697 0.95388162
0.19009018 -0.094666034 0.95389396
0.18516013 -0.094758511 0.95407873
0.18022311 -0.094890341 0.95396852
0.17516148 -0.095033035 0.95379871
0.17019913 -0.095121704 0.95401788
0.16512369 -0.095256619 0.95390916
0.16002607 -0.095398858 0.9537493
0.1568981 -0.095231168 0.95382947
0.20757876 -0.093083322 0.95823437
0.20510747 -0.093658783 0.95879275
0.20014364 -0.093796313 0.95864433
0.1952402 -0.093871325 0.95895582
0.19002889 -0.094034918 0.95865554
0.18500373 -0.094117336 0.958933
0.18004008 -0.094264135 0.95871484
0.17518477 -0.09436281 0.95883954
0.17012659 -0.094483748 0.95883292
0.16521452 -0.094603024 0.95881277
0.15999325 -0.094729915 0.95879048
0.15676814 -0.094616383 0.95857084
0.20758224 -0.092421137 0.96433836
0.20486453 -0.093038544 0.96350485
0.19999687 -0.093145527 0.96356928
0.1951928 -0.093230508 0.96378791
0.19001652 -0.093372904 0.96364093
0.1850597 -0.093485534 0.96367872
0.18019472 -0.093581907 0.96382254
0.17516012 -0.093722567 0.96366322
0.17023377 -0.093802646 0.96394074
0.164976 -0.09392646 0.96394813
0.16034013 -0.09404628 0.96387446
0.15692931 -0.09382429 0.96396607
0.20758148 -0.091802292 0.96875399
0.20494325 -0.092371665 0.96851063
0.20019682 -0.092463389 0.96866822
0.19504461 -0.092609204 0.96849114
0.18991594 -0.092720635 0.96856874
0.18486452 -0.09282361 0.96869618
0.17999202 -0.092922173 0.9688248
0.17502955 -0.093063012 0.96865129
0.17008641 -0.093152262 0.96886265
0.16507065 -0.093294874 0.96868533
0.15990716 -0.09340778 0.96875805
0.15681447 -0.093296282 0.96841437
0.20758574 -0.091335095 0.97364318
0.20497026 -0.091698691 0.97357154
0.20010465 -0.091801614 0.97366607
0.19501778 -0.091933452 0.97358257
0.19003744 -0.092029274 0.97375113
0.18500067 -0.092177317 0.97353673
0.18002936 -0.092258997 0.97381008
0.17491393 -0.092401534 0.97365111
0.17007232 -0.092523463 0.97359836
0.16514227 -0.092608988 0.97383541
0.16006622 -0.092765525 0.97356409
0.15679824 -0.092459023 0.9740957
0.2075808 -0.09046489 0.97860116
0.20522501 -0.091011249 0.97870058
0.20000222 -0.091167599 0.97845685
0.19509913 -0.091258675 0.97864729
0.1900631 -0.091367319 0.97872931
0.18513286 -0.091511004 0.97852862
0.18008402 -0.091627128 0.97855657
0.17511624 -0.091734529 0.97863573
0.16994199 -0.091835015 0.97880381
0.1650081 -0.0919502 0.9788183
0.16020781 -0.092059866 0.97885048
0.15685089 -0.091993243 0.97840166
0.20758134 -0.089878716 0.98318791
0.20499599 -0.090366259 0.98359656
0.19981629 -0.090490609 0.98358595
0.19504519 -0.090603046 0.98359209
0.19017777 -0.090727165 0.98352748
0.18511954 -0.090836011 0.98361188
0.18022253 -0.090984456 0.98336941
0.17511564 -0.091089323 0.98349255
0.17011254 -0.091184989 0.98366636
0.16502169 -0.091301799 0.98369658
0.16019021 -0.091431528 0.98358333
0.15691826 -0.091308564 0.98330909
0.2075865 -0.089471199 0.98792279
0.20477915 -0.089728326 0.98843724
0.20018832 -0.089853778 0.9883132
0.19526675 -0.089966863 0.98834127
0.19031698 -0.090075344 0.9884091
0.18517284 -0.090190515 0.98846126
0.1801001 -0.090315476 0.98842692
0.17518985 -0.090416864 0.98854113
0.17026326 -0.090533651 0.9885422
0.16513231 -0.090648994 0.98859078
0.15999895 -0.090774029 0.98856676
0.15679534 -0.090476155 0.98889422
0.20758098 -0.088585079 0.9928115
0.20506479 -0.089022152 0.99362129
0.20011984 -0.089208364 0.99318361
0.1949843 -0.089287937 0.99350226
0.1899749 -0.089424103 0.99337226
0.18490161 -0.089546829 0.99335492
0.1800531 -0.089635298 0.99355531
0.17516455 -0.089784697 0.99330413
0.17008874 -0.089895613 0.99337614
0.16508734 -0.090013713 0.99338078
0.16017893 -0.090080336 0.99355406
0.15691622 -0.090036824 0.99330223
0.20561917 -0.088279016 0.99581873
0.19982745 -0.088263899 0.99581671
0.19513151 -0.088465609 0.99584347
0.19003746 -0.088618085 0.99586374
0.18501884 -0.088531457 0.99585223
0.18034612 -0.088800147 0.99588794
0.17514703 -0.088987932 0.99591285
0.17039414 -0.088971913 0.99591076
0.16495699 -0.08900892 0.99591565
0.16063389 -0.089301243 0.99595451
0.1572351 -0.089776315 0.99601758
0.2075071 -0.1051612 0.84419388
0.20503387 -0.10577057 0.8417806
0.20006227 -0.10565064 0.84176469
0.19506551 -0.10591441 0.84179974
0.19002986 -0.10595664 0.84180534
0.18501483 -0.10641152 0.84186578
0.17995009 -0.10640837 0.84186536
0.17480734 -0.1062265 0.84184122
0.17018405 -0.10650598 0.84187829
0.16505633 -0.10642086 0.84186703
0.15995269 -0.10668755 0.84190243
0.15654273 -0.10650719 0.84430653
0.20751113 -0.10468583 0.84907293
0.15652248 -0.10571267 0.84957683
0.20751044 -0.10397868 0.85417354
0.15652527 -0.1052089 0.85426378
0.20751044 -0.1033224 0.85911334
0.15652135 -0.10438863 0.85917348
0.20751293 -0.10276058 0.86414707
0.15652624 -0.1039394 0.8641274
0.20750545 -0.10181448 0.86885369
0.15652297 -0.10311126 0.86931628
0.20750733 -0.10118225 0.87421709
0.15652707 -0.10263165 0.8742429
0.2075095 -0.10066511 0.87881064
0.15652208 -0.10180476 0.87885624
0.20751549 -0.10024613 0.88389701
0.15652049 -0.1010508 0.88401228
0.20751311 -0.099470936 0.88896495
0.15651914 -0.10036005 0.88877797
0.20750457 -0.098449945 0.8938961
0.15652002 -0.099724934 0.89383829
0.20750774 -0.097958051 0.89862162
0.15652123 -0.099078745 0.89908981
0.20750782 -0.097282715 0.90372813
0.1565229 -0.098529525 0.90376544
0.20750672 -0.096583925 0.9086324
0.15652622 -0.098019898 0.90867138
0.20750986 -0.096051723 0.91365522
0.15652803 -0.097436234 0.91365039
0.20751268 -0.095506229 0.91867143
0.15652706 -0.096749842 0.91850317
0.20750928 -0.094704643 0.92360598
0.15652576 -0.096013337 0.92362458
0.20750943 -0.094046727 0.92860824
0.15652451 -0.09530396 0.92856205
0.20750536 -0.093228839 0.93344843
0.15652637 -0.094705515 0.9336701
0.20750882 -0.092725642 0.93835217
0.15652503 -0.093984067 0.93866581
0.20751141 -0.092162043 0.94343549
0.15652005 -0.0931288 0.94349879
0.2075045 -0.091219157 0.9483006
0.15652546 -0.092704266 0.94843721
0.20750971 -0.090772949 0.95334125
0.15652867 -0.092170201 0.953493
0.20750605 -0.089977339 0.95814639
0.15652306 -0.091276675 0.95841146
0.20750779 -0.089416869 0.96292996
0.15652393 -0.090653181 0.96338373
0.20750804 -0.088730104 0.96817905
0.15652832 -0.090172067 0.9684245
0.20751287 -0.088274799 0.97316396
0.15652056 -0.08918792 0.9733246
0.20751536 -0.087719843 0.97814441
0.15652457 -0.088714227 0.97818464
0.20750983 -0.086852312 0.98289204
0.15652454 -0.088055804 0.9831298
0.2075133 -0.086351879 0.98777914
0.15652049 -0.087213144 0.98816741
0.20750743 -0.085418895 0.99290484
0.2014913 -0.087014303 0.99565065
0.1831429 -0.084465116 0.99531204
0.17798807 -0.084936984 0.99537468
0.16939802 -0.087230548 0.99567938
0.16594821 -0.088124976 0.99579823
0.16034234 -0.085034698 0.99538767
0.15652919 -0.086897001 0.99335456
0.2050336 -0.085439995 0.99544156
0.19994013 -0.085099995 0.99539638
0.19472317 -0.085348085 0.99542928
0.18989137 -0.085667051 0.99547172
0.18531589 -0.085651137 0.99546957
0.18026975 -0.085851021 0.99549615
0.17517552 -0.085702024 0.99547637
0.17000628 -0.086090669 0.99552798
0.16505909 -0.085923791 0.99550581
0.15976277 -0.086460762 0.99557716
0.15693302 -0.086351529 0.99556261
0.20739426 -0.10040447 0.8435815
0.2047694 -0.10103568 0.8411516
0.19989452 -0.10079597 0.84111977
0.19488518 -0.10092719 0.84113717
0.18988636 -0.10121457 0.84117538
0.18476792 -0.1011249 0.84116346
0.17961055 -0.10131139 0.84118825
0.17487548 -0.10145648 0.8412075
0.16971219 -0.10150421 0.84121382
0.16490522 -0.10134332 0.84119248
0.15985215 -0.10173614 0.84124464
0.15643974 -0.10159728 0.8436414
0.20738994 -0.099564515 0.84850788
0.15641215 -0.10109963 0.84868777
0.207398 -0.099249817 0.85347921
0.15640707 -0.10023547 0.85355943
0.20738941 -0.098198548 0.85862404
0.15640938 -0.09966033 0.85862547
0.20739132 -0.097626634 0.86354345
0.15641132 -0.099079013 0.86362708
0.20738642 -0.096780233 0.86833096
0.15640523 -0.098198183 0.86829591
0.20738943 -0.09625151 0.87328267
0.15641025 -0.097739853 0.87335962
0.20739023 -0.095612593 0.87835366
0.15640616 -0.096908167 0.87830442
0.20739539 -0.095183514 0.88324672
0.15640184 -0.096078105 0.88315511
0.20739484 -0.094533168 0.88796359
0.1564056 -0.095570527 0.88819158
0.2073852 -0.093469486 0.89286071
0.15640217 -0.094780952 0.89302647
0.20739047 -0.093005836 0.89805305
0.15640579 -0.094255723 0.89814419
0.20739058 -0.092342608 0.90307784
0.15640447 -0.093526714 0.90320271
0.2073926 -0.091800161 0.90781355
0.15640727 -0.093007669 0.90801388
0.20739108 -0.091046378 0.91299713
0.15640326 -0.092171535 0.91301191
0.20739284 -0.090471312 0.9178943
0.1564054 -0.091595381 0.91804099
0.20739605 -0.089937568 0.92294478
0.15640599 -0.090962857 0.92299241
0.20739339 -0.089189813 0.92772049
0.1564098 -0.090471521 0.92791897
0.20738725 -0.088277243 0.9326086
0.15640351 -0.089532658 0.9329564
0.20739157 -0.087781794 0.93773282
0.15640806 -0.08906921 0.93791354
0.20739423 -0.087268822 0.94244844
0.15641111 -0.088512726 0.94308507
0.2073878 -0.086310774 0.94758683
0.15640593 -0.087658726 0.9478448
0.20739321 -0.085880473 0.95257151
0.15640564 -0.08699061 0.95278054
0.20738754 -0.084985405 0.95747906
0.15640172 -0.086176269 0.95764387
0.20739007 -0.084428683 0.96248353
0.1564073 -0.085730962 0.96279407
0.20738961 -0.083766147 0.96732157
0.15640913 -0.085150115 0.96775854
0.20738898 -0.083066612 0.97238624
0.15641034 -0.084564313 0.97255945
0.20739254 -0.082544588 0.97746629
0.15640524 -0.083675146 0.97760791
0.20739302 -0.081888497 0.98255932
0.15640484 -0.083009191 0.98248941
0.20738789 -0.08103615 0.98732042
0.15640604 -0.082377449 0.98763347
0.20739402 -0.080622829 0.99240702
0.18148649 -0.080635294 0.99480319
0.17372748 -0.080598392 0.9947983
0.17009738 -0.080487572 0.99478358
0.16510047 -0.083108678 0.99513185
0.16015744 -0.083283164 0.99515498
0.15640831 -0.081826359 0.99251509
0.20452975 -0.080278575 0.99475586
0.19951464 -0.08033295 0.99476308
0.19471948 -0.080607213 0.99479949
0.1900211 -0.080466166 0.99478078
0.18487319 -0.080680467 0.99480927
0.17964412 -0.081012771 0.99485338
0.17504099 -0.081113294 0.99486673
0.16990831 -0.081295475 0.99489093
0.16486856 -0.081086673 0.99486321
0.1599541 -0.080963567 0.99484682
0.1569632 -0.081744716 0.99495065
0.20727158 -0.095245682 0.84282148
0.2045448 -0.095850401 0.84046274
0.19990391 -0.095868602 0.84046513
0.19472194 -0.096037418 0.8404876
0.18980524 -0.09611313 0.84049761
0.18489619 -0.096127838 0.84049958
0.1798414 -0.096053533 0.84048975
0.17489776 -0.096258759 0.84051698
0.16984138 -0.096479014 0.84054625
0.1649119 -0.096711457 0.84057713
0.15974942 -0.096828379 0.84059268
0.15632243 -0.096728042 0.84300965
0.20727248 -0.094623893 0.84779572
0.15629697 -0.096239313 0.8480975
0.20727883 -0.094224036 0.85285431
0.15629199 -0.095358402 0.8531214
0.20727141 -0.093260862 0.85770851
0.15629421 -0.094812185 0.85794771
0.2072712 -0.092594594 0.86265564
0.15629576 -0.094225213 0.86286718
0.20727056 -0.091890424 0.86775219
0.15629488 -0.093528159 0.86783051
0.20727381 -0.091363013 0.87276828
0.15629373 -0.092807665 0.87288594
0.20726825 -0.090488359 0.87756026
0.15629554 -0.09223263 0.87779683
0.20727409 -0.090066999 0.88261676
0.15629764 -0.091659859 0.88278514
0.2072749 -0.089466467 0.88739735
0.15629798 -0.091026373 0.88766217
0.20726873 -0.088530488 0.89244992
0.15629371 -0.090199947 0.89250284
0.20727409 -0.08809308 0.89747459
0.1562935 -0.089511089 0.89762074
0.20727329 -0.087415338 0.9023186
0.1562905 -0.088739984 0.90245253
0.20727229 -0.086702444 0.9073621
0.1562908 -0.088079177 0.9075231
0.20727465 -0.086166017 0.91215789
0.1562853 -0.08721114 0.91228235
0.20727757 -0.085590877 0.91742849
0.15628986 -0.086749353 0.91723204
0.20727132 -0.084657125 0.9224447
0.15628983 -0.086077586 0.92227626
0.20727062 -0.084003754 0.92713398
0.15629002 -0.085411049 0.92735559
0.20727411 -0.083469495 0.93228054
0.15628946 -0.084738262 0.93223643
0.20727681 -0.082955189 0.93702507
0.15628976 -0.084083982 0.93725753
0.20727009 -0.081991129 0.94211477
0.15629002 -0.083460301 0.94204003
0.20727493 -0.081558965 0.94692844
0.15629101 -0.082838461 0.9470368
0.20727244 -0.080806963 0.95178509
0.15628448 -0.081899062 0.95200425
0.20727466 -0.080220245 0.95691711
0.15628953 -0.081437066 0.95711195
0.20727201 -0.079445019 0.96189636
0.1562929 -0.080947801 0.96188027
0.20727316 -0.078822859 0.96695143
0.15628842 -0.08008828 0.96690452
0.20727314 -0.078175962 0.97181678
0.15628648 -0.079352707 0.971816
0.20727749 -0.077696741 0.97683001
0.15628898 -0.078791507 0.97684765
0.20727541 -0.076950118 0.98177361
0.15628764 -0.078081012 0.98176318
0.20727165 -0.07612364 0.98678595
0.15628761 -0.077414095 0.9867748
0.20726942 -0.075369522 0.99174142
0.18238771 -0.076632619 0.99427146
0.18009484 -0.076255947 0.99422145
0.16405404 -0.075652272 0.99414122
0.15818882 -0.074952021 0.99404824
0.15629487 -0.07686796 0.9916687
0.20467167 -0.075344324 0.99410033
0.20003605 -0.075529262 0.99412489
0.19477418 -0.075614393 0.99413627
0.18982746 -0.075551614 0.99412787
0.18492568 -0.075567499 0.99412996
0.17966767 -0.076258928 0.99422181
0.17467578 -0.076041602 0.99419296
0.16979882 -0.076165274 0.99420941
0.16499962 -0.076257885 0.99422169
0.15991247 -0.076463073 0.99424899
0.15689656 -0.076559693 0.99426174
0.20715035 -0.090118304 0.84229779
0.20468658 -0.090860777 0.83979988
0.19956389 -0.09098991 0.83981705
0.19453216 -0.091043442 0.83982414
0.18948166 -0.091065578 0.83982706
0.18468083 -0.091225386 0.83984828
0.17955877 -0.091220535 0.83984768
0.17462149 -0.091383614 0.83986932
0.16960798 -0.091511384 0.83988631
0.16455196 -0.091519989 0.83988744
0.15956271 -0.091877982 0.839935
0.15628597 -0.091643251 0.84192121
0.20715533 -0.089670151 0.84727508
0.1561732 -0.091043383 0.8472594
0.20715876 -0.089185141 0.85203129
0.15616992 -0.090235636 0.85228264
0.20715579 -0.088388763 0.85707021
0.15617591 -0.089828052 0.85727972
0.20715472 -0.087689191 0.8619895
0.15617354 -0.089060575 0.86229455
0.20715462 -0.087029181 0.86692524
0.1561763 -0.088525884 0.86720926
0.20715284 -0.086279824 0.87199104
0.15617645 -0.087845333 0.87238091
0.20715335 -0.085649267 0.87690258
0.15617821 -0.087277189 0.87722415
0.20715462 -0.08503148 0.88196027
0.15617123 -0.086344808 0.88199157
0.2071524 -0.084292769 0.88680685
0.1561756 -0.085871764 0.88696069
0.20715246 -0.083656825 0.89161474
0.15617684 -0.085236542 0.89214188
0.20716178 -0.083390862 0.8966257
0.15617365 -0.084445149 0.89706701
0.20715997 -0.082625806 0.90179628
0.15617228 -0.083746664 0.90188581
0.20715383 -0.081724182 0.90660167
0.15617105 -0.083039224 0.90681446
0.20715539 -0.081116557 0.91168296
0.15617444 -0.082517892 0.91183317
0.20715787 -0.080562748 0.91664714
0.15617391 -0.081849426 0.91669422
0.20716316 -0.080120988 0.921682
0.15617424 -0.081205569 0.92164916
0.20715609 -0.07915698 0.92665929
0.15617342 -0.080523238 0.92651862
0.207157 -0.078538187 0.93160969
0.15617071 -0.079728901 0.93162489
0.20716402 -0.078159235 0.93672603
0.15617327 -0.079189464 0.93651152
0.20715635 -0.077195182 0.94150645
0.15617085 -0.078410231 0.94159096
0.20715524 -0.076509476 0.94631243
0.15617317 -0.077847995 0.94657731
0.20715648 -0.0758899 0.95137334
0.15617305 -0.0772212 0.95125532
0.20715687 -0.075237587 0.95641017
0.15616699 -0.07628867 0.95631593
0.20715551 -0.074540094 0.96122396
0.15616818 -0.075682908 0.9612624
0.20716019 -0.074089952 0.96612304
0.15617198 -0.075163059 0.9664036
0.20715711 -0.0732885 0.97116011
0.15616457 -0.074223801 0.97107923
0.2071548 -0.072531268 0.97611433
0.15617119 -0.07385014 0.97602892
0.20715816 -0.072018445 0.98106003
0.15617579 -0.073381089 0.98104429
0.20715538 -0.071243189 0.98599577
0.1561695 -0.072481036 0.9857899
0.207156 -0.070610993 0.99095744
0.19260903 -0.069254145 0.99329126
0.18783304 -0.071402647 0.99357665
0.18486737 -0.070209607 0.99341822
0.17012241 -0.07046666 0.99345231
0.16469373 -0.072214678 0.99368453
0.15888782 -0.071793549 0.99362862
0.15620461 -0.071834914 0.99114215
0.20438376 -0.070341803 0.99343574
0.19963111 -0.070465848 0.99345219
0.194769 -0.070744529 0.99348927
0.18981895 -0.070571937 0.99346632
0.18484497 -0.070885248 0.99350792
0.17964849 -0.071179427 0.99354702
0.17467502 -0.071039632 0.99352849
0.16963916 -0.071096137 0.993536
0.16455665 -0.071325123 0.99356639
0.15987706 -0.071332484 0.99356735
0.1567208 -0.07150282 0.99359
0.20703705 -0.085348532 0.84163105
0.20456061 -0.085869886 0.83913684
0.19935757 -0.086026095 0.83915758
0.1945141 -0.086045712 0.8391602
0.18955821 -0.08607211 0.83916372
0.18469582 -0.086286969 0.83919221
0.17947042 -0.086631149 0.83923799
0.17443803 -0.086423494 0.83921039
0.16960008 -0.086534247 0.83922511
0.16437048 -0.086410254 0.8392086
0.1595839 -0.086514667 0.83922249
0.15621419 -0.086817525 0.84092385
0.2070401 -0.084834389 0.84649026
0.15605326 -0.085995033 0.84655315
0.20704271 -0.084290422 0.85142589
0.15605129 -0.085227087 0.85169637
0.20703842 -0.083439395 0.85644388
0.15605606 -0.084787421 0.85654664
0.20703876 -0.082796909 0.86139125
0.15605268 -0.083961263 0.86167216
0.20703459 -0.081947982 0.86643749
0.15605184 -0.083270632 0.86660039
0.20703584 -0.081359729 0.87127036
0.15605558 -0.082775995 0.87153268
0.20704083 -0.080933645 0.87608629
0.15605991 -0.082309127 0.87643999
0.20703752 -0.080097511 0.88131517
0.15605049 -0.081267267 0.88124591
0.20703651 -0.079396494 0.88626218
0.15606073 -0.081026703 0.88635856
0.20703495 -0.07868246 0.89113426
0.15605968 -0.080319166 0.89134806
0.20704351 -0.078388713 0.89610809
0.1560567 -0.079549178 0.89618522
0.20704146 -0.077636614 0.90110677
0.15605637 -0.078857861 0.90127808
0.20704095 -0.076962344 0.90601736
0.15605527 -0.078160584 0.90617144
0.20704454 -0.076471269 0.91087466
0.15605351 -0.07743597 0.91105962
0.2070405 -0.075622968 0.91595876
0.15605524 -0.076841824 0.91609079
0.20704363 -0.075110257 0.92082608
0.15604991 -0.075950764 0.92107779
0.20704189 -0.074351259 0.9259764
0.15605433 -0.075473458 0.92609692
0.20704551 -0.07384944 0.93092227
0.15605576 -0.074881457 0.93101454
0.2070403 -0.072964363 0.935902
0.1560549 -0.074178107 0.93602997
0.20703942 -0.072287321 0.94071245
0.15605389 -0.073472179 0.94101626
0.20703791 -0.071568638 0.94563913
0.15605485 -0.072854474 0.94598234
0.20704174 -0.071106702 0.9503504
0.15605588 -0.072252966 0.95083797
0.20703833 -0.070255026 0.95565867
0.1560519 -0.071424566 0.95579123
0.20703839 -0.069601893 0.96059543
0.15605618 -0.070928961 0.96090192
0.20703721 -0.068887822 0.96559048
0.15605333 -0.070181355 0.96560848
0.20703748 -0.068243876 0.97052622
0.15605092 -0.069401234 0.97070497
0.20704129 -0.06773968 0.97555363
0.15605116 -0.068763629 0.97558039
0.20704 -0.067036361 0.98042679
0.15605927 -0.068439931 0.98063505
0.20703921 -0.066355385 0.98530042
0.15605642 -0.067686774 0.98538399
0.20703965 -0.065719649 0.99022698
0.20163918 -0.063317366 0.99250257
0.19470991 -0.066338032 0.99290383
0.18933646 -0.068264 0.99315971
0.16456228 -0.064785928 0.99269766
0.16092928 -0.065740041 0.99282444
0.15605396 -0.066908769 0.9904443
0.20450822 -0.065360203 0.99277395
0.19936089 -0.065435529 0.99278396
0.19444902 -0.065386057 0.99277735
0.18946479 -0.065512359 0.99279416
0.18464357 -0.065948159 0.99285203
0.17965646 -0.066045493 0.99286497
0.1745818 -0.066059858 0.99286687
0.16951914 -0.066220693 0.99288827
0.16433635 -0.066553496 0.9929325
0.159365 -0.066449471 0.99291873
0.15664874 -0.06679979 0.99296522
0.20692571 -0.080689214 0.84077263
0.20431478 -0.080873787 0.83847308
0.19931518 -0.080905318 0.83847731
0.1943115 -0.081343763 0.83853555
0.18927912 -0.081270546 0.83852583
0.18427661 -0.081308901 0.8385309
0.17942713 -0.081593461 0.83856869
0.17435032 -0.081566922 0.83856517
0.16929242 -0.081842989 0.83860189
0.16460849 -0.081732444 0.83858716
0.15951028 -0.081829064 0.83860004
0.15609948 -0.081929192 0.84033573
0.20691873 -0.079718128 0.84582973
0.15593521 -0.08099027 0.84612644
0.20692345 -0.079272769 0.85070699
0.15593964 -0.080516726 0.85112345
0.20692037 -0.078462526 0.85581309
0.15593682 -0.079750374 0.85598224
0.20692404 -0.077959634 0.86078006
0.15593387 -0.078986101 0.8607828
0.20692271 -0.077250026 0.86569381
0.15593973 -0.078565754 0.86583364
0.20692043 -0.076485753 0.87071002
0.15593767 -0.077792302 0.87099338
0.20692436 -0.075979725 0.87578815
0.15594368 -0.077384539 0.87600267
0.20692572 -0.075397611 0.88061142
0.15593283 -0.076309867 0.88058817
0.20692216 -0.074608102 0.88540292
0.1559352 -0.075765543 0.8854509
0.20692477 -0.07405825 0.89038265
0.15593618 -0.075131789 0.89053935
0.20692357 -0.073318832 0.89556575
0.15594113 -0.074648894 0.89576828
0.20692179 -0.072612174 0.90030682
0.15593182 -0.073610462 0.90058017
0.20692495 -0.072076827 0.9053545
0.15593801 -0.07322403 0.90549278
0.20692389 -0.0713659 0.91036445
0.15593711 -0.072513767 0.91054201
0.20692681 -0.070824303 0.91538548
0.15593478 -0.071773656 0.91536796
0.20692898 -0.070266351 0.92028785
0.15593706 -0.071218446 0.92027891
0.20691936 -0.069180056 0.92535615
0.1559343 -0.070423864 0.92537022
0.2069245 -0.068772316 0.93008441
0.15593663 -0.069879577 0.93021637
0.20691927 -0.067891248 0.93503213
0.15593714 -0.069231704 0.93525696
0.20691629 -0.067083113 0.94015121
0.15593508 -0.068468161 0.94034547
0.20692195 -0.066695146 0.94489861
0.15594032 -0.068073452 0.94500709
0.20692118 -0.065972582 0.95008862
0.15593468 -0.067161404 0.95004946
0.20692095 -0.065289967 0.95515496
0.15593675 -0.066599235 0.95495093
0.20691903 -0.064559057 0.96003395
0.15594155 -0.066136852 0.9599762
0.2069222 -0.064044707 0.96493101
0.15593925 -0.065369934 0.96500802
0.20692132 -0.063354395 0.96984428
0.15593499 -0.064525351 0.96998996
0.20691936 -0.062618747 0.97474456
0.15593584 -0.063894086 0.97501868
0.20692432 -0.062170222 0.97972649
0.15593854 -0.063369438 0.97983539
0.20692314 -0.061442506 0.98482162
0.15593877 -0.062709957 0.98488128
0.20691834 -0.060581215 0.98975706
0.20497476 -0.059698652 0.9920218
0.2000539 -0.060838077 0.99217319
0.16488929 -0.059457831 0.99198985
0.15992288 -0.063598305 0.99253988
0.15593456 -0.061885826 0.98972356
0.2043197 -0.060654581 0.99214882
0.19927225 -0.060654558 0.99214882
0.19462697 -0.060746998 0.9921611
0.18957773 -0.06078583 0.99216628
0.18447798 -0.060821537 0.99217105
0.17952903 -0.06095412 0.99218863
0.17441939 -0.061089747 0.99220663
0.16958869 -0.061369371 0.99224383
0.16439767 -0.061380703 0.99224532
0.15936273 -0.061264522 0.99222994
0.15652217 -0.061432574 0.99225217
0.20680484 -0.075573504 0.8402766
0.20415875 -0.073832445 0.83937931
0.19924487 -0.073920317 0.83940369
0.19420657 -0.074177772 0.83930188
0.18933775 -0.07436984 0.83939177
0.18412901 -0.07457038 0.83927518
0.17914163 -0.074740127 0.83924919
0.17431529 -0.07488627 0.83919889
0.16938315 -0.075358219 0.83900803
0.1642507 -0.075461395 0.83897656
0.15927292 -0.075641058 0.83905184
0.15612623 -0.076162666 0.83960104
0.20680057 -0.074720398 0.84531736
0.20410262 -0.07248529 0.84491169
0.19927432 -0.072605342 0.84487069
0.19426276 -0.072727405 0.84484732
0.18923874 -0.072831586 0.84496069
0.18425423 -0.072963953 0.84485495
0.17928424 -0.073059216 0.84502584
0.17410445 -0.0731868 0.84499097
0.16924785 -0.073278159 0.84517097
0.16424373 -0.073409557 0.84507602
0.15907726 -0.073529825 0.84509379
0.15597725 -0.075300172 0.8452515
0.2068049 -0.074263655 0.8501541
0.20406292 -0.07183449 0.84981757
0.19918695 -0.071932986 0.84994733
0.19437164 -0.072053321 0.84990185
0.18922919 -0.072182633 0.84984732
0.18437761 -0.072309881 0.8497563
0.17920893 -0.072402634 0.84998161
0.17421852 -0.072530881 0.84990788
0.16918215 -0.07260485 0.85025096
0.16422057 -0.072760805 0.84996349
0.15911928 -0.072873071 0.85002989
0.15595821 -0.074565046 0.85029244
0.20680586 -0.073659524 0.85500753
0.20413156 -0.071147449 0.85497683
0.19953789 -0.071285844 0.85475588
0.19435394 -0.071386687 0.85492301
0.18924475 -0.071510777 0.85490185
0.18412027 -0.071638994 0.85485226
0.1792292 -0.071743369 0.85494053
0.17410298 -0.07190159 0.8546654
0.16926089 -0.071980834 0.85493404
0.16421004 -0.072103642 0.85491204
0.15924908 -0.072215296 0.854958
0.15601172 -0.073726192 0.85520589
0.20680526 -0.072940022 0.86023194
0.20444804 -0.070493169 0.85984534
0.19945996 -0.070639685 0.85963368
0.1942777 -0.070732936 0.85985768
0.18924485 -0.070852451 0.8598572
0.18422805 -0.07096947 0.85987276
0.17918542 -0.071090899 0.85985965
0.17422812 -0.0712424 0.85960501
0.16916654 -0.071354829 0.85966307
0.16414805 -0.071432799 0.85997283
0.15929264 -0.071540721 0.86002797
0.15601832 -0.073009752 0.86001229
0.20680499 -0.072285391 0.86507642
0.20442766 -0.069858007 0.86463004
0.19940943 -0.069976419 0.86463535
0.19442795 -0.070081271 0.86473614
0.18948036 -0.070181772 0.86486357
0.18427442 -0.070303738 0.86487561
0.17921172 -0.07044974 0.86468118
0.17402501 -0.070549287 0.86485857
0.16907452 -0.070671722 0.86482143
0.16413933 -0.070748031 0.86512882
0.15923074 -0.070901237 0.86485261
0.15598501 -0.072300248 0.86509746
0.2068087 -0.071774095 0.8701213
0.20436957 -0.069181077 0.86973584
0.1992811 -0.069332309 0.86950666
0.19435015 -0.069428109 0.86966658
0.18930963 -0.069531612 0.86978805
0.1840331 -0.069651417 0.869829
0.1791794 -0.069783464 0.86970228
0.17410058 -0.069900028 0.86973226
0.1691933 -0.070003062 0.86983347
0.16409239 -0.070101507 0.87000382
0.15942207 -0.070227236 0.86989182
0.15602092 -0.071747772 0.87017041
0.20680457 -0.070962481 0.87489837
0.20436269 -0.06851925 0.8747189
0.19924295 -0.068674035 0.87446851
0.19429123 -0.068768077 0.87464535
0.18936288 -0.068887316 0.87462837
0.18417758 -0.0690106 0.87462682
0.17912424 -0.069123447 0.87468022
0.17411345 -0.069241986 0.87468326
0.16911714 -0.069371842 0.8745985
0.16415294 -0.069459349 0.87482673
0.15921304 -0.069596194 0.87467927
0.15599535 -0.071195275 0.87500048
0.20681211 -0.070604354 0.88002837
0.20444219 -0.067878291 0.87952942
0.19931015 -0.068006545 0.8794809
0.19436119 -0.068099141 0.87966812
0.1891081 -0.06821578 0.87972873
0.18423623 -0.068320975 0.87980741
0.17929476 -0.068472058 0.87955302
0.17396159 -0.068550102 0.8799184
0.1691457 -0.068702504 0.8796317
0.16414452 -0.068802819 0.87977016
0.15918392 -0.068919875 0.87977535
0.15597904 -0.070524953 0.88006163
0.206811 -0.069905721 0.88492501
0.20426823 -0.067226209 0.88446891
0.19927156 -0.067326874 0.88460392
0.19420294 -0.067486092 0.88431102
0.18924053 -0.067546815 0.88474059
0.18426996 -0.067670293 0.88469923
0.17898943 -0.067814678 0.88455588
0.17401484 -0.067920096 0.88465118
0.16925098 -0.068022445 0.88473195
0.16433646 -0.068147443 0.88466913
0.15915623 -0.068268761 0.8846814
0.15601884 -0.069658339 0.88483429
0.20680544 -0.06902954 0.88972449
0.20429838 -0.066559643 0.88948101
0.1991746 -0.06668245 0.88947207
0.19422504 -0.066815376 0.88935584
0.18919252 -0.066902101 0.88960218
0.1842753 -0.067029782 0.88951963
0.17911583 -0.067120314 0.88975996
0.17402771 -0.067250371 0.8896901
0.16914947 -0.06737785 0.88960212
0.16430989 -0.067506045 0.88950187
0.15917754 -0.067625776 0.88951761
0.15599313 -0.069305144 0.8900187
0.20680377 -0.068298697 0.89468682
0.20413001 -0.065911569 0.89438933
0.19920947 -0.065999724 0.89460492
0.19421269 -0.066136077 0.89447129
0.18915525 -0.066230766 0.89466214
0.18415712 -0.066352919 0.89463568
0.17925513 -0.066469938 0.89463073
0.17435604 -0.066596135 0.89455611
0.16931951 -0.066703811 0.89464545
0.16433905 -0.066822931 0.89463866
0.15928352 -0.066923261 0.89478672
0.15599111 -0.068546504 0.89460921
0.20680243 -0.067572676 0.8997193
0.20412472 -0.065244898 0.89940858
0.19912268 -0.065378577 0.89929605
0.1942611 -0.065484196 0.8993696
0.18927433 -0.065601781 0.8993755
0.1841009 -0.065703787 0.89953202
0.17905287 -0.065825507 0.89951766
0.17435074 -0.06595324 0.8993963
0.1691532 -0.066048905 0.89960486
0.16440465 -0.066180751 0.89946085
0.15926898 -0.066311181 0.8993966
0.15601195 -0.067963816 0.89993066
0.20680565 -0.067041591 0.90475953
0.20404297 -0.064556487 0.90460503
0.19945978 -0.064704508 0.90430975
0.19440642 -0.064801812 0.90448016
0.18933262 -0.064946756 0.90429568
0.18412741 -0.065060079 0.90437263
0.17920315 -0.065160379 0.90449744
0.17409763 -0.065289013 0.90444142
0.16944468 -0.065394305 0.90448016
0.1641579 -0.065520011 0.90447855
0.15911856 -0.065613955 0.90467179
0.15597044 -0.067079596 0.9048475
0.206808 -0.066479102 0.90975058
0.20444793 -0.063910633 0.90939426
0.19928195 -0.064033955 0.90938896
0.19433333 -0.064138852 0.90948355
0.18931139 -0.064281151 0.90930969
0.18418483 -0.064369395 0.90956134
0.17916864 -0.06449239 0.90953183
0.17427096 -0.064632095 0.90935528
0.16928788 -0.064735174 0.90946972
0.16415513 -0.064838938 0.90960568
0.15913984 -0.064970598 0.90951073
0.1559747 -0.066662379 0.90973401
0.2068076 -0.065799519 0.91473573
0.20413511 -0.063273303 0.91424751
0.19913912 -0.063380733 0.91433144
0.19407596 -0.063507318 0.91428328
0.18914311 -0.06361112 0.91438329
0.184158 -0.063738182 0.91431749
0.17915122 -0.063857064 0.91431725
0.17426431 -0.063935056 0.91460329
0.16921929 -0.064063191 0.91454017
0.16417336 -0.064205237 0.91437256
0.15912998 -0.064295404 0.91459489
0.15604976 -0.065623656 0.91459095
0.2068017 -0.064915434 0.91948789
0.20407449 -0.062628865 0.91910923
0.19925934 -0.062738985 0.91914064
0.19409785 -0.062838659 0.91931254
0.18905841 -0.062949277 0.91938031
0.1840758 -0.063079916 0.9192872
0.17919539 -0.063192159 0.91931432
0.17419982 -0.063323036 0.91922176
0.16933519 -0.063384868 0.9196254
0.16411404 -0.063534029 0.9194355
0.15915653 -0.063651413 0.91943765
0.15606272 -0.065066092 0.91950691
0.20680405 -0.064376384 0.92430693
0.20426215 -0.061940391 0.92425811
0.1992781 -0.062042672 0.92437869
0.19421768 -0.062182315 0.92423165
0.18906711 -0.062311795 0.92417729
0.18417466 -0.062413372 0.92428684
0.17913103 -0.06253814 0.92424881
0.1742162 -0.062642954 0.92433798
0.1691393 -0.062763534 0.92433745
0.16429554 -0.062868938 0.92440939
0.15914086 -0.063010246 0.92426676
0.15602022 -0.064543806 0.92451143
0.2068077 -0.063860267 0.92936653
0.20420752 -0.061283149 0.92921513
0.19912872 -0.061392993 0.92929572
0.19403067 -0.061506644 0.92935109
0.18914787 -0.061623678 0.92934257
0.18417387 -0.061755329 0.92924029
0.17902185 -0.061899778 0.92907351
0.17419663 -0.061996326 0.92920887
0.16914135 -0.062106475 0.92928296
0.1642544 -0.062194847 0.92949092
0.1592215 -0.062336851 0.92932123
0.15604368 -0.063932516 0.92956275
0.20680723 -0.063170612 0.93440372
0.20420426 -0.060581967 0.93449372
0.19912803 -0.060753055 0.93411285
0.19415765 -0.060855739 0.934228
0.18917601 -0.060974952 0.93422073
0.18420674 -0.061093979 0.93421263
0.179216 -0.061200809 0.93430018
0.17409977 -0.061333448 0.93421584
0.16919263 -0.061454955 0.93417799
0.16412562 -0.061562855 0.9342711
0.15924801 -0.061689962 0.9341858
0.15601993 -0.063212067 0.93474078
0.20680253 -0.062316455 0.93932146
0.20418978 -0.059954226 0.93922156
0.19935228 -0.060070392 0.93921143
0.19417083 -0.060198657 0.93917167
0.18929191 -0.060311813 0.9391917
0.18422112 -0.060433052 0.93918502
0.17917427 -0.060558267 0.93914425
0.17417949 -0.060685359 0.93908
0.16941462 -0.060798831 0.9390772
0.16412169 -0.060892411 0.93931848
0.15929297 -0.061014228 0.93926424
0.15601313 -0.062622286 0.93952143
0.2068066 -0.061839055 0.9442246
0.20421268 -0.059304252 0.94411004
0.19935538 -0.0594186 0.94411713
0.19448525 -0.059534159 0.94411743
0.18932898 -0.059653122 0.94414324
0.18399186 -0.059783228 0.94411749
0.17915048 -0.059908353 0.94404066
0.17405809 -0.060027033 0.94405711
0.16911425 -0.060123071 0.94421756
0.16412969 -0.060232293 0.94428599
0.15914761 -0.060368441 0.94415128
0.15598083 -0.062074419 0.94462991
0.20679878 -0.060833037 0.94927621
0.20410939 -0.058630638 0.94919896
0.19922036 -0.058761988 0.94908381
0.19420928 -0.058881987 0.94907582
0.18934587 -0.058992717 0.94911128
0.18428503 -0.059115957 0.94908786
0.17930713 -0.059222437 0.94917572
0.17407419 -0.059345499 0.94918436
0.16930783 -0.059438944 0.94933259
0.16424671 -0.059578519 0.94918621
0.15915719 -0.059711926 0.94909137
0.15604505 -0.061264373 0.94938219
0.20680626 -0.060502425 0.95417738
0.20433305 -0.057973847 0.95410287
0.1994234 -0.058089461 0.95410985
0.19444673 -0.058226489 0.95396757
0.18950741 -0.05834844 0.95393211
0.18425152 -0.058449499 0.9541105
0.17914668 -0.058574326 0.95408297
0.1740604 -0.058693539 0.95409435
0.16911067 -0.058809239 0.95410782
0.16421038 -0.058917787 0.95416629
0.15948741 -0.059051558 0.95400316
0.1560162 -0.060462415 0.95440626
0.20680612 -0.059831344 0.9591856
0.20436521 -0.057315394 0.95905352
0.19928037 -0.057452749 0.95892817
0.19433628 -0.057551898 0.95906514
0.18933322 -0.057691667 0.95890701
0.18421236 -0.057781316 0.9591471
0.17919903 -0.057915602 0.959032
0.17415801 -0.05803249 0.9590528
0.1691165 -0.058160819 0.95898765
0.16397642 -0.058267314 0.95910442
0.15922782 -0.058393981 0.9589994
0.1559602 -0.060237899 0.95945811
0.20680624 -0.059182659 0.96410632
0.20398945 -0.056679837 0.96390474
0.19917959 -0.056803003 0.96383697
0.19411959 -0.056919973 0.96386063
0.18916987 -0.057051465 0.96375519
0.18435012 -0.057142578 0.96393049
0.17919292 -0.057269283 0.96389818
0.17412129 -0.057403944 0.96379066
0.16933049 -0.05748884 0.96400762
0.16432875 -0.057602432 0.96404624
0.15924585 -0.057711668 0.96413213
0.15600179 -0.059264991 0.9641903
0.20680726 -0.058564577 0.96908438
0.20409575 -0.056006432 0.96895468
0.19928285 -0.056142755 0.96878844
0.19428724 -0.056258008 0.96881348
0.18921983 -0.056348123 0.96904051
0.1841777 -0.056499138 0.96880466
0.17929657 -0.056620006 0.96876699
0.17416653 -0.056696568 0.96910727
0.16924761 -0.056852564 0.96881187
0.16427436 -0.056953903 0.96893764
0.15935013 -0.057068422 0.96895546
0.15603089 -0.058779567 0.96922779
0.20680046 -0.057584576 0.974271
0.20409746 -0.05535426 0.97386348
0.19916795 -0.055500194 0.97364575
0.19418031 -0.055608846 0.973719
0.1893259 -0.055696927 0.97392333
0.18423958 -0.05582441 0.97387254
0.17931706 -0.05594546 0.97384083
0.17426126 -0.056065168 0.9738431
0.1692389 -0.05618681 0.9738248
0.1641795 -0.056312412 0.97378325
0.15935196 -0.056413069 0.97388816
0.15602171 -0.057867996 0.97424477
0.20680849 -0.057266474 0.97925717
0.20410036 -0.054711185 0.97870362
0.19923058 -0.054826684 0.97870427
0.19428688 -0.054933779 0.9787814
0.18923426 -0.055035874 0.97891569
0.18428895 -0.055157803 0.97888148
0.1791683 -0.055283848 0.97884762
0.17411907 -0.055405319 0.9788354
0.16915253 -0.055514142 0.97890365
0.16404839 -0.055622276 0.97900164
0.15933082 -0.055749662 0.97888559
0.15600026 -0.057417527 0.97907728
0.20680678 -0.056552134 0.98408258
0.20418368 -0.054042391 0.98372293
0.19926652 -0.054165207 0.98367703
0.19431651 -0.05424289 0.98397672
0.18913852 -0.054395448 0.9837535
0.18435191 -0.054492086 0.98388129
0.17905663 -0.05462845 0.98380095
0.17410082 -0.054726794 0.98394608
0.1693528 -0.054858223 0.98380512
0.16429232 -0.054933757 0.98414075
0.1593776 -0.055074297 0.98396093
0.15597135 -0.056568723 0.98396397
0.20680113 -0.055647627 0.98906636
0.20425811 -0.053511519 0.98879355
0.19931784 -0.053659283 0.98872405
0.19439298 -0.05360388 0.98877305
0.18935604 -0.053742096 0.98863262
0.18395166 -0.053863183 0.9886868
0.17930457 -0.053962782 0.98876733
0.17418316 -0.054106336 0.9886018
0.16921338 -0.054211412 0.98869884
0.16434255 -0.054354489 0.98897511
0.15924597 -0.05449773 0.98888475
0.1559995 -0.056196343 0.98911846
0.20415115 -0.055499457 0.99146396
0.19931538 -0.055842757 0.99150956
0.19437417 -0.055749506 0.99149722
0.18910035 -0.055616386 0.99147952
0.18417758 -0.055892766 0.99151623
0.17919478 -0.055990998 0.99152929
0.17409332 -0.056215994 0.99155921
0.16912355 -0.056390151 0.99158239
0.16418642 -0.056478444 0.99159408
0.15924525 -0.056514293 0.99159878
0.15619975 -0.055989616 0.99152905
