# .PCD v0.7 - Point Cloud Data file format
VERSION 0.7
FIELDS x y z
SIZE 4 4 4
TYPE F F F
COUNT 1 1 1
WIDTH 1294
HEIGHT 1
VIEWPOINT 0 0 0 1 0 0 0
POINTS 1294
DATA ascii
0.13472553 -0.073086701 0.59422964
0.13231584 -0.072920866 0.59315252
0.12818302 -0.071731359 0.59059775
0.12404591 -0.070525959 0.5880875
0.11991052 -0.069157943 0.58560574
0.11577231 -0.067905508 0.58310467
0.11168861 -0.066638529 0.58061367
0.1073899 -0.065478191 0.57790899
0.10325198 -0.064057246 0.57547367
0.09918873 -0.06294167 0.5729019
0.095217273 -0.061774049 0.57048303
0.092616573 -0.060814247 0.56874722
0.13453527 -0.06854035 0.59671539
0.13216555 -0.068027303 0.59569108
0.12806396 -0.066898629 0.59312135
0.12401472 -0.065769628 0.59059197
0.11984567 -0.064440832 0.58807403
0.11566219 -0.063271604 0.58546227
0.11159031 -0.062265664 0.58285177
0.10740314 -0.060835917 0.58037215
0.10324682 -0.059491906 0.57787186
0.099174485 -0.058467295 0.57527065
0.095087782 -0.05719167 0.57278848
0.092621624 -0.056508865 0.57081145
0.1345329 -0.064352661 0.59872448
0.13212515 -0.063720629 0.59789157
0.12809435 -0.06242083 0.59546489
0.12395189 -0.061282709 0.59286857
0.11971471 -0.060123596 0.59021026
0.11565011 -0.058900967 0.58771765
0.11163925 -0.057712063 0.58524883
0.10738254 -0.056422267 0.58264327
0.10326936 -0.055276461 0.58007342
0.099195868 -0.053986073 0.57760906
0.09496133 -0.052903883 0.57491297
0.092502445 -0.051798016 0.57325572
0.13439655 -0.059893381 0.60108107
0.13213956 -0.059418146 0.60013199
0.12805691 -0.057933692 0.59776115
0.12399937 -0.056796595 0.59522963
0.11964147 -0.055820324 0.59238374
0.11552985 -0.054295905 0.5900113
0.11153594 -0.053229962 0.58749181
0.1072822 -0.052007888 0.58485341
0.10321095 -0.050838325 0.58232814
0.099190056 -0.049443144 0.57995856
0.094885565 -0.04835771 0.57721031
0.092363924 -0.047422405 0.57534617
0.13437147 -0.055082448 0.60342544
0.13202891 -0.054910883 0.60238236
0.12776299 -0.053438485 0.5998643
0.12366664 -0.052274972 0.59731662
0.11968223 -0.051196739 0.59481078
0.11555353 -0.04987482 0.59232032
0.11152361 -0.048815653 0.5897696
0.10729785 -0.047650836 0.5871231
0.10332116 -0.046297669 0.58476567
0.099006757 -0.045087758 0.58207434
0.094670773 -0.043802679 0.57940531
0.092291772 -0.042831685 0.57785416
0.13427873 -0.051158089 0.60545516
0.13184884 -0.050336443 0.60461414
0.12779288 -0.049152531 0.60210806
0.12371638 -0.047828417 0.59965885
0.11948875 -0.046474613 0.59710878
0.11553892 -0.045414034 0.59462047
0.11140057 -0.04442098 0.59195215
0.10715086 -0.042957664 0.58944184
0.10299078 -0.041808967 0.58683741
0.098896794 -0.040745702 0.5842396
0.095025912 -0.039423265 0.58194768
0.092359766 -0.038238853 0.58026427
0.13417721 -0.046514057 0.6078437
0.13192764 -0.046028156 0.60690713
0.12787363 -0.044616733 0.60452044
0.12375099 -0.043451637 0.60195333
0.11951534 -0.042036489 0.59942889
0.11531872 -0.041124113 0.59667391
0.11129151 -0.039619531 0.59435612
0.10695489 -0.038446095 0.59162879
0.10283422 -0.037376646 0.58901364
0.098721132 -0.036115553 0.58650362
0.094734758 -0.03503488 0.58399761
0.092129216 -0.033808168 0.58238834
0.13417397 -0.041493762 0.61025286
0.13183442 -0.041526508 0.60916793
0.12755933 -0.039911639 0.60671663
0.12353769 -0.038815208 0.60419166
0.11940265 -0.037689533 0.60159457
0.11537597 -0.036574058 0.59907562
0.11111784 -0.03524464 0.59648943
0.10695646 -0.034031343 0.59391755
0.10287881 -0.032848697 0.59139413
0.098635465 -0.031736154 0.58870697
0.094496652 -0.030496899 0.58616585
0.092072226 -0.029597096 0.58430696
0.13410306 -0.037020139 0.61251014
0.13177757 -0.036893401 0.61152488
0.1276177 -0.035740681 0.60892278
0.12340736 -0.03461054 0.60627007
0.11929809 -0.033268679 0.60380489
0.11512767 -0.032076042 0.6012153
0.11107127 -0.030923553 0.5986926
0.10675799 -0.029593553 0.59606433
0.10274592 -0.028366055 0.59361464
0.098728791 -0.027266107 0.59109491
0.094579339 -0.026037175 0.58854026
0.092031769 -0.025094785 0.58679128
0.13392188 -0.032687075 0.61487907
0.13173392 -0.032553643 0.61373997
0.1275411 -0.031214703 0.61120898
0.12349699 -0.030060396 0.6086967
0.11927214 -0.02877903 0.60611123
0.11522843 -0.027818546 0.60349882
0.11107077 -0.026559886 0.60095328
0.10685983 -0.025205452 0.59841639
0.10281448 -0.023969214 0.5959456
0.098682575 -0.022779595 0.59338409
0.094377317 -0.021507982 0.59073174
0.091933168 -0.02041864 0.58900428
0.13400951 -0.028299853 0.61683762
0.13160822 -0.028089635 0.61595637
0.12748085 -0.026645727 0.6135301
0.1234534 -0.025543109 0.61100382
0.11930314 -0.024361156 0.60842425
0.11493576 -0.0232285 0.60565209
0.11101168 -0.022140216 0.60319793
0.10682318 -0.020521287 0.6008153
0.10270649 -0.019497734 0.59817946
0.09859091 -0.01815059 0.59571213
0.094469465 -0.017099142 0.59308708
0.091905966 -0.015827749 0.59136367
0.13399357 -0.02376876 0.61903322
0.13173468 -0.023676425 0.61834037
0.12742887 -0.022216916 0.61578494
0.12347094 -0.021098003 0.61332059
0.11925051 -0.019810434 0.61074173
0.11495936 -0.018786464 0.60797191
0.11082222 -0.017377958 0.60551977
0.1066912 -0.016029287 0.60304135
0.10264669 -0.015101198 0.60041153
0.098537512 -0.013826508 0.5979116
0.094383314 -0.012660962 0.59532046
0.091861643 -0.011869654 0.59335488
0.13378061 -0.019230444 0.62155193
0.13157389 -0.019272655 0.62049854
0.12733388 -0.017893221 0.61795223
0.12312205 -0.016744561 0.61530799
0.11898454 -0.015395187 0.61282498
0.11486883 -0.014282864 0.61023587
0.11087778 -0.013211943 0.60772115
0.10671157 -0.011765938 0.60526609
0.10237695 -0.010385279 0.60264766
0.09841685 -0.0094859935 0.60006785
0.094149262 -0.0080900155 0.59750891
0.091815881 -0.0073381588 0.59578633
0.13373484 -0.015063908 0.6236214
0.13120191 -0.014538277 0.62266558
0.12707922 -0.013401672 0.62008369
0.12320933 -0.01211061 0.61777622
0.11912634 -0.01097355 0.61522514
0.11490919 -0.0097435378 0.61261898
0.11066293 -0.0084684007 0.61001378
0.10652166 -0.0074033178 0.60738057
0.10238896 -0.0059834085 0.60493779
0.098248243 -0.0049457736 0.60229069
0.094230734 -0.003529679 0.59993452
0.091741703 -0.0029773489 0.59795773
0.13368402 -0.010571219 0.62585515
0.13153423 -0.010321517 0.6251061
0.12726274 -0.0089953803 0.62250799
0.12312311 -0.0076883025 0.62000138
0.11889038 -0.0064309351 0.61739743
0.11494084 -0.0053817332 0.61490339
0.11071638 -0.0041347705 0.6123004
0.10661136 -0.0028324239 0.60981798
0.10247737 -0.0017603301 0.60719395
0.098372594 -0.00038574263 0.60474914
0.094106063 0.00087178499 0.60211927
0.091614023 0.0018599927 0.60037446
0.13349557 -0.006008327 0.62834591
0.13109854 -0.0057826154 0.62712288
0.12708926 -0.0043800361 0.62476599
0.12288584 -0.0031939857 0.62214762
0.11882441 -0.0017934106 0.61974961
0.11483987 -0.0010495707 0.6170705
0.11074106 0.00010183826 0.61451459
0.10660809 0.0015987828 0.61211151
0.10223514 0.0028974935 0.60942113
0.098288089 0.0040051118 0.60695934
0.094110712 0.0055023208 0.60452217
0.091531001 0.006000407 0.60255694
0.13339518 -0.0017370172 0.63055414
0.13099988 -0.0012107156 0.62941593
0.12707342 -0.0001902841 0.62692475
0.12292236 0.0012995005 0.62450403
0.11876337 0.0024115667 0.62188148
0.1144354 0.0035667941 0.61915135
0.11035629 0.0047927722 0.61664933
0.10624921 0.0061497018 0.61419356
0.10220885 0.0073050335 0.61168468
0.097834155 0.0087126121 0.60904938
0.094122306 0.0097266212 0.60671997
0.091487803 0.010455839 0.60474688
0.13344912 0.0023611337 0.632429
0.13094938 0.003245838 0.63168627
0.12686183 0.0044787452 0.62918133
0.12259265 0.0057437047 0.62655324
0.11858047 0.0070753917 0.62415743
0.11451779 0.0082634017 0.62164831
0.11019348 0.0093809813 0.61890149
0.10624075 0.010655068 0.61652154
0.10228902 0.011769898 0.61405987
0.098135695 0.012690343 0.61134243
0.093851738 0.01419837 0.6088289
0.091445498 0.014940016 0.60702074
0.13333479 0.0074262246 0.63503993
0.1309915 0.007697694 0.63402545
0.12687449 0.0090339109 0.63155133
0.12277112 0.0099408403 0.6288653
0.11861967 0.011408739 0.6264329
0.11444083 0.012473561 0.62377065
0.11035681 0.013835557 0.62133527
0.1062929 0.014986403 0.61880594
0.10209912 0.016139321 0.61617786
0.097904921 0.017348848 0.61357874
0.093880668 0.018576376 0.61111963
0.091251031 0.019215338 0.6090433
0.1333372 0.011779569 0.6371206
0.13097173 0.012009718 0.63624454
0.12693739 0.013357811 0.63384014
0.12281042 0.014427193 0.6312201
0.11847828 0.015725993 0.6285612
0.11452103 0.01702901 0.62619275
0.11025704 0.018444978 0.62364691
0.10607517 0.01946304 0.62095809
0.1021152 0.020555742 0.6184786
0.097880252 0.021922402 0.6159296
0.093891516 0.023135401 0.61349028
0.09128578 0.023785174 0.61150903
0.13326204 0.016275115 0.6393953
0.13087286 0.01671081 0.6386044
0.12665926 0.017800309 0.63592815
0.1224474 0.019235618 0.63343245
0.11853804 0.020069577 0.63085783
0.11412328 0.021579258 0.62824458
0.11012678 0.022853158 0.62583089
0.10596298 0.023803912 0.62312102
0.10194504 0.025138073 0.62072206
0.097745284 0.026399799 0.61814576
0.093770266 0.027590148 0.61570525
0.091219112 0.02830632 0.61365813
0.13318798 0.020749979 0.64165819
0.13066749 0.021043114 0.64069122
0.12679142 0.022303887 0.63836336
0.12251757 0.023446403 0.63566828
0.11835357 0.024651475 0.63309002
0.11420625 0.026068367 0.63063443
0.11015537 0.027154259 0.6280815
0.1060684 0.02838891 0.62557787
0.10176933 0.029697724 0.62294954
0.097774401 0.031033821 0.62056929
0.093620703 0.032003202 0.61787689
0.091079161 0.032895215 0.6160537
0.13305801 0.025476255 0.64413226
0.1307293 0.025560729 0.64307958
0.12665167 0.026813351 0.64059246
0.12266829 0.028002135 0.63814473
0.11831975 0.029281713 0.63546324
0.11424544 0.030635782 0.63303125
0.11016975 0.03172598 0.63046139
0.10599202 0.032792576 0.62780094
0.10189052 0.034185402 0.62536806
0.097700492 0.035310291 0.62272835
0.09349291 0.036394469 0.62005395
0.091041684 0.037333213 0.61834252
0.13303931 0.029264189 0.64597648
0.13064957 0.03007362 0.64535666
0.1265523 0.031135909 0.64275581
0.1224981 0.032597654 0.64039505
0.11819869 0.033582829 0.63759875
0.11404446 0.035043232 0.63516039
0.10994837 0.036042668 0.63252789
0.10593669 0.037324704 0.63010669
0.10175939 0.038537346 0.62752223
0.09770298 0.039702587 0.62500614
0.09339121 0.040940456 0.62233126
0.090857297 0.041626789 0.62044168
0.13286614 0.034685455 0.64885348
0.13037923 0.034373961 0.64737695
0.12635824 0.035604663 0.64492202
0.12238747 0.036958881 0.64256972
0.11811472 0.038073622 0.63986111
0.11402047 0.03930185 0.63734853
0.11000053 0.040603362 0.63493115
0.10584497 0.041672893 0.63228917
0.10177235 0.043109529 0.62990129
0.097430021 0.044382907 0.62722129
0.093602486 0.045433424 0.62482184
0.0909518 0.046479635 0.6229322
0.13281877 0.038676336 0.65084136
0.13037018 0.038861178 0.6496951
0.12644793 0.040146522 0.64734441
0.1221955 0.041228406 0.64463437
0.11795875 0.042533822 0.64205223
0.11378507 0.043865509 0.63953221
0.10975912 0.04515519 0.63710403
0.10566333 0.046194546 0.6344924
0.10157785 0.04757572 0.63206589
0.097438104 0.048624478 0.62942535
0.093172669 0.049933903 0.62682319
0.090756446 0.050482228 0.6249373
0.13264485 0.042987458 0.65318799
0.13031761 0.043410443 0.65201187
0.12629789 0.044667773 0.64957172
0.12209804 0.045818128 0.64693761
0.11798244 0.047169723 0.64447254
0.1138259 0.048190139 0.64180446
0.10971621 0.049633913 0.63939166
0.10549389 0.050723217 0.63670862
0.10149615 0.05184219 0.63421369
0.097421065 0.053243302 0.63180548
0.093232937 0.05422198 0.62909144
0.090706758 0.055640884 0.62746006
0.13268939 0.047555111 0.65530288
0.13045214 0.047966219 0.65447593
0.12614241 0.049005054 0.65169954
0.12209029 0.050357752 0.64928389
0.11793 0.051644854 0.64675105
0.11386123 0.052651979 0.64414352
0.10969114 0.053893529 0.64157951
0.10558723 0.055161618 0.63908023
0.1013115 0.056559496 0.63651597
0.097236544 0.057761215 0.63400453
0.093271673 0.058946617 0.63156933
0.090624593 0.059451886 0.62951684
0.13260862 0.051672645 0.65740561
0.13019057 0.052428715 0.656587
0.12591298 0.053667061 0.65393871
0.12197259 0.054822005 0.65150654
0.1179537 0.055936508 0.64899302
0.11377503 0.057231121 0.64644992
0.10973433 0.058192648 0.64384037
0.1055149 0.059533812 0.64129007
0.10138042 0.060895614 0.63881576
0.097175606 0.062149338 0.63623142
0.093187109 0.063211389 0.63371408
0.090625569 0.063868545 0.63176405
0.13241513 0.055825479 0.6597082
0.12993988 0.05683852 0.65867919
0.12615031 0.05783283 0.65627974
0.12208532 0.059043832 0.65378082
0.11799645 0.060297377 0.65128553
0.11374731 0.061583661 0.64868391
0.1095584 0.062774904 0.64607936
0.10550149 0.064060621 0.64362532
0.10143276 0.065248527 0.64111149
0.09719456 0.066528372 0.638515
0.092955433 0.067743458 0.63588423
0.090495214 0.068971403 0.63418174
0.13247469 0.060343228 0.66177487
0.13010526 0.061441578 0.66117704
0.12602168 0.062233664 0.65846115
0.1217757 0.063757755 0.65598524
0.11764053 0.064847596 0.65336943
0.11345091 0.066054218 0.65077239
0.10944372 0.067402713 0.6483891
0.10541014 0.068354361 0.64577991
0.10121713 0.06964203 0.64322221
0.097086564 0.070851155 0.64067179
0.093045771 0.072202779 0.638228
0.090443894 0.072837554 0.63634712
0.13078301 0.063500009 0.66217279
0.1260879 0.064968176 0.65911585
0.12215523 0.066077821 0.65679294
0.11792818 0.067306586 0.65422481
0.11390308 0.068606533 0.65152246
0.10994984 0.069685049 0.64926046
0.10561672 0.070927002 0.64666277
0.10176589 0.072133191 0.64415151
0.097328097 0.073492177 0.64131898
0.093644947 0.074473493 0.63925803
0.090604968 0.075152434 0.63781613
0.13643841 -0.071875855 0.59202981
0.134299 -0.073564768 0.58982015
0.13033167 -0.07226412 0.58711827
0.12611815 -0.071101934 0.58468229
0.12200339 -0.069846317 0.58206469
0.11766262 -0.068751633 0.57975811
0.11355093 -0.067471549 0.57709217
0.10948104 -0.066104323 0.57425529
0.1055616 -0.065042354 0.57202709
0.101447 -0.063715436 0.56926847
0.097144961 -0.062527359 0.56677836
0.094259754 -0.059570048 0.56617016
0.13626994 -0.067569152 0.59436542
0.094219722 -0.054774579 0.56849599
0.13621095 -0.062963016 0.59666681
0.094084144 -0.050614156 0.57070822
0.13613789 -0.058516227 0.59891468
0.094105147 -0.046111438 0.57283026
0.13600385 -0.054037761 0.6012767
0.093915462 -0.041755192 0.5752241
0.136113 -0.049642302 0.60320437
0.093916021 -0.037015591 0.57749265
0.13598892 -0.044853922 0.60569859
0.093745708 -0.032667145 0.57985133
0.13586907 -0.040764846 0.60785115
0.0937967 -0.028408442 0.58180785
0.13565075 -0.036313005 0.61033714
0.093758889 -0.023732912 0.58410811
0.13563259 -0.031700507 0.61257535
0.093720518 -0.019414388 0.58623832
0.13576354 -0.027080689 0.61457503
0.093624964 -0.014877528 0.58856583
0.1356179 -0.022893969 0.61681616
0.093518592 -0.010175541 0.59099001
0.13554065 -0.018298637 0.619142
0.093409345 -0.0060021505 0.5931657
0.13549444 -0.013860498 0.62134218
0.093257569 -0.0016561002 0.59549314
0.13534486 -0.0094057322 0.62371808
0.093140557 0.0027875304 0.5978108
0.13520329 -0.0049499199 0.62608147
0.093092009 0.0071765855 0.59999126
0.13521166 -0.00043568388 0.6282295
0.093047522 0.011814594 0.60228437
0.13513397 0.0040640086 0.63051027
0.093004256 0.01628565 0.60449553
0.13515981 0.0085075647 0.63259608
0.092884026 0.020844288 0.60687351
0.13500464 0.012848623 0.63492662
0.092842311 0.025369965 0.60910833
0.13486719 0.017369345 0.63731438
0.092889629 0.029825963 0.61116529
0.13496047 0.021895483 0.63933033
0.092687555 0.034157068 0.61356717
0.13476141 0.026322581 0.64177328
0.092536092 0.038640223 0.6159597
0.13477795 0.030725904 0.64385498
0.092597134 0.043186456 0.61803758
0.13466537 0.034994945 0.64608186
0.092502914 0.047644176 0.62032509
0.13458183 0.03971491 0.64847761
0.092323273 0.052088656 0.6227448
0.13439277 0.044100046 0.65088421
0.092436448 0.056664355 0.62475222
0.13425964 0.048530646 0.65322185
0.092268735 0.060954362 0.62707865
0.13432136 0.052921511 0.6552242
0.09219639 0.065406658 0.62932801
0.13416614 0.057247303 0.65754753
0.092218511 0.070027165 0.63150465
0.13423076 0.061985962 0.65971172
0.12817445 0.0650196 0.65908194
0.11477181 0.070614778 0.64757806
0.11030748 0.07173834 0.64521027
0.10198134 0.073041879 0.64236099
0.09865322 0.073575445 0.64119732
0.095918283 0.076157205 0.63600123
0.091933928 0.07451234 0.63411415
0.13197769 0.064719267 0.65979975
0.12804085 0.066133745 0.6568737
0.12365772 0.067357413 0.65431052
0.11954571 0.068457134 0.65200144
0.11583892 0.069618486 0.64958358
0.11162288 0.070817269 0.64707512
0.10757305 0.072159864 0.64428765
0.103146 0.073318444 0.64185172
0.09922611 0.07463064 0.63912857
0.094608568 0.075765379 0.63673377
0.092374533 0.076521151 0.63516611
0.13914351 -0.070035934 0.588521
0.13686986 -0.071711138 0.58623695
0.13305156 -0.070389725 0.58349878
0.12890582 -0.069174334 0.5809598
0.12467675 -0.06802053 0.57853985
0.12057236 -0.06669423 0.57578278
0.11627387 -0.065462321 0.57320613
0.11234273 -0.064321421 0.5708214
0.10812107 -0.063035652 0.56814069
0.10431154 -0.061761133 0.56549561
0.099976368 -0.060633417 0.56312388
0.09706594 -0.057701919 0.56253755
0.139174 -0.06550958 0.590639
0.096869335 -0.053236566 0.5649327
0.13890779 -0.06120532 0.59313208
0.096918158 -0.048743926 0.56700474
0.13903663 -0.056392159 0.59522778
0.096788689 -0.044231858 0.56937551
0.13891837 -0.052004095 0.59752089
0.096668355 -0.039770555 0.57170701
0.13896477 -0.04759042 0.59955907
0.096744493 -0.035438925 0.57365763
0.13881958 -0.043196749 0.60189855
0.096550137 -0.030986562 0.57610512
0.13872519 -0.038649086 0.60422939
0.096574359 -0.026448876 0.57823861
0.13852967 -0.034353569 0.60660356
0.096606076 -0.021990575 0.58032203
0.13847311 -0.030095741 0.60873419
0.096441559 -0.017536592 0.58272177
0.13863087 -0.025483243 0.6106869
0.096452102 -0.013111509 0.58482361
0.13842805 -0.020920902 0.61320066
0.096290231 -0.0085810125 0.58725578
0.13835129 -0.016399708 0.6154902
0.096247151 -0.0039991699 0.58951968
0.13823293 -0.012179524 0.61770308
0.09610904 0.00027245283 0.59178925
0.13819256 -0.0074811168 0.62001842
0.096131034 0.0048567131 0.59394872
0.13807803 -0.0031100325 0.62229741
0.096005395 0.0093384236 0.59629864
0.13792686 0.0013685673 0.62468725
0.095918067 0.013783179 0.59856874
0.13791934 0.0057236552 0.62678486
0.095754273 0.018137388 0.60091954
0.13799369 0.010253973 0.62883353
0.095830008 0.022805303 0.60303187
0.13781463 0.014775187 0.63128912
0.095647961 0.027171247 0.60541791
0.13768163 0.018964052 0.63351077
0.095498696 0.031762116 0.60785842
0.13775909 0.023725726 0.63566518
0.095551819 0.036156349 0.60987639
0.13755612 0.028098263 0.63808835
0.095485717 0.040605627 0.61211419
0.13761899 0.032636158 0.64015931
0.095507525 0.045066729 0.61421502
0.1374847 0.037087716 0.6425088
0.095298216 0.049584791 0.61671817
0.13742417 0.041452713 0.64469719
0.095180929 0.054014906 0.61902982
0.13736412 0.046025097 0.64698416
0.095080927 0.058310963 0.62124926
0.1372038 0.050522551 0.64939791
0.095128 0.062963553 0.62340075
0.13711701 0.055097125 0.65172923
0.095065504 0.067366458 0.62561047
0.13716909 0.059491709 0.65374911
0.09496063 0.071971558 0.62798584
0.1369476 0.06394092 0.65623903
0.11567968 0.072478317 0.64392114
0.1093996 0.074451469 0.63981372
0.10651645 0.075409926 0.637824
0.10091593 0.075682543 0.6371026
0.096798584 0.076864861 0.63462996
0.094834119 0.076317839 0.63027233
0.13460508 0.066794284 0.65578038
0.13049987 0.068040125 0.65318245
0.12644392 0.069147445 0.65086007
0.12271092 0.070387073 0.64828658
0.11840376 0.071606122 0.64573514
0.11396125 0.072801091 0.64322674
0.11016349 0.073925488 0.64087903
0.10588758 0.075152792 0.63831222
0.10191719 0.076504193 0.63550991
0.097998127 0.077791579 0.63283575
0.095109373 0.07825204 0.63183099
0.14208576 -0.068120524 0.58466357
0.13973811 -0.069697618 0.58234704
0.13595811 -0.068532616 0.57991958
0.13165003 -0.067287825 0.57731712
0.1276122 -0.066074885 0.57478648
0.12361646 -0.064840846 0.57221544
0.11955472 -0.06353642 0.56950301
0.1154188 -0.062365551 0.56705236
0.11118246 -0.061171882 0.56455332
0.10704203 -0.060014859 0.56212997
0.10278032 -0.058755402 0.55949998
0.099833995 -0.055822089 0.55894226
0.14199042 -0.063662067 0.58695316
0.099630199 -0.05132705 0.5613668
0.14176393 -0.059242878 0.58943689
0.099674843 -0.046699058 0.56351048
0.14186949 -0.054715823 0.59143335
0.09955053 -0.042401344 0.56577015
0.14180134 -0.050257996 0.59367853
0.099440657 -0.038005769 0.56805325
0.14174104 -0.045656696 0.59597969
0.099388234 -0.033519216 0.57028669
0.1415894 -0.041209947 0.59835511
0.099340685 -0.028944172 0.57255465
0.14165115 -0.036778606 0.60037684
0.099224918 -0.024561662 0.57484102
0.14143682 -0.032350533 0.60284501
0.099101014 -0.020115674 0.57717103
0.14134684 -0.028064132 0.60504359
0.099020824 -0.015732523 0.57940006
0.14141962 -0.023385018 0.60716605
0.099051386 -0.011284381 0.58148044
0.14121707 -0.018975567 0.60960621
0.098980665 -0.0066728219 0.58380342
0.14116447 -0.014598124 0.61178768
0.098981202 -0.0022594556 0.58591592
0.14111374 -0.010036785 0.6140542
0.098899044 0.0022987202 0.58823192
0.1409867 -0.0057694353 0.6163038
0.098960035 0.0066994876 0.59024024
0.14083904 -0.0010866523 0.61878574
0.098777711 0.011058405 0.59262335
0.14091381 0.0035610124 0.6208899
0.09870401 0.015600003 0.59491771
0.14086139 0.0077973306 0.62300354
0.098624267 0.020168312 0.59723467
0.14070196 0.012356363 0.62544531
0.098565646 0.024574056 0.59943944
0.14056714 0.016570017 0.62768185
0.098484255 0.029087685 0.60173285
0.14065227 0.021294028 0.62980574
0.098407 0.033387087 0.603917
0.14046553 0.025524795 0.63213468
0.098309696 0.037864402 0.60621887
0.14045319 0.029949479 0.63427347
0.098391943 0.042474233 0.60829282
0.14032429 0.034522317 0.63667232
0.098195702 0.0469651 0.6107617
0.14031403 0.039060816 0.63886225
0.098044805 0.051186264 0.61302787
0.1402117 0.043586977 0.6411956
0.098077506 0.055803962 0.61518598
0.14014004 0.047966957 0.64340925
0.098051146 0.060266294 0.61736554
0.13996179 0.052387513 0.64581531
0.097916946 0.064742751 0.61972684
0.13993873 0.056882136 0.64800495
0.097876251 0.069196098 0.62192535
0.13995408 0.061473615 0.65017867
0.097802736 0.073708124 0.62420523
0.13993415 0.065981828 0.65236974
0.11876655 0.073761277 0.64148355
0.1171259 0.074482389 0.64000374
0.10445286 0.078760661 0.63112855
0.10010116 0.08050596 0.62753463
0.097676307 0.078060918 0.62650424
0.13762332 0.06862054 0.65226591
0.13374951 0.069721274 0.64996248
0.12942578 0.071017869 0.64725715
0.12544504 0.072290607 0.64460993
0.12145449 0.073522352 0.64204353
0.1167772 0.074589126 0.63978124
0.1128507 0.075931661 0.63699788
0.10881691 0.077116467 0.63452297
0.10486455 0.078293361 0.63206637
0.1006121 0.079500504 0.62954021
0.098105758 0.080225565 0.6280244
0.14498952 -0.066023409 0.58095556
0.14278881 -0.067850448 0.57879221
0.13855225 -0.06660565 0.57619208
0.13443401 -0.065355286 0.57358474
0.13031903 -0.064088345 0.57094473
0.12632582 -0.062936395 0.56853616
0.12216857 -0.061641186 0.56583887
0.11806262 -0.060456015 0.56336093
0.11391552 -0.059238274 0.56081718
0.109804 -0.057964824 0.55816442
0.10554115 -0.056840084 0.55580091
0.10283364 -0.054238908 0.5550006
0.14479716 -0.061648216 0.58336276
0.1026001 -0.049458418 0.55744213
0.14464496 -0.057439312 0.58562517
0.10260404 -0.044867147 0.55963427
0.14464116 -0.05284052 0.58783346
0.1023873 -0.040495459 0.56207931
0.14459406 -0.048389442 0.59004128
0.10236955 -0.035931099 0.5642938
0.14452344 -0.04394421 0.5922845
0.10223096 -0.031565342 0.5666092
0.14449106 -0.039346285 0.59453875
0.10215083 -0.026913077 0.56896698
0.14440617 -0.034935769 0.59678847
0.10203724 -0.022590447 0.57122117
0.14430119 -0.030409634 0.59912616
0.10213334 -0.018151008 0.57319105
0.14428236 -0.025999919 0.60126829
0.10195558 -0.01377036 0.5755772
0.14420967 -0.021673258 0.60345805
0.10184933 -0.0091325082 0.57797039
0.14391279 -0.017359965 0.60600525
0.10185286 -0.0046311505 0.58012015
0.14387985 -0.012666807 0.60830599
0.10181408 -0.00026450679 0.58227402
0.14395544 -0.0082109272 0.61031699
0.10177052 0.0041982904 0.58448172
0.1438427 -0.0036701299 0.6126743
0.10161526 0.0086442009 0.58686262
0.14371037 0.00074639171 0.61500388
0.10155598 0.013031311 0.58905953
0.14350933 0.0051664487 0.61744666
0.10147465 0.017484613 0.59132397
0.14360443 0.0097966418 0.61950952
0.10142235 0.021885566 0.59351623
0.14350954 0.014233753 0.6217882
0.10141145 0.026539534 0.59576249
0.14326625 0.01869081 0.62431729
0.101278 0.030884169 0.59805948
0.14337885 0.023156703 0.62627304
0.10126105 0.035508268 0.60030121
0.14333408 0.027506366 0.62842852
0.10113145 0.039947413 0.60263717
0.14322981 0.032036111 0.63076675
0.10106522 0.044161186 0.60476243
0.14314593 0.036561877 0.63307005
0.10113536 0.048845351 0.60689157
0.14310703 0.040923886 0.6352219
0.10103356 0.053272732 0.60917681
0.14292271 0.045234822 0.63758528
0.10086659 0.057820156 0.61162531
0.14292191 0.049834549 0.63978916
0.10097469 0.062186345 0.61354065
0.14290382 0.054343246 0.64197749
0.10074326 0.066501699 0.61598259
0.14275029 0.058724098 0.64432436
0.10055915 0.070919029 0.61839658
0.1427439 0.06322629 0.64649063
0.10063918 0.075324275 0.62037617
0.14265548 0.067679413 0.64876652
0.13140918 0.073964767 0.64149201
0.12626615 0.074359946 0.6405431
0.12455936 0.075559042 0.63811558
0.11243241 0.07918527 0.630548
0.10699485 0.079896413 0.62896448
0.10252711 0.081521384 0.62560475
0.10055111 0.080101781 0.62287277
0.14033262 0.070581071 0.64847565
0.13639958 0.071734332 0.64606643
0.13228665 0.072856911 0.6437121
0.12836783 0.074171968 0.64098322
0.12414366 0.075309716 0.63859528
0.11975005 0.076510869 0.63607639
0.11579289 0.077819504 0.63335907
0.11166956 0.079069771 0.63075173
0.10740688 0.080266722 0.62824535
0.10360183 0.081445612 0.62578964
0.10093813 0.082178317 0.62425363
0.14770672 -0.064222462 0.57740849
0.1456228 -0.065935187 0.57509559
0.14130503 -0.064680316 0.57247287
0.13735966 -0.063464701 0.56993991
0.13331899 -0.062223244 0.56735277
0.1292434 -0.061076529 0.56495184
0.12479689 -0.059886951 0.5624541
0.12083179 -0.058537856 0.55965644
0.11683731 -0.057358023 0.55719268
0.11266281 -0.0559907 0.55435216
0.10871376 -0.054821439 0.55191082
0.10564701 -0.052697308 0.55125946
0.14756161 -0.059913181 0.57970744
0.10547604 -0.047552727 0.55368757
0.14742634 -0.055525385 0.58202809
0.10544714 -0.042881005 0.55597156
0.14745486 -0.050917074 0.58418846
0.10526132 -0.038615983 0.5583154
0.14737344 -0.046470761 0.58644968
0.10526643 -0.033930212 0.56055087
0.14739828 -0.041839954 0.58862686
0.10521354 -0.029476099 0.56276953
0.1472968 -0.037515983 0.59086204
0.10505107 -0.025115483 0.56512123
0.14710647 -0.033286355 0.59319627
0.10487534 -0.020789407 0.56747794
0.14710796 -0.028509427 0.59548128
0.10502905 -0.016263779 0.5693956
0.14705919 -0.024034493 0.59770322
0.10470897 -0.011878192 0.57201505
0.14702433 -0.01961571 0.59987569
0.10466006 -0.0073646195 0.5742557
0.14674622 -0.015319683 0.60238415
0.10465948 -0.0029472709 0.57637191
0.14672133 -0.010776393 0.60460007
0.10459235 0.0016445518 0.57867962
0.14666089 -0.0063450858 0.60682011
0.10454626 0.0060728714 0.58087492
0.14650309 -0.0020487979 0.60913342
0.10451587 0.01051037 0.58304912
0.14652422 0.0026133135 0.61133158
0.10440008 0.015002653 0.58538812
0.14637759 0.0069286749 0.6136359
0.10445366 0.019604877 0.58750498
0.14634308 0.01160191 0.61592972
0.10427383 0.024029411 0.58991545
0.1461834 0.015977457 0.61828405
0.10416691 0.028425947 0.59219426
0.1462343 0.020570658 0.62040091
0.10411336 0.032959111 0.59445184
0.1461843 0.024919756 0.62256461
0.10406384 0.037469238 0.59669185
0.14614718 0.029386431 0.62476367
0.10396695 0.041918904 0.59897983
0.14598612 0.033546448 0.62701708
0.10387084 0.046268366 0.60121852
0.14598922 0.038397312 0.62933487
0.10389251 0.050811499 0.60335881
0.14591467 0.042840011 0.63158321
0.10371473 0.05532147 0.60580689
0.14586891 0.047361471 0.63382256
0.10371327 0.059618779 0.607867
0.14578934 0.051798806 0.63607651
0.10369531 0.06425754 0.61011744
0.14562374 0.056243554 0.63847357
0.10361756 0.068641342 0.61234277
0.14558282 0.060657918 0.64065379
0.10334897 0.073019646 0.6148752
0.1455294 0.065061711 0.64284921
0.10334685 0.077355035 0.61695462
0.14544608 0.069487341 0.64510369
0.14223619 0.073924951 0.64192271
0.13483116 0.074534737 0.64047575
0.12933378 0.075164758 0.63905072
0.11125866 0.082733043 0.62349176
0.10774663 0.083290346 0.62227511
0.10333092 0.081962548 0.61918676
0.14336453 0.07242959 0.64491755
0.13913961 0.073700912 0.64226532
0.13517934 0.074959867 0.63964605
0.13105689 0.076170765 0.63711667
0.12688473 0.077223711 0.63489813
0.12277699 0.078446276 0.63234615
0.11864693 0.079722278 0.62968779
0.11444046 0.080939956 0.62714225
0.11003524 0.082123093 0.62465864
0.10605876 0.083417676 0.62196851
0.10364653 0.083971329 0.62079477
0.15037937 -0.062636003 0.57383102
0.1483625 -0.063987702 0.57133222
0.14428331 -0.062737145 0.56872576
0.13996142 -0.06163913 0.56641322
0.13591725 -0.060340773 0.56371337
0.13183168 -0.05909206 0.56111038
0.12772557 -0.057974909 0.55876696
0.12361784 -0.056682944 0.55607766
0.11934743 -0.055509958 0.55361849
0.11560822 -0.0542855 0.55107474
0.11141066 -0.053034618 0.54846382
0.10842421 -0.050772369 0.54767662
0.15047133 -0.057935726 0.5759325
0.10830285 -0.045435287 0.55011421
0.15028629 -0.053645365 0.57828718
0.10812289 -0.041031059 0.55251521
0.15028425 -0.048983715 0.58052272
0.10811836 -0.036597461 0.5546456
0.1501233 -0.044590056 0.58288783
0.10811785 -0.032213528 0.55674565
0.15008228 -0.04013864 0.58508593
0.10790345 -0.027790673 0.55921143
0.15006261 -0.035574734 0.58730328
0.10787615 -0.023102432 0.56150067
0.14989354 -0.03108675 0.58972669
0.10765843 -0.018720448 0.56395233
0.1497895 -0.026773859 0.59196073
0.10785 -0.014362566 0.56572819
0.14980385 -0.022385005 0.59403902
0.10772139 -0.010035425 0.5680089
0.14966793 -0.017957471 0.5963797
0.10762258 -0.005475726 0.57035267
0.14961959 -0.013266541 0.5987044
0.10742722 -0.0008733198 0.57287359
0.14959227 -0.0089606903 0.60081059
0.10757847 0.0036555827 0.57479674
0.14944224 -0.0044836774 0.60319787
0.10735746 0.0079463571 0.57721007
0.14939339 4.870072e-05 0.60544747
0.10730477 0.012511119 0.57948136
0.14924921 0.0045066029 0.6078161
0.10728852 0.016904339 0.58161139
0.14912468 0.0088735521 0.61010927
0.10716172 0.021277107 0.58391112
0.14927983 0.013640106 0.61213994
0.10715226 0.0259187 0.58614904
0.14908707 0.017787538 0.61443877
0.10702512 0.030231982 0.58842081
0.14913857 0.022352003 0.61654085
0.10693841 0.034758739 0.59072912
0.14913422 0.027023472 0.61878484
0.10691192 0.039382637 0.59298623
0.14892872 0.031177096 0.62110728
0.10671781 0.043467961 0.59525752
0.14887038 0.035865471 0.623447
0.10677817 0.048126794 0.59739041
0.14880075 0.040430851 0.62574607
0.10665607 0.052495077 0.5996803
0.14877468 0.04486379 0.62791109
0.10646738 0.056917347 0.60210413
0.14862633 0.049204797 0.63023055
0.10644779 0.061495617 0.60432816
0.14857459 0.053646244 0.63244128
0.10647592 0.066070683 0.60647327
0.14854927 0.058099285 0.63461471
0.10638103 0.070579298 0.60878623
0.14835669 0.062478565 0.63702422
0.10624555 0.07485833 0.61105508
0.14830965 0.067090265 0.63930881
0.10616484 0.079395197 0.6133585
0.14835122 0.071634762 0.6414175
0.14707433 0.07444831 0.64104474
0.14240728 0.075260885 0.63928556
0.11465894 0.084661178 0.61978811
0.10818928 0.084352724 0.62018794
0.10619398 0.083843596 0.61544132
0.1459799 0.074252971 0.64139557
0.14188041 0.075527512 0.63874102
0.13805316 0.076665618 0.63636523
0.13392937 0.077925958 0.63373804
0.12976639 0.079200231 0.631082
0.12566888 0.080399878 0.62857574
0.12143909 0.081638925 0.62598717
0.11735111 0.082753219 0.62365001
0.11312836 0.084059738 0.62092829
0.10910738 0.085374974 0.61819583
0.10670143 0.086028732 0.61682415
0.15327418 -0.060521569 0.57014585
0.15221019 -0.059752684 0.56712675
0.14816631 -0.05853444 0.56461328
0.14393522 -0.057473011 0.56207705
0.13986191 -0.056262255 0.55969113
0.13552654 -0.055142343 0.55702001
0.13138038 -0.053987559 0.55449426
0.12738086 -0.05288225 0.55202448
0.12312053 -0.052026756 0.54963648
0.11889542 -0.05080742 0.54698783
0.11474212 -0.049575344 0.54452848
0.11183569 -0.048576776 0.54351318
0.15330184 -0.055893239 0.57231724
0.15243551 -0.054459352 0.56921357
0.14844857 -0.053333059 0.56673074
0.14431003 -0.052146699 0.56416243
0.14015917 -0.050834261 0.56164998
0.13604419 -0.049728591 0.55905801
0.13193712 -0.04837738 0.55659932
0.12765981 -0.047160901 0.55393988
0.12364622 -0.045828767 0.55154318
0.11951489 -0.044708699 0.54894608
0.11524781 -0.043448005 0.54631746
0.11169554 -0.043398015 0.54593283
0.15312673 -0.051631108 0.5746423
0.15233013 -0.050033547 0.5714258
0.14830132 -0.048742011 0.56899637
0.14432517 -0.047622856 0.56651813
0.14007899 -0.046433046 0.56386882
0.13607359 -0.045346167 0.56135136
0.13180161 -0.043898098 0.55881602
0.12768127 -0.042762179 0.55623561
0.12351683 -0.041240007 0.55382138
0.11942346 -0.040303417 0.55115837
0.11520949 -0.039014675 0.54858512
0.1116432 -0.038823426 0.54817384
0.15303229 -0.047282137 0.57687807
0.15231051 -0.045405731 0.57380861
0.14852001 -0.044497959 0.57136363
0.14423628 -0.043098599 0.56879401
0.14001706 -0.041886762 0.56617689
0.13578565 -0.040696781 0.56353903
0.13174498 -0.039439008 0.56108296
0.12751547 -0.038451634 0.55834162
0.12351257 -0.037043259 0.55599266
0.11934155 -0.035846215 0.55340493
0.11524378 -0.03460969 0.55089396
0.1117212 -0.034322992 0.55031598
0.15296918 -0.042566597 0.57923847
0.15249985 -0.041099407 0.57618558
0.14838348 -0.040088221 0.57354355
0.14410031 -0.038638093 0.5710007
0.13994384 -0.037425973 0.56843197
0.13580041 -0.036203362 0.56587863
0.13163605 -0.035000276 0.56329918
0.12754574 -0.034035224 0.56065327
0.12336468 -0.032763507 0.55809647
0.11921549 -0.03127563 0.55567622
0.11520475 -0.030056238 0.55322331
0.11170035 -0.029959913 0.5524556
0.15290366 -0.038200185 0.58143562
0.15241224 -0.036787346 0.57835251
0.14826776 -0.035573587 0.57579386
0.14415222 -0.034282729 0.57329738
0.1400643 -0.032976031 0.57083035
0.13576469 -0.031710979 0.56817895
0.13158645 -0.030666329 0.56550664
0.12730029 -0.029257037 0.56294036
0.12321238 -0.02809779 0.56039691
0.11913203 -0.026632134 0.55801809
0.11508226 -0.025698189 0.55538726
0.11161764 -0.025357295 0.55472988
0.15274048 -0.033737361 0.58383745
0.15228873 -0.032177106 0.58064634
0.14808971 -0.031157525 0.57794511
0.14401504 -0.029825632 0.57550132
0.13985044 -0.02850192 0.57298416
0.1354921 -0.027193841 0.57030988
0.13148546 -0.026138574 0.56777507
0.12729059 -0.024888016 0.56519669
0.12323633 -0.023614623 0.5627383
0.11902114 -0.022232369 0.56021255
0.11516573 -0.021208003 0.55777806
0.11150177 -0.020859044 0.55713689
0.15276843 -0.029349603 0.58589315
0.15220934 -0.027689729 0.58291042
0.1479848 -0.026681695 0.58018363
0.14389274 -0.02532953 0.57773691
0.13982281 -0.024157539 0.57521397
0.13554046 -0.02290969 0.57256693
0.13136628 -0.021644138 0.57001221
0.12722799 -0.020434227 0.56745631
0.12310295 -0.019306831 0.56486785
0.11899979 -0.017905407 0.56243819
0.11492227 -0.016848043 0.55984998
0.11135817 -0.016548127 0.55937988
0.15251234 -0.024891447 0.58844352
0.15220383 -0.023378506 0.58514011
0.14796616 -0.022185773 0.58249885
0.14387621 -0.020824924 0.58005834
0.13953695 -0.0195048 0.57740492
0.13551225 -0.018260282 0.57495433
0.13143502 -0.017298773 0.57231665
0.12702513 -0.015685007 0.5697611
0.12305208 -0.014782861 0.56717283
0.1189197 -0.013453316 0.56468344
0.11482283 -0.012253586 0.56215411
0.11126886 -0.011988983 0.56167579
0.15246671 -0.020459741 0.59063971
0.15198708 -0.018890075 0.58729911
0.1478585 -0.017564766 0.58481044
0.14367683 -0.016607299 0.58209038
0.13957217 -0.015025087 0.57975322
0.13546775 -0.013864826 0.57719761
0.13110885 -0.012721702 0.57443744
0.12699908 -0.011437431 0.57194197
0.12306356 -0.010217022 0.56954747
0.11900575 -0.0090895742 0.56701076
0.11472739 -0.0078304745 0.5643726
0.1113646 -0.0075891763 0.56371611
0.15252866 -0.016021319 0.59266448
0.15193783 -0.014385518 0.58959526
0.1477064 -0.013159148 0.58697623
0.14362045 -0.012071326 0.58439732
0.13946059 -0.010637134 0.58194107
0.13540085 -0.0095267966 0.57939392
0.13113625 -0.0080674365 0.57687014
0.12693518 -0.0069045238 0.57424158
0.1229077 -0.0058084615 0.5717119
0.11891231 -0.0047327578 0.5691964
0.11467345 -0.0034821033 0.56658423
0.11107367 -0.0030795373 0.5662818
0.15249515 -0.011518914 0.59487486
0.15172617 -0.0099265017 0.59174293
0.14765927 -0.0085469522 0.58932984
0.14353457 -0.007463444 0.58671886
0.13935497 -0.0060732067 0.58422464
0.13522756 -0.0048928745 0.58166176
0.13117924 -0.0037163943 0.57915771
0.12713434 -0.0026032701 0.5766235
0.12297352 -0.0013094656 0.5740937
0.11886041 -0.00011567771 0.57154882
0.11468302 0.0012355819 0.56903607
0.11108986 0.0011259615 0.56827211
0.15245272 -0.0069602728 0.5971266
0.15164755 -0.0054069459 0.5940243
0.1475182 -0.0043031611 0.59142029
0.14350209 -0.0030656904 0.58897263
0.13938358 -0.0018589832 0.58643025
0.13510869 -0.00047171861 0.58386117
0.1309399 0.00073153526 0.58127838
0.12705836 0.0017551258 0.57882339
0.12276279 0.0031950548 0.57626569
0.11884324 0.0042094067 0.57377666
0.1146028 0.0053888857 0.57112646
0.11095647 0.0058503374 0.57078612
0.15230097 -0.0024915412 0.5995127
0.15150318 -0.00070941448 0.59634733
0.14772242 0.00012892485 0.59387386
0.14354649 0.001499787 0.59137237
0.13935894 0.002556093 0.58869898
0.13505898 0.0038793981 0.58607751
0.13099036 0.0051780939 0.5836212
0.1267747 0.0063576773 0.58099002
0.12293141 0.007513538 0.57863301
0.11856525 0.0087857619 0.57593411
0.11440055 0.01017379 0.57345021
0.11098313 0.010399744 0.57285035
0.15217111 0.0019516572 0.60185105
0.15176676 0.0035042614 0.59873337
0.14750043 0.0047440752 0.59609449
0.14341211 0.0060214251 0.59361196
0.13926724 0.0070747808 0.59096986
0.13502966 0.0085364208 0.58846802
0.13088737 0.0097183287 0.58589453
0.12684515 0.010739334 0.5833146
0.12272808 0.01204288 0.58082354
0.1184871 0.013401844 0.57826591
0.11434654 0.014524654 0.57566309
0.11078066 0.014684215 0.57522827
0.152107 0.0064477921 0.60410804
0.15143663 0.0079484731 0.60078228
0.14730935 0.0092276782 0.59827071
0.14312856 0.010404095 0.59566474
0.1390532 0.011682533 0.59319276
0.13493714 0.012824342 0.59061867
0.13080218 0.014030345 0.5880633
0.12676202 0.015465178 0.58569938
0.12259643 0.016623825 0.58309591
0.11843165 0.017688543 0.5804444
0.11426318 0.019103773 0.5779717
0.11099648 0.019229591 0.57722008
0.15217754 0.010850608 0.60610181
0.15131463 0.01233957 0.60296369
0.1473375 0.013527907 0.60052055
0.14307225 0.014926158 0.59796458
0.13890933 0.016201243 0.59542352
0.13479573 0.017317854 0.59283823
0.13076475 0.018518031 0.59035981
0.12664044 0.019638203 0.58776814
0.12261692 0.021173574 0.58546919
0.11830775 0.022260495 0.58271807
0.11421348 0.023456804 0.58018899
0.11087926 0.023604997 0.5795266
0.1520499 0.015138678 0.60836232
0.15139344 0.016929328 0.60540253
0.14727551 0.018238641 0.6029138
0.14309843 0.019325458 0.60026425
0.13884555 0.020517379 0.59761089
0.13480341 0.021794647 0.59516382
0.1306386 0.022975534 0.59257245
0.12657827 0.024239853 0.5901047
0.12238543 0.025462493 0.58751345
0.11838406 0.026694261 0.58507419
0.11412908 0.027807683 0.58237851
0.11068856 0.028051153 0.58187503
0.15188809 0.019616149 0.61076891
0.15127499 0.021404803 0.60763043
0.14707938 0.022700921 0.60507506
0.14286827 0.023978986 0.60249847
0.13883585 0.025147639 0.60000259
0.13472947 0.026253916 0.59741753
0.13047706 0.027344987 0.59471226
0.12649006 0.02862931 0.59231126
0.12231396 0.029913932 0.58976501
0.11827493 0.031278484 0.58736557
0.11412092 0.032338239 0.58471978
0.11059844 0.032563202 0.58422524
0.15182498 0.02416072 0.61304748
0.15119423 0.026157342 0.61003083
0.14700755 0.027037442 0.60726684
0.14290097 0.028338552 0.60478258
0.13878691 0.029532142 0.60223681
0.13468307 0.030722044 0.59969705
0.13056009 0.032003224 0.59718984
0.12633599 0.033159927 0.59454036
0.12228391 0.034308061 0.59201872
0.11809786 0.035612635 0.58947515
0.11407085 0.036710955 0.58694696
0.1105213 0.037246309 0.58654767
0.15186414 0.028686896 0.61515129
0.15111232 0.030416772 0.61217487
0.14711733 0.031573109 0.60970145
0.14283873 0.032785647 0.60703897
0.13880908 0.033979051 0.60455805
0.13462138 0.035194747 0.60196716
0.13045396 0.036373883 0.59937286
0.12632987 0.03751938 0.59679455
0.12239477 0.038664795 0.59436148
0.11801992 0.040157191 0.59176999
0.11403285 0.041271701 0.58928096
0.11041895 0.041529439 0.58874935
0.15169466 0.033014655 0.61749864
0.15105891 0.034811832 0.61441112
0.14704733 0.03598845 0.61193544
0.14302523 0.037162013 0.60945004
0.13876645 0.03842748 0.60683024
0.13435909 0.0396901 0.60409468
0.13036187 0.040787309 0.6015889
0.12615599 0.042029016 0.59899747
0.12207065 0.043364488 0.59654737
0.11795305 0.044626951 0.59403455
0.11384051 0.045705996 0.59143066
0.11024177 0.046072312 0.59114271
0.15180656 0.037727624 0.61957383
0.15089832 0.039417766 0.61667424
0.14686233 0.040491939 0.61412668
0.14272396 0.041692041 0.61156559
0.13870689 0.04289563 0.60909963
0.13452767 0.044093765 0.60650617
0.13041529 0.045372158 0.60400563
0.12609343 0.046640649 0.60133892
0.12215486 0.047922388 0.59897381
0.1179772 0.049009949 0.59632421
0.11377534 0.05015073 0.5936836
0.1103266 0.050421327 0.59322196
0.15155545 0.041981228 0.62201816
0.1510105 0.043778367 0.61901999
0.14695567 0.044967435 0.61651742
0.1428477 0.046038337 0.61391282
0.138769 0.047196388 0.61137587
0.1344257 0.048623182 0.60877466
0.13021018 0.049828269 0.60615683
0.12600942 0.05106391 0.60356623
0.12192139 0.052268498 0.6010462
0.11787353 0.053501695 0.5985719
0.11397539 0.054492734 0.59608728
0.11030636 0.055016935 0.59540486
0.15148456 0.046492428 0.62429339
0.15096381 0.048227154 0.62128925
0.14676628 0.049339294 0.61863708
0.14268106 0.050653763 0.61617619
0.13855155 0.051716715 0.61355084
0.13431883 0.053166561 0.61104667
0.13018019 0.054270774 0.60843569
0.12601668 0.055503972 0.60587245
0.12185401 0.056659877 0.60326982
0.11760726 0.058003329 0.60069966
0.1136871 0.059052818 0.59822839
0.1099288 0.059360653 0.59796709
0.15140897 0.050919548 0.62653601
0.15058172 0.052684695 0.62330502
0.14661042 0.053782478 0.62081945
0.14243117 0.055022784 0.61824781
0.13834491 0.056120373 0.61567372
0.13436185 0.057439342 0.61329371
0.13010316 0.058652714 0.61064696
0.12591626 0.059777819 0.6080097
0.12195648 0.061127275 0.60566342
0.11782514 0.062367044 0.60312831
0.11362606 0.063668944 0.6005733
0.11009093 0.063778125 0.59991676
0.15131122 0.055379413 0.62883019
0.15059482 0.057204999 0.62565732
0.14662245 0.058214881 0.62312537
0.14249636 0.059440926 0.62058723
0.138308 0.06086617 0.6181044
0.13414735 0.061868601 0.61542374
0.13011673 0.063010626 0.61291546
0.12587497 0.064552851 0.61045218
0.12181696 0.065472014 0.6078074
0.11770786 0.066783361 0.60532647
0.11364083 0.067985736 0.60282147
0.10993414 0.068215705 0.60234487
0.15139663 0.060192153 0.63099617
0.1505236 0.061623476 0.62789202
0.14645571 0.062615089 0.62527716
0.14233547 0.063882641 0.622765
0.13832335 0.065236099 0.62038046
0.13412349 0.06641572 0.61776149
0.1300586 0.067573138 0.61523485
0.12588315 0.0687932 0.61265564
0.12173561 0.069986694 0.61008412
0.11755782 0.071168251 0.60748315
0.11356936 0.072425686 0.60506707
0.10999368 0.07285399 0.6044625
0.151131 0.064510502 0.63349503
0.15045439 0.065979816 0.63009608
0.14643259 0.067153655 0.62761104
0.14234862 0.068414114 0.62512308
0.13817382 0.069752268 0.62260556
0.13409016 0.07091289 0.62006611
0.12986168 0.072116025 0.6174373
0.12569186 0.073321499 0.61485487
0.12158914 0.074579455 0.61235118
0.11737235 0.075897329 0.60979086
0.11347797 0.076929457 0.60733044
0.1097944 0.07711608 0.60677588
0.15110046 0.068890564 0.63564199
0.15044895 0.070478119 0.63242269
0.14638871 0.071621411 0.62989229
0.14229622 0.073083721 0.62750238
0.13802318 0.074130274 0.62475818
0.13406818 0.075398512 0.62237346
0.12969618 0.076601885 0.61963439
0.12560119 0.077926539 0.61717123
0.12168203 0.078943513 0.61468393
0.11749778 0.080464803 0.61225402
0.11344153 0.081486993 0.6096639
0.10981364 0.081619821 0.60885358
0.15116182 0.073496707 0.63774806
0.15035215 0.07495413 0.63486284
0.1462609 0.076071404 0.63232386
0.14228842 0.077382959 0.62972403
0.13813066 0.078470029 0.6270895
0.13366655 0.079820804 0.62435597
0.12982747 0.081012897 0.62202096
0.12560031 0.082097717 0.6193319
0.12149449 0.083382361 0.61683971
0.11743078 0.08477322 0.61452162
0.11321709 0.085914724 0.61188614
0.10958026 0.086100183 0.61141872
0.14887592 0.076240964 0.63755709
0.14474638 0.077332474 0.63526362
0.14078803 0.07861542 0.63259715
0.136583 0.079997353 0.62972677
0.13242215 0.081136055 0.62733883
0.12831737 0.08235725 0.62478983
0.12404163 0.083560534 0.62227058
0.11990276 0.084749721 0.61978358
0.11584092 0.085963078 0.61725128
0.11180668 0.087197192 0.61467874
0.10964184 0.088164203 0.6126954
