# .PCD v0.7 - Point Cloud Data file format
VERSION 0.7
FIELDS x y z
SIZE 4 4 4
TYPE F F F
COUNT 1 1 1
WIDTH 837
HEIGHT 1
VIEWPOINT 0 0 0 1 0 0 0
POINTS 837
DATA ascii
0.015405025 0.14961176 0.57377207
0.013273699 0.14821301 0.57489532
0.024984621 0.15270406 0.5735938
0.021547968 0.15176566 0.57443064
0.017352603 0.14992964 0.57595223
0.013598954 0.14741032 0.57786328
0.010454314 0.14434639 0.57992661
0.008674996 0.1416705 0.58195049
0.027724272 0.15246797 0.57593375
0.024024121 0.15129945 0.57818723
0.020023447 0.14938858 0.5804202
0.016199231 0.14677741 0.58242124
0.012557248 0.14364539 0.58384585
0.0097640473 0.14029548 0.58512652
0.033555377 0.15187475 0.57782066
0.031027019 0.15149106 0.57928938
0.026911085 0.15015954 0.5820989
0.022930637 0.14821345 0.58442831
0.019055955 0.14556789 0.58645284
0.015434134 0.14241511 0.58795655
0.01192127 0.13858758 0.58896703
0.010853631 0.13594267 0.59024334
0.03559012 0.15065768 0.5803746
0.034094021 0.14967278 0.58289719
0.029886529 0.14838541 0.58563024
0.025900947 0.1463331 0.58810687
0.022054613 0.14376156 0.59002978
0.018381944 0.14065757 0.59145379
0.014928656 0.13685769 0.59248757
0.012397466 0.13506202 0.59204525
0.036365494 0.14729792 0.58625835
0.033106454 0.1458396 0.58893949
0.029060587 0.14401305 0.59115964
0.025166854 0.14146036 0.59306645
0.021505089 0.13817799 0.59461969
0.018392975 0.13523591 0.59528857
0.037677512 0.14505702 0.58884656
0.035670273 0.14320402 0.59136146
0.032309331 0.14095712 0.59386396
0.028600303 0.13848434 0.59571737
0.024690479 0.13586038 0.59684449
0.021503974 0.1340443 0.59706867
0.03350497 0.13863151 0.59552199
0.031381279 0.13717622 0.59662104
0.019959029 0.15186501 0.56410563
0.016976772 0.15083514 0.5652262
0.013244357 0.14903751 0.56673658
0.0095171928 0.14654125 0.56859976
0.0065287761 0.1438054 0.57047266
0.027042132 0.15340117 0.56532389
0.023201915 0.1528134 0.56614405
0.019021846 0.15166149 0.56847346
0.014895179 0.14976388 0.57073569
0.010967119 0.1471286 0.57268155
0.0074710287 0.14390403 0.57427073
0.0045792889 0.14035891 0.5755918
0.0028289687 0.1371793 0.57738435
0.029756585 0.15356852 0.56787193
0.025662415 0.15316433 0.57028127
0.021413578 0.15219475 0.57176769
0.018207945 0.15104944 0.5727427
0.010586618 0.14595343 0.57648385
0.0085439384 0.14354153 0.5782516
0.0062161162 0.14006865 0.58013147
0.0037372224 0.13610059 0.58092368
0.0028537605 0.13255978 0.58299172
0.035869345 0.1530568 0.56950092
0.032665819 0.15322271 0.57167196
0.029202752 0.15304473 0.57368308
0.0077175777 0.13866016 0.58446676
0.0058343541 0.13509551 0.58535141
0.0040893089 0.13164556 0.58558881
0.03910419 0.15194446 0.57293642
0.035548419 0.15215099 0.57565755
0.0092077106 0.1372149 0.5877018
0.0085614696 0.13390309 0.58941942
0.00637329 0.1301294 0.58928549
0.041828718 0.15024021 0.57649446
0.038628265 0.15031032 0.5793497
0.037326578 0.14932398 0.58252496
0.014307307 0.13405015 0.59390968
0.011628231 0.13210411 0.59302938
0.0093821101 0.12843364 0.5928309
0.044278383 0.14802299 0.57971776
0.041711301 0.14782384 0.58247268
0.038973399 0.14720365 0.5853405
0.017627643 0.13276057 0.59621888
0.014903117 0.12973034 0.59605217
0.012568267 0.12664381 0.59566152
0.044512302 0.14487074 0.58509874
0.04091756 0.14409003 0.58846289
0.038139395 0.14213082 0.59171313
0.035791684 0.14023753 0.59399742
0.028646911 0.13547674 0.59757221
0.025452154 0.13361518 0.59811276
0.021544034 0.13103823 0.59828174
0.018408302 0.12737596 0.59836316
0.015362422 0.12529941 0.5975402
0.045779407 0.14207035 0.58771038
0.043599851 0.14060879 0.59056687
0.040113971 0.13901964 0.59352589
0.036159895 0.13712189 0.59597719
0.032210659 0.13454291 0.59793025
0.028558819 0.13128056 0.59932536
0.024996432 0.12808008 0.599949
0.021625077 0.1259636 0.59976149
0.042075459 0.13599844 0.59477878
0.038752005 0.13377434 0.59715265
0.035066016 0.13136007 0.59898686
0.031511165 0.1289029 0.60013616
0.015339374 0.1488519 0.55878878
0.011447316 0.14703903 0.56062013
0.0078373868 0.14461376 0.56241274
0.0046713557 0.14171086 0.56418353
0.025103822 0.1520333 0.55881041
0.021105029 0.15138727 0.55994856
0.016830765 0.15023394 0.56164998
0.012341529 0.14821362 0.56357354
0.0084281601 0.1455918 0.56565124
0.0050346684 0.14235282 0.56765646
0.0023441203 0.13881218 0.569561
0.00037804618 0.13538539 0.57119405
0.03147126 0.15275936 0.5602659
0.027708456 0.15289465 0.56149524
0.023549004 0.15262884 0.56302679
0.0025585052 0.13841376 0.57349515
0.00086815283 0.13477735 0.57515246
-0.00038522109 0.1312346 0.57648027
0.038327493 0.15215504 0.56217426
0.034561761 0.15297601 0.56331533
0.0309349 0.15346329 0.56470406
0.0018171929 0.1338027 0.57959068
0.00067008659 0.13018411 0.58033645
0.00011908822 0.12636061 0.58169955
0.040729832 0.15176901 0.56489921
0.038035933 0.15261145 0.56672102
0.0024387725 0.12891074 0.58460844
0.0015308019 0.12548554 0.5846374
0.043860164 0.15065548 0.56844807
0.041372783 0.15153751 0.57040524
0.0048992131 0.1270747 0.58883536
0.0038447287 0.12395551 0.58838499
0.04670804 0.14895228 0.57173663
0.04439418 0.14970952 0.57421136
0.0079818591 0.12523033 0.59251326
0.0067814086 0.12213398 0.59188336
0.04910706 0.14682366 0.57481712
0.047168702 0.147092 0.57786512
0.011735439 0.12331584 0.59568882
0.0099336114 0.12039687 0.59467572
0.049430225 0.14412937 0.58083892
0.047427796 0.14360934 0.58426398
0.018099358 0.12412675 0.59889579
0.015404997 0.12134352 0.59792733
0.012520002 0.11890081 0.59645492
0.051151387 0.14109887 0.583345
0.048959807 0.14023738 0.58678138
0.046442889 0.13897507 0.59019017
0.025627777 0.12512445 0.60068786
0.022158161 0.12218011 0.60031092
0.01892234 0.11960363 0.59949011
0.050393894 0.13694982 0.58855104
0.047753721 0.13561037 0.59167457
0.044620305 0.1336 0.59481442
0.040992469 0.13125296 0.59748906
0.036953442 0.12856412 0.59952098
0.032818768 0.12578207 0.60072929
0.02892966 0.1228235 0.60120404
0.025493525 0.12038958 0.60108465
0.048335437 0.13187467 0.59344077
0.046183415 0.13044827 0.59538269
0.042703606 0.12841356 0.59776396
0.039094746 0.12592392 0.59960312
0.035468213 0.12317229 0.60081315
0.032881308 0.12143948 0.60127985
0.0094361603 0.14314438 0.55467623
0.0070765372 0.14143941 0.55577201
0.023328245 0.14924061 0.55249774
0.019695651 0.14887026 0.55405432
0.015122514 0.14734827 0.55525506
0.010886393 0.14521539 0.55662006
0.0069814268 0.1426134 0.5586369
0.0036589373 0.13958493 0.56095928
0.0010852162 0.13642417 0.56344676
-0.00077935308 0.13309827 0.56475717
0.029859945 0.15078315 0.55416131
0.025987172 0.15079294 0.55498213
0.021576829 0.15041329 0.55618298
0.0007467363 0.13640219 0.56668341
-0.0009903647 0.13270901 0.5686155
-0.0021774303 0.12920806 0.57032001
0.036620572 0.15089332 0.5560689
0.032881711 0.15158215 0.55666244
0.028908258 0.15203144 0.5575012
-0.00099885464 0.1319737 0.57253128
-0.0018697884 0.12809841 0.57419419
-0.002404565 0.12446573 0.57537186
0.039167993 0.15110624 0.55884773
0.035984851 0.152128 0.55971873
-0.0010166802 0.12728338 0.57829618
-0.0012989026 0.12398852 0.57909065
0.042859752 0.1505006 0.56181699
0.00035808049 0.12194695 0.58327258
0.048854396 0.14769337 0.56390673
0.046439804 0.14923719 0.56511748
0.0027493909 0.11985758 0.58729404
0.002662709 0.116825 0.58704048
0.050523646 0.14670527 0.56599057
0.049524337 0.14739756 0.56877983
0.0057692453 0.11797176 0.5908643
0.0043662414 0.1157795 0.58908224
0.051892914 0.1451102 0.5725618
0.0093388483 0.11657942 0.5939613
0.053722672 0.14241678 0.57605737
0.052562006 0.14227064 0.57919765
0.015409583 0.11737955 0.5979194
0.013306579 0.11516917 0.5964818
0.055453192 0.13958155 0.5781244
0.054050587 0.13896219 0.581734
0.052339658 0.13808616 0.58539689
0.022539396 0.11808001 0.60051137
0.019339401 0.11567384 0.5992977
0.01654009 0.11335973 0.59786725
0.055036068 0.13581234 0.58390546
0.053185835 0.13453057 0.58736604
0.050755277 0.13307929 0.59086537
0.029952973 0.11915237 0.6013937
0.026231192 0.11636239 0.60094094
0.022976194 0.1142352 0.6001547
0.053901576 0.1310477 0.58886135
0.051428679 0.12991236 0.59176761
0.048597753 0.12742123 0.59480315
0.045240831 0.12463519 0.59739673
0.041261725 0.12211145 0.59939027
0.037059214 0.1197919 0.60062969
0.032762058 0.11737463 0.60116768
0.029950382 0.11479535 0.60103434
0.045562379 0.12151176 0.59764069
0.043982971 0.12039629 0.59843516
0.017655924 0.14448391 0.54823697
0.014433239 0.14379337 0.54985559
0.010396795 0.14208493 0.55179232
0.0066021848 0.1394714 0.55362332
0.003399564 0.13637629 0.55546194
0.0013924278 0.13354658 0.55644417
0.024538159 0.1475714 0.549326
0.019797595 0.1464933 0.54980183
0.015590925 0.14566036 0.55152023
0.012300601 0.14458734 0.5531565
0.0029350072 0.13722312 0.55785429
0.00039564632 0.13348797 0.55959302
-0.0015537273 0.13008134 0.56248492
0.034952674 0.14789736 0.54948872
0.031011283 0.14877951 0.55041778
0.027033014 0.14897697 0.5509057
-0.0021234248 0.1295377 0.565678
-0.0029801596 0.12601796 0.56759465
0.037235789 0.14905395 0.55240583
0.034081254 0.14983194 0.55268615
-0.0030011218 0.12491922 0.57147515
-0.003112888 0.1218567 0.57274789
0.044428952 0.14751567 0.55461842
0.041495912 0.1489439 0.55500025
-0.0022251997 0.11955868 0.57703799
-0.0018359963 0.11641908 0.5779314
0.046575177 0.14749515 0.55755317
0.044507757 0.14896534 0.55848336
-0.00050037168 0.11856654 0.58171451
-0.00047102384 0.11584646 0.581209
0.049697891 0.14650039 0.56113869
0.046726983 0.14856054 0.56127143
0.0018691793 0.11450268 0.58520359
0.05269929 0.1447095 0.56471002
0.052382335 0.14525163 0.56802475
0.0049367268 0.11275358 0.58887416
0.055198483 0.14239973 0.56778872
0.054499112 0.14302482 0.57034343
0.009348711 0.11262734 0.5932259
0.0081531666 0.11079475 0.59155482
0.057230048 0.13987109 0.56982672
0.056648094 0.13989882 0.57319868
0.012959082 0.11056799 0.5951162
0.010974212 0.10878378 0.59314543
0.057799313 0.13677987 0.5768187
0.057008542 0.13620491 0.57985145
0.019923273 0.11124098 0.59864032
0.017430257 0.10957831 0.59713179
0.057616346 0.13287945 0.58214152
0.056134403 0.13165174 0.58563673
0.026943136 0.11193843 0.60029882
0.02365556 0.11007222 0.59923011
0.056280322 0.12862056 0.58702826
0.05411512 0.12601098 0.59051758
0.050910924 0.12442077 0.59383124
0.048284918 0.12301309 0.59595484
0.040989608 0.11831082 0.59959376
0.038262162 0.11584152 0.60014957
0.034647927 0.11300637 0.60034072
0.030127499 0.11108544 0.60019845
0.053972907 0.12286518 0.59136474
0.051489003 0.12177235 0.59367096
0.047822632 0.11981023 0.59633946
0.044046052 0.11716997 0.5982306
0.040454179 0.11433589 0.59927297
0.037785359 0.11186425 0.59954894
0.019115388 0.14256237 0.54531974
0.014963385 0.1410992 0.54635727
0.010597188 0.13875529 0.54774809
0.0067838468 0.13619626 0.54968762
0.0033858847 0.13328221 0.55218369
0.00094499998 0.13046753 0.5545702
0.028943859 0.14514205 0.54537761
0.025084028 0.14465815 0.54543805
0.021212565 0.14414909 0.54603022
-0.00025056116 0.12976843 0.55689758
-0.0016935822 0.12664393 0.55899936
-0.0027941745 0.12356772 0.56138092
0.035729378 0.14588836 0.54695946
0.032158818 0.14611329 0.54664904
-0.0033241902 0.12232856 0.56458974
-0.0035797898 0.11973526 0.56692046
0.039069012 0.14634645 0.54886842
-0.003390843 0.11780197 0.57012886
0.044880547 0.14549674 0.55149829
0.042481996 0.14654139 0.55114079
-0.0028106291 0.11608445 0.57381088
-0.0021445695 0.11383749 0.57527953
0.048387025 0.14488071 0.55440462
-0.00058386661 0.11195591 0.57901323
0.051980108 0.14346331 0.55760831
0.0018068701 0.1098026 0.58288026
0.05496297 0.1416775 0.56113726
0.0048215371 0.10803936 0.58649427
0.057418048 0.13946006 0.56513423
0.0084303506 0.10661319 0.58976293
0.05909051 0.13709423 0.56842405
0.059264332 0.13649751 0.57110608
0.013913285 0.10621182 0.59389246
0.01199038 0.10545164 0.59213626
0.060188528 0.1337314 0.57387501
0.01766465 0.10513508 0.59526461
0.060573451 0.13117646 0.57673895
0.060020573 0.12954028 0.57981819
0.02454797 0.10562649 0.59768081
0.021335617 0.10458776 0.59641278
0.059817992 0.12680608 0.58208495
0.058487672 0.12478041 0.58515871
0.056764409 0.1228757 0.5881356
0.035242345 0.10840604 0.59896165
0.031616509 0.1068573 0.59869564
0.028028728 0.10540621 0.59805846
0.056054078 0.12053536 0.58919501
0.053365394 0.11814506 0.59200305
0.049933694 0.11520144 0.59452105
0.046163604 0.11275014 0.59643352
0.041850049 0.11037222 0.59779119
0.03802681 0.10839566 0.59836191
0.023413938 0.13935642 0.54096198
0.02044867 0.13944191 0.5420177
0.015598862 0.13743944 0.54287034
0.011324396 0.13511889 0.54424584
0.00752558 0.13255975 0.54615754
0.004113093 0.12972659 0.54867733
0.00118687 0.12659794 0.55180532
9.8850578e-05 0.12387887 0.55282599
0.03015705 0.14214951 0.54237616
0.025877867 0.14117318 0.54192913
0.022535607 0.14176542 0.54313517
-0.00036957115 0.12678471 0.55497932
-0.0011413712 0.12295897 0.5555504
-0.002355272 0.12012407 0.55868059
0.036723368 0.14270076 0.54376316
0.033402339 0.14271685 0.54310954
-0.0029569957 0.11812924 0.56149817
-0.003147075 0.11597982 0.56397784
0.043706737 0.141729 0.54584366
0.040785201 0.14289524 0.54551822
-0.0029446278 0.11350684 0.56756109
-0.0023384038 0.110828 0.56921279
0.045906384 0.14238408 0.54819763
0.043120343 0.1440279 0.54800624
-0.0027986933 0.11344718 0.57134944
-0.0018468294 0.11035178 0.57229537
0.050053556 0.14140497 0.55111188
-3.6058947e-05 0.10769933 0.57642633
0.053720795 0.13997683 0.55447328
0.0023534019 0.10551839 0.58021462
0.056736127 0.13812488 0.55797535
0.005423516 0.1036301 0.58382016
0.059116412 0.13600738 0.56182092
0.0090180188 0.10222924 0.58710831
0.060923979 0.13342407 0.56599122
0.061002001 0.13340701 0.56932318
0.015184117 0.10251257 0.59245372
0.013272721 0.10131647 0.59016532
0.06191586 0.13117796 0.56782496
0.062018484 0.13025747 0.57076949
0.01834213 0.10081819 0.59281886
0.015907731 0.099990979 0.5909307
0.062315136 0.12745418 0.57420933
0.062004156 0.12561665 0.57699925
0.025651451 0.1011894 0.59536237
0.022384785 0.10067397 0.59427059
0.061521195 0.12339322 0.57943577
0.060237378 0.1207872 0.58273911
0.035743859 0.10505758 0.59747332
0.033140216 0.10260525 0.59643012
0.028997777 0.10144727 0.59587198
0.059569292 0.11789475 0.58403778
0.057813995 0.11711353 0.58666044
0.054988485 0.11403173 0.58964539
0.051634513 0.11103653 0.59205127
0.047797427 0.10856653 0.59402883
0.043552123 0.10619794 0.59537828
0.038800202 0.10411289 0.59614503
0.036310688 0.10234863 0.59583825
0.02405801 0.13687487 0.53917378
0.021478143 0.13554567 0.53913909
0.01681802 0.13354145 0.53991473
0.012464637 0.13121529 0.54132593
0.0087400265 0.12862323 0.54316646
0.0052927472 0.12589903 0.54573077
0.0023720972 0.12272905 0.54881096
0.0007288456 0.12170401 0.55123299
0.031299237 0.13820338 0.53941202
0.026963236 0.13724239 0.53899181
0.024534693 0.13433477 0.53769785
0.0019027609 0.1193058 0.54918641
3.4846365e-05 0.11905769 0.55257767
-0.0012636054 0.11636297 0.55591547
0.037878342 0.13890472 0.54095429
0.034590706 0.1387755 0.54012883
-0.001749808 0.11418392 0.55834198
-0.0020394344 0.11222582 0.56113321
0.044406936 0.13949394 0.54423094
0.041888222 0.13897166 0.54254603
-0.0017739329 0.10952812 0.56463408
-0.0018337723 0.10906653 0.567864
0.047085956 0.13855179 0.54535437
0.04514097 0.13695043 0.54273534
-0.0005296655 0.10588378 0.56590426
-0.00070010498 0.10641396 0.56935561
0.051279951 0.13746242 0.54823273
0.0011107959 0.1038041 0.57351524
0.054846641 0.13607456 0.55150622
0.0036060996 0.1015238 0.57740438
0.057902947 0.13428877 0.555197
0.0065676998 0.099773154 0.5809207
0.060261942 0.13210593 0.55889291
0.010095892 0.098469891 0.58426529
0.062053427 0.12955895 0.56301564
0.06305439 0.12630868 0.5640136
0.017374471 0.095343471 0.58702201
0.014343511 0.097439416 0.58721334
0.062664583 0.12860757 0.56588119
0.063203156 0.12624609 0.56770998
0.019465141 0.096846059 0.58981442
0.016476935 0.098147273 0.58957821
0.063393973 0.12383559 0.57137734
0.063187122 0.12156877 0.57401639
0.026796866 0.097073339 0.59225988
0.023594202 0.097018853 0.59156626
0.062618777 0.11961339 0.57664478
0.06136794 0.11675113 0.57986915
0.037792344 0.097800665 0.59202266
0.034358315 0.098542571 0.59338999
0.030063815 0.097729512 0.59308279
0.060133118 0.1158691 0.58257651
0.059034921 0.11328165 0.58365989
0.056194209 0.11008927 0.58663398
0.052764822 0.10713849 0.58912611
0.048815385 0.10454996 0.59114176
0.044637553 0.10228763 0.59246874
0.039901726 0.10027681 0.59326428
0.036849249 0.10013866 0.59418803
0.022302302 0.13140151 0.53699023
0.018386321 0.12934671 0.53756183
0.014088847 0.12709336 0.5389452
0.010224178 0.12444407 0.54088748
0.0068613235 0.12161942 0.54338408
0.0042806137 0.1192882 0.54606092
0.032151356 0.13434535 0.53728765
0.028566541 0.13290365 0.53666711
0.024949064 0.13116902 0.53633028
0.003565168 0.1168047 0.54714066
0.0017313585 0.11498458 0.55026197
0.00035701692 0.11295508 0.5534339
0.038856775 0.13518041 0.53893232
0.035627685 0.13417718 0.53768331
0.00020303205 0.11030219 0.5555464
-0.00047262385 0.10895033 0.55867213
0.042489175 0.1345454 0.54000103
7.1981922e-05 0.10604198 0.56145251
0.048183396 0.13434249 0.5431779
0.046220619 0.13357823 0.54140615
0.0010117535 0.1032225 0.5642733
0.0011272281 0.10273717 0.56686604
0.051837914 0.13317907 0.54562062
0.0028970763 0.10022883 0.57026309
0.055433854 0.13175043 0.54888052
0.0052678287 0.098080263 0.57411128
0.058430739 0.12999573 0.55246782
0.0083004087 0.096243598 0.57764798
0.060857296 0.12777457 0.55636197
0.011917517 0.094919652 0.58109248
0.062427409 0.12583321 0.56014645
0.063063651 0.12361969 0.56148285
0.017857458 0.093240164 0.58431023
0.015346824 0.094221763 0.58376449
0.063626468 0.12203103 0.56505311
0.021225184 0.093450874 0.58654279
0.063832827 0.12007398 0.5684135
0.063586317 0.1174894 0.57069981
0.028139651 0.093613625 0.5886665
0.024664331 0.093826711 0.5883711
0.063023895 0.11585961 0.57386631
0.061927967 0.11309253 0.57642901
0.060494259 0.1101096 0.5785948
0.038957365 0.09569177 0.58943492
0.035028841 0.094997063 0.5898273
0.031174237 0.094585218 0.58994281
0.059275538 0.10932539 0.58088958
0.056839727 0.10638027 0.58313346
0.05339092 0.10351838 0.5857237
0.049623683 0.10101262 0.58764189
0.045363408 0.098711647 0.58899391
0.041176904 0.097175092 0.58999157
0.022483826 0.12793712 0.53581476
0.019857366 0.1253479 0.536053
0.016164673 0.12261894 0.53714556
0.01239839 0.12009847 0.53904116
0.0089234691 0.11797274 0.54155517
0.0062661618 0.11699532 0.54399991
0.030146128 0.1285961 0.53513849
0.025698284 0.1268422 0.53502339
0.022021845 0.12396972 0.53520411
0.011745427 0.11645492 0.53958422
0.0092671476 0.11532392 0.54158139
0.0061933063 0.11373995 0.54478598
0.0040187687 0.11107314 0.5483045
0.0019296613 0.11067806 0.55158156
0.036641784 0.1297062 0.53613949
0.033184387 0.12764032 0.53500241
0.0040544178 0.10818487 0.54977238
0.0027133673 0.10675445 0.55320048
0.042852059 0.13011619 0.53821868
0.040361166 0.12836568 0.53668141
0.003181925 0.10362612 0.55555481
0.0024410542 0.10298695 0.55858451
0.04942916 0.13077915 0.54223675
0.047230687 0.12926744 0.54022259
0.0035180431 0.099954017 0.56227934
0.0031472389 0.099725142 0.56560338
0.052103736 0.12903377 0.54383051
0.050915245 0.12714037 0.54214287
0.0057832636 0.096705876 0.56502324
0.0050410628 0.097377546 0.56752747
0.055338252 0.12710458 0.54654431
0.053442106 0.12541303 0.54391348
0.0075992793 0.095012799 0.57060695
0.058395606 0.12526922 0.55017579
0.059311546 0.12192529 0.55085367
0.013402421 0.091252945 0.57397324
0.010588516 0.093215734 0.57413286
0.060734272 0.12395234 0.55417734
0.060916338 0.12126757 0.55400431
0.015679263 0.090843007 0.57687998
0.013692928 0.092220157 0.57769585
0.062108785 0.1233679 0.55749935
0.06247215 0.12013007 0.55828589
0.01873274 0.090806194 0.58029366
0.015817007 0.092202224 0.58062917
0.063366063 0.11789773 0.56256962
0.063270971 0.11485144 0.56402838
0.026090307 0.089959852 0.58269489
0.022873409 0.090756632 0.58297098
0.063764267 0.11749344 0.56632829
0.063245617 0.11377467 0.5677256
0.062437415 0.11042862 0.56962687
0.033173893 0.090697914 0.58430433
0.029372076 0.090972938 0.58492494
0.062980294 0.11332461 0.5717659
0.061890148 0.10985336 0.57269955
0.059893265 0.1063462 0.57574397
0.057503313 0.10276182 0.57740283
0.04775317 0.095062651 0.58224821
0.044720177 0.09413825 0.58384103
0.040409733 0.093245931 0.58554739
0.035709802 0.092165977 0.58599377
0.058827516 0.10616453 0.5789392
0.056840718 0.10342078 0.57996345
0.05363898 0.10022271 0.58165652
0.049794063 0.09769398 0.58365977
0.045716643 0.095959142 0.58556652
0.042508051 0.095216826 0.58709574
0.016393157 0.11950646 0.53687292
0.013922166 0.1177378 0.53815728
0.030491827 0.12482183 0.53430134
0.027475931 0.12233675 0.53418767
0.023172444 0.1200138 0.53473544
0.019002052 0.11771086 0.53596461
0.01508099 0.11507896 0.53793257
0.011698999 0.1123009 0.54053694
0.0088809505 0.10995539 0.5434944
0.006376924 0.10873549 0.54646426
0.037282445 0.12569685 0.5352366
0.034042321 0.12333828 0.5344162
0.03032504 0.12064087 0.53396696
0.0094785038 0.10678136 0.54446101
0.0070148017 0.10525955 0.54804534
0.005265234 0.10393416 0.55139554
0.043775354 0.12634777 0.53750449
0.040979296 0.12409804 0.53608608
0.037859246 0.12158644 0.53487754
0.0079543088 0.10166875 0.54992402
0.0062016267 0.10082775 0.55359954
0.004850354 0.1001265 0.55722618
0.046920575 0.12455611 0.5388512
0.044984732 0.1223816 0.53750795
0.0077818446 0.097359665 0.55625814
0.0065450501 0.097373351 0.55920583
0.05087439 0.1231878 0.54136425
0.0083676148 0.094657578 0.56277353
0.05570662 0.12413342 0.54609609
0.054528702 0.1218044 0.54454654
0.010697773 0.092395976 0.56658787
0.0095031913 0.0932239 0.56925601
0.057411376 0.12313985 0.54810005
0.057522651 0.11993361 0.5480898
0.013881555 0.090480417 0.57009548
0.011244301 0.092146993 0.57122356
0.05989445 0.11788476 0.55207378
0.017416241 0.089249909 0.57351017
0.061538026 0.11586962 0.55618417
0.061272651 0.11259139 0.55698878
0.024007045 0.087677285 0.57558078
0.02116332 0.088676855 0.57664716
0.062581994 0.11518071 0.55973846
0.06210538 0.111597 0.56116086
0.061240055 0.10776487 0.56281638
0.031307109 0.087637305 0.57754928
0.027339309 0.088191189 0.57870275
0.023613911 0.088945925 0.57946771
0.062431388 0.11055863 0.56501573
0.061242342 0.10703689 0.56679279
0.059527285 0.10339554 0.56861502
0.038642332 0.089354642 0.57919496
0.034281518 0.088945135 0.58031124
0.030511089 0.089009225 0.58125669
0.061053462 0.10669594 0.57053244
0.059252806 0.10349687 0.57189733
0.056583598 0.1001637 0.57439452
0.05330947 0.097245663 0.57687378
0.049359165 0.094566584 0.57879013
0.045086488 0.092390403 0.58009803
0.040631957 0.090919435 0.58129871
0.036971796 0.090449199 0.58268613
0.053220358 0.098323777 0.57950038
0.050961509 0.096790344 0.58076584
0.027449265 0.11849286 0.53406549
0.024634572 0.11637086 0.53460038
0.021137962 0.11390486 0.5357461
0.017490486 0.11141296 0.53760165
0.014226576 0.10928059 0.53990209
0.011816876 0.10815886 0.54186612
0.034829255 0.1194157 0.5342862
0.031293001 0.11693694 0.53415447
0.027395327 0.11424132 0.5345878
0.023302482 0.11130318 0.53581107
0.019352498 0.10857321 0.53781396
0.015580952 0.10619778 0.54055893
0.012509771 0.10427084 0.54359919
0.0099367611 0.10279877 0.54675287
0.041163184 0.12011182 0.53580725
0.038242467 0.11769968 0.53507084
0.034580626 0.1148022 0.53464532
0.013841387 0.10078037 0.54516143
0.01121293 0.099429421 0.54876518
0.0091218315 0.098687172 0.55196536
0.047890618 0.12054916 0.53899074
0.044793587 0.11832473 0.53741014
0.041960225 0.11566648 0.53638625
0.012893578 0.096072838 0.5511415
0.010846393 0.095621094 0.55451667
0.050380357 0.11930203 0.54072678
0.048611023 0.11650338 0.53972447
0.013094941 0.092631042 0.55759996
0.011118326 0.092953987 0.56058145
0.05352059 0.11762586 0.54351574
0.052260369 0.11450367 0.5428412
0.015847413 0.090064421 0.56114286
0.013598505 0.090788916 0.56363368
0.056396805 0.11585197 0.54694927
0.055341635 0.11268862 0.54650348
0.0189107 0.088225394 0.56486261
0.016569933 0.08903534 0.56697172
0.058740161 0.11434669 0.55072474
0.057835191 0.11102329 0.55070233
0.022267129 0.087141268 0.56853509
0.019428376 0.088022195 0.57038832
0.060082126 0.11337776 0.55355924
0.059490684 0.10951584 0.55486619
0.058466598 0.10581525 0.55601287
0.029239543 0.086304188 0.57064831
0.025646668 0.086792156 0.57201183
0.021847021 0.087613486 0.57307512
0.060712472 0.10861233 0.55902612
0.059412275 0.10497148 0.56033069
0.057561368 0.10116059 0.56184739
0.036769088 0.087157324 0.57238054
0.032389924 0.086836755 0.57373178
0.028721618 0.087030888 0.57518041
0.059922233 0.10445924 0.56423599
0.057944432 0.10100457 0.56580585
0.055256009 0.097458906 0.56780946
0.051800258 0.094163269 0.56981725
0.047866363 0.091532975 0.57185876
0.043396652 0.089506298 0.57365513
0.039144933 0.088357098 0.57532811
0.035159502 0.087773152 0.57669306
0.057860915 0.10076798 0.56979585
0.055526268 0.097981527 0.57117856
0.052400574 0.095158234 0.57305038
0.048810665 0.09272489 0.57472551
0.045141146 0.090978652 0.57641017
0.042096831 0.090005562 0.57783175
0.031449359 0.11279178 0.53471035
0.028725902 0.11101209 0.5351792
0.025095033 0.10847428 0.5363636
0.021458235 0.10601443 0.53820729
0.018147746 0.10379974 0.54056871
0.015834553 0.10231375 0.54265964
0.038519233 0.11387235 0.53555602
0.035306815 0.11176107 0.53540111
0.031614229 0.10843866 0.53604352
0.028064718 0.10533333 0.53737581
0.024061911 0.10262591 0.53939998
0.020103995 0.10075884 0.54184216
0.016631842 0.099172533 0.54479384
0.014471306 0.097654954 0.54769868
0.041866574 0.11246549 0.5369885
0.038750805 0.10869732 0.53710258
0.034877747 0.10606106 0.53729725
0.031545516 0.10440257 0.53772354
0.02456281 0.099639356 0.54125506
0.022195956 0.097604632 0.54364723
0.019288998 0.095717154 0.54687428
0.015807757 0.094962716 0.55011076
0.014364898 0.0936976 0.55336624
0.047672406 0.11307668 0.53969872
0.045365326 0.11008514 0.53929591
0.042733599 0.10710218 0.53913784
0.021291211 0.092533 0.55004597
0.018534765 0.091939732 0.55289525
0.015956413 0.091722354 0.55573219
0.050865866 0.11132748 0.5425244
0.048589781 0.10760918 0.54232359
0.022612475 0.090714142 0.55245769
0.021621391 0.089488462 0.55593443
0.01843085 0.08947964 0.55901957
0.053769983 0.1097963 0.54587454
0.051664382 0.10578818 0.54596031
0.051214024 0.10253568 0.54784572
0.024783373 0.087663144 0.55945343
0.021254761 0.087806337 0.56234628
0.056073882 0.10814662 0.54962742
0.054445833 0.10466035 0.55004859
0.052608117 0.10114364 0.55093837
0.031230904 0.086708829 0.5617733
0.027538531 0.08656843 0.56353819
0.024365051 0.086719915 0.56573522
0.057407849 0.10707856 0.55248702
0.056556828 0.10375921 0.55439639
0.053936593 0.099664137 0.55507725
0.051617168 0.096060157 0.55732244
0.049481854 0.093651481 0.55894178
0.042785846 0.089029625 0.56249672
0.039000817 0.087611772 0.56359613
0.034699667 0.086631089 0.56487352
0.03039982 0.086200178 0.56755394
0.057420887 0.10257338 0.55798757
0.055712745 0.099452093 0.55975997
0.052847892 0.095893919 0.56117678
0.04928964 0.092657395 0.56259
0.045408223 0.090033963 0.5645647
0.041252613 0.088108651 0.56695855
0.037028387 0.086942621 0.56913668
0.033262588 0.086379528 0.57018435
0.053862799 0.09610182 0.5648641
0.050741956 0.093237028 0.56665963
0.047098897 0.090776756 0.56862807
0.043131344 0.088878952 0.57021505
0.040189255 0.087864622 0.57122648
0.028674973 0.10238085 0.53886896
0.026900761 0.10131045 0.53969336
0.038954481 0.10564518 0.53838617
0.035555806 0.10387123 0.53852904
0.031702522 0.10141649 0.5395515
0.027937043 0.098860905 0.54145253
0.024587855 0.096480936 0.54407132
0.022530686 0.094834641 0.54638201
0.041904382 0.10460024 0.54005444
0.038661756 0.10151599 0.54075903
0.035051785 0.098385349 0.54222059
0.031222556 0.09578716 0.54416662
0.027247082 0.093787417 0.54656857
0.023816491 0.092444703 0.54916173
0.047766559 0.10482983 0.54316688
0.045405649 0.10300964 0.542853
0.041913465 0.099187419 0.54385918
0.038307097 0.096027508 0.54534483
0.034358852 0.093423657 0.54726744
0.030394012 0.091421671 0.54966426
0.026183642 0.090098694 0.55245268
0.024373293 0.08926329 0.55474424
0.049156234 0.1039305 0.54482913
0.048384644 0.10118198 0.54642814
0.044876792 0.097381331 0.54740751
0.041201923 0.094179943 0.54893523
0.037378199 0.09156625 0.55093223
0.033341777 0.089582339 0.55331296
0.029181356 0.088254392 0.55613548
0.026311718 0.0881164 0.55697376
0.050486736 0.099432319 0.55027765
0.047752954 0.096211046 0.55143875
0.044065133 0.09292312 0.55306208
0.040157363 0.090380274 0.55488956
0.036159568 0.088393345 0.55735493
0.032409072 0.087299444 0.55938697
0.051606543 0.098030955 0.55354488
0.049787819 0.095438689 0.55537766
0.046655782 0.092359237 0.55748272
0.042862698 0.089839809 0.55932987
0.038789295 0.088016242 0.5609706
0.035172477 0.087059841 0.5616861
0.047284871 0.091779202 0.56035215
0.045044899 0.090264387 0.56148958
