# .PCD v0.7 - Point Cloud Data file format
VERSION 0.7
FIELDS x y z
SIZE 4 4 4
TYPE F F F
COUNT 1 1 1
WIDTH 1190
HEIGHT 1
VIEWPOINT 0 0 0 1 0 0 0
POINTS 1190
DATA ascii
0.01514788 0.12479033 0.56153077
0.044463091 0.12663776 0.54559386
0.0094737746 0.12425897 0.5700624
0.010691633 0.12426327 0.57003856
0.015741698 0.12486454 0.5634141
0.046290111 0.12670887 0.54698038
0.053838111 0.12693542 0.54585314
0.054924823 0.12714654 0.54532695
0.015760224 0.12471474 0.57223177
0.018803896 0.12469365 0.57103634
0.023377102 0.12536322 0.5683763
0.046377592 0.12668566 0.55590802
0.052043293 0.12683643 0.55308771
0.053646356 0.12699407 0.55045772
0.055112973 0.12712932 0.54644096
0.016704308 0.12470593 0.57358688
0.019995231 0.12472032 0.5716151
0.023890253 0.12520444 0.57015795
0.047381055 0.12671396 0.55727834
0.05125 0.12661339 0.55493307
0.054161333 0.12701747 0.55330884
0.0068368595 0.12028209 0.54359937
0.0095027275 0.12083366 0.54193914
0.032034494 0.12206625 0.52987802
0.034458466 0.12197798 0.52871609
0.0070896782 0.12201366 0.54695666
0.010868307 0.12243832 0.5440191
0.014281681 0.1213058 0.54374611
0.030697485 0.12196876 0.53477436
0.032446455 0.1234078 0.5322516
0.036945492 0.12371179 0.53053874
0.0075964406 0.12046085 0.55418503
0.0082663242 0.12218065 0.55180353
0.013931928 0.12275223 0.54924184
0.015725182 0.12117204 0.54702187
0.032065704 0.12176504 0.53711456
0.03506244 0.12388281 0.5371775
0.040431812 0.12412257 0.53421319
0.04315412 0.12231945 0.5353235
0.0084103215 0.12110306 0.55686289
0.011408141 0.1233593 0.555875
0.01645039 0.12159105 0.55295348
0.037255775 0.12286618 0.54130936
0.042044863 0.12511563 0.53865808
0.04490288 0.12334231 0.53757411
0.010069886 0.12187095 0.56253028
0.013334532 0.1242494 0.56014854
0.01956542 0.12209859 0.55729586
0.039393935 0.12327816 0.54645503
0.044411033 0.12612498 0.54302233
0.048110664 0.1239949 0.54155058
0.0090673119 0.12183534 0.56956673
0.011859214 0.12215593 0.56799287
0.016513014 0.1240693 0.56567222
0.021617465 0.122619 0.56126571
0.041488722 0.12387687 0.5504055
0.047966525 0.12639868 0.5477736
0.052022811 0.12444969 0.54566455
0.054925725 0.12475062 0.54470682
0.010174206 0.12269609 0.57121897
0.014061814 0.12181157 0.57142627
0.018800892 0.12201747 0.56877053
0.023718599 0.12218232 0.56660032
0.04484098 0.12347122 0.5551886
0.049053729 0.12400067 0.55235815
0.053673662 0.12427672 0.5493654
0.055634186 0.1254255 0.54656678
0.016648702 0.12266174 0.57451338
0.020856341 0.12281183 0.57183796
0.024696197 0.12283626 0.57076186
0.047777668 0.12418659 0.55824018
0.050823316 0.12455001 0.55561268
0.055023886 0.12502119 0.55382019
0.0067747515 0.11732157 0.54347473
0.0094856061 0.11753273 0.54164451
0.032106139 0.11889047 0.5296219
0.0345474 0.11959614 0.52841377
0.0065616351 0.11708968 0.54664975
0.012094598 0.11695036 0.54142416
0.014447466 0.1180623 0.54297638
0.030487807 0.11909907 0.53443086
0.030628325 0.11792166 0.53152782
0.037104495 0.11875768 0.52970695
0.0078766588 0.11893515 0.55435199
0.0076967347 0.11711227 0.55188763
0.01656837 0.11707478 0.54942995
0.016233521 0.11781006 0.54701167
0.032416768 0.11867373 0.53756464
0.034187928 0.11866269 0.53925574
0.041170336 0.11903223 0.53372073
0.043150246 0.12134238 0.53542113
0.009106854 0.11721471 0.55737722
0.010268761 0.11615328 0.55644649
0.017453695 0.11798175 0.55288213
0.036976125 0.11913517 0.54217553
0.043834306 0.11871353 0.53761822
0.045106061 0.11969247 0.53809077
0.010424159 0.1178636 0.56215197
0.014053854 0.11622775 0.56008917
0.018393679 0.11779411 0.55748862
0.040110897 0.11908772 0.54527086
0.044794276 0.11805408 0.5432958
0.047945507 0.12007444 0.54131687
0.012080276 0.11856674 0.56631285
0.016269445 0.11779525 0.56468636
0.020494303 0.11828877 0.56250131
0.043306638 0.11966117 0.54986835
0.04731942 0.11969426 0.54766065
0.050597802 0.1209784 0.54500872
0.015294202 0.11889466 0.56985915
0.016863329 0.11845618 0.56794459
0.022183686 0.11902222 0.56604695
0.045406133 0.12048568 0.55344605
0.049486071 0.12060102 0.5505352
0.051826604 0.12105395 0.54984659
0.0077149812 0.11456464 0.54336071
0.0091805328 0.11470525 0.54233903
0.0072962437 0.1124715 0.5472337
0.011567639 0.1121933 0.54341358
0.014654221 0.11378723 0.54428095
0.031689059 0.11517256 0.53525972
0.032718245 0.11378194 0.53216416
0.037567653 0.11412881 0.53067136
0.0091782305 0.11219759 0.55156863
0.015379343 0.11192533 0.54977971
0.016424794 0.11265794 0.54658502
0.032721844 0.11376203 0.53782517
0.035804167 0.11283946 0.53860772
0.040609293 0.11417452 0.53411525
0.012011737 0.11362421 0.5547328
0.015212439 0.11322401 0.55216646
0.038070749 0.11467099 0.54001266
0.041662008 0.11541449 0.53851289
0.0093376152 0.10799626 0.54710555
0.011674505 0.10768706 0.54465503
0.034130163 0.10904647 0.53266448
0.037174623 0.11036111 0.53196996
0.010549402 0.1077054 0.54995817
0.014711602 0.10786206 0.54853457
0.015963659 0.10956347 0.54665679
0.033125047 0.11075846 0.53723645
0.035466105 0.10930584 0.53725934
0.03901238 0.10951975 0.53443956
0.013817901 0.10562724 0.55162477
0.038214229 0.10755026 0.53838843
0.039629392 0.10714568 0.53779233
0.010630667 0.1032844 0.54734558
0.012089672 0.10282528 0.54549158
0.034960438 0.10430226 0.53308535
0.010757707 0.10220248 0.55017364
0.015119433 0.1023645 0.5474304
0.034921758 0.10356561 0.53657866
0.039389469 0.10398142 0.53429908
0.012781472 0.10196558 0.55352503
0.015728287 0.10224493 0.55205357
0.038339332 0.10320242 0.54013813
0.041361772 0.10386557 0.53802305
0.012698688 0.098328635 0.5458554
0.035172131 0.10024551 0.53369576
0.010585163 0.097209349 0.55029762
0.014537549 0.097329639 0.54682022
0.017646432 0.096837491 0.54756749
0.034081787 0.09768223 0.53858006
0.035466008 0.098621413 0.53520536
0.040180728 0.098884054 0.53419304
0.012783764 0.097283229 0.55500787
0.017799523 0.098300382 0.55280882
0.019098684 0.096730813 0.55008334
0.035647526 0.097829722 0.54151887
0.038510509 0.09981668 0.54183155
0.043057866 0.099192783 0.53827125
0.01518691 0.095588528 0.55705422
0.017998073 0.095913194 0.55551922
0.040589649 0.097305804 0.54344535
0.043538 0.097801484 0.54161537
0.010336522 0.092313811 0.55036813
0.013995221 0.092599683 0.54632121
0.018123019 0.092586458 0.54674608
0.033576611 0.093703404 0.53842747
0.035628363 0.093946777 0.53476202
0.040813431 0.094010234 0.53381133
0.01155798 0.092247121 0.5556646
0.020567201 0.092811994 0.55005383
0.034994785 0.093843035 0.54231369
0.044735137 0.094289236 0.53758121
0.015409883 0.091935545 0.55884558
0.019660108 0.092498384 0.55739927
0.022298224 0.091543026 0.5545367
0.037942909 0.09321063 0.54584837
0.042069003 0.094062351 0.54542214
0.045514286 0.093801819 0.54246873
0.018730879 0.089994237 0.56061566
0.019652903 0.090023883 0.55991632
0.040277481 0.091207087 0.5482325
0.043617651 0.091710299 0.54699546
0.045972075 0.091800988 0.54549968
0.011177965 0.087474093 0.55034614
0.014757583 0.087646887 0.5471549
0.018588223 0.087984763 0.54712141
0.034161665 0.089090697 0.53858626
0.036422145 0.089046635 0.53561497
0.040892243 0.089315034 0.53435725
0.011252223 0.087361254 0.5555833
0.021251917 0.087513298 0.54991317
0.034945585 0.088445649 0.54244328
0.045118563 0.088973261 0.53698599
0.014088961 0.087187827 0.55977088
0.020929962 0.089889452 0.55880904
0.023275174 0.087512411 0.55413741
0.037401184 0.088493012 0.54652488
0.047344036 0.089461178 0.54183424
0.018177966 0.087103978 0.56273532
0.022365373 0.087267354 0.5613175
0.024230354 0.086892731 0.55827719
0.040528301 0.088108391 0.54953754
0.043973535 0.088596694 0.54972249
0.047830097 0.088729553 0.54657948
0.020880487 0.085431747 0.56563359
0.023028452 0.08574716 0.56474054
0.04659421 0.087376751 0.55185968
0.048914358 0.087144069 0.55029875
0.012757442 0.084120907 0.5510872
0.01570861 0.084165595 0.54903644
0.018716836 0.08468926 0.54832107
0.037796471 0.085557386 0.53728551
0.040738128 0.086131036 0.53574282
0.01352415 0.082727574 0.55460918
0.017541483 0.081751898 0.55176419
0.02075405 0.083612122 0.55062616
0.036197972 0.084782079 0.54193002
0.039461032 0.083246142 0.5399
0.043481171 0.084792286 0.53808135
0.014697252 0.0819721 0.55894887
0.019495895 0.080310695 0.55458069
0.023218123 0.083036549 0.5544309
0.03817901 0.083795987 0.54619521
0.041351397 0.081668176 0.54301047
0.046582624 0.083903998 0.5415982
0.017296342 0.082333431 0.56386888
0.024650076 0.083883129 0.56099409
0.024948921 0.082035981 0.55921829
0.041517682 0.083234347 0.5505591
0.042656496 0.085400522 0.55086464
0.049427662 0.084277369 0.5461219
0.020866122 0.082004905 0.56715113
0.025132976 0.082596563 0.56590056
0.026450641 0.081443302 0.5625928
0.043451384 0.08276581 0.5533905
0.046625763 0.084246211 0.55416238
0.05035504 0.083833709 0.55092227
0.024702743 0.080355532 0.56818533
0.04924608 0.082478739 0.55493242
0.050258338 0.082516052 0.5542326
0.017418435 0.077582747 0.55930406
0.020337524 0.077990517 0.55706036
0.023577059 0.077812582 0.55598378
0.039794657 0.078610033 0.54698515
0.042571098 0.079382211 0.54504049
0.0460237 0.079392351 0.54391891
0.017848944 0.077215657 0.56371349
0.02047658 0.077950075 0.55905384
0.025675114 0.07790979 0.55905122
0.041093603 0.078892618 0.55053604
0.043980516 0.079292588 0.54631871
0.049218014 0.079153039 0.54615039
0.021173188 0.077444658 0.56705046
0.025910072 0.077598251 0.56605172
0.027069103 0.077705376 0.56234521
0.043426946 0.078861274 0.55379486
0.047362164 0.078523137 0.55454779
0.050548322 0.079220772 0.55083835
0.024822636 0.079099812 0.56813496
0.048569709 0.080529086 0.55526179
0.050604172 0.08109469 0.55388427
0.013444073 0.071379073 0.53925806
0.01575895 0.071849763 0.53704911
0.019902501 0.071996346 0.53429145
0.024079688 0.072504364 0.53196824
0.028974622 0.072788328 0.53064108
0.031634368 0.071705274 0.52967858
0.013143508 0.070642978 0.54294872
0.030790709 0.072760694 0.53107536
0.034952566 0.072795108 0.53105342
0.038597856 0.072216727 0.53144205
0.012772525 0.070171423 0.54643267
0.038190372 0.072064191 0.53265077
0.040017162 0.071933709 0.53267306
0.016415762 0.070680261 0.55462885
0.018081356 0.072023548 0.55265594
0.022351775 0.07184229 0.55072302
0.036999453 0.072922237 0.54304761
0.040687218 0.073066644 0.54032528
0.043290451 0.072299041 0.54017323
0.017015966 0.0721891 0.55811554
0.019147951 0.074254796 0.5546357
0.025305664 0.072745271 0.55339319
0.037104249 0.07343518 0.54719526
0.041698363 0.075403206 0.54246092
0.045793697 0.073910311 0.54265946
0.018305367 0.072203659 0.56320536
0.027129268 0.073013939 0.55826735
0.039897092 0.073439933 0.55099386
0.049216449 0.073919661 0.54615557
0.021115839 0.072791956 0.56525981
0.024702946 0.072585508 0.56430638
0.027376056 0.072306886 0.56193197
0.043350078 0.073475987 0.55351061
0.046899334 0.074041381 0.5524919
0.049705729 0.074403211 0.54973704
0.012363127 0.067337856 0.5393523
0.01530935 0.068093114 0.53619504
0.019548342 0.068261921 0.53318578
0.023943223 0.068768084 0.53144652
0.02873265 0.068750985 0.52924377
0.031849146 0.068206832 0.52880424
0.011924943 0.067670405 0.54582936
0.012813551 0.068037339 0.5425418
0.016334455 0.067142025 0.53990006
0.021435782 0.067003965 0.53617305
0.025553482 0.06738542 0.53401333
0.03093265 0.068556502 0.53333622
0.034995403 0.06948483 0.53037477
0.038865097 0.06879206 0.5310747
0.01262767 0.068103082 0.54868323
0.016112877 0.067442492 0.54733324
0.020373305 0.066738993 0.54581261
0.023298627 0.065642878 0.5448491
0.034090057 0.067448035 0.53800017
0.037389819 0.069053531 0.53566217
0.041233949 0.069321744 0.53315026
0.014823793 0.067014977 0.55377144
0.016718514 0.068857886 0.55053818
0.022413841 0.069226302 0.54836464
0.025663693 0.067537323 0.54822123
0.033171169 0.068033114 0.54393756
0.034904212 0.069846906 0.54161215
0.040206984 0.070043497 0.53782284
0.044204235 0.069199674 0.53796744
0.01608349 0.06663391 0.55776823
0.027197408 0.06814447 0.55389619
0.026850805 0.068082243 0.55127674
0.035124145 0.068375036 0.54685676
0.036999539 0.068581425 0.54861158
0.046693504 0.068479285 0.54136729
0.019415295 0.067476787 0.56246203
0.0233177 0.066505626 0.56201202
0.027145537 0.067903191 0.55819088
0.040407982 0.068583637 0.55077589
0.046224959 0.067741826 0.54962653
0.048651211 0.069292247 0.54664218
0.025204029 0.068777703 0.56284654
0.027076902 0.069459207 0.56150931
0.043627761 0.069614105 0.55257386
0.045830533 0.069945447 0.55174696
0.048749905 0.070795767 0.5493716
0.012367472 0.062767133 0.53909504
0.014937526 0.062936358 0.53504276
0.019049564 0.063101113 0.5319249
0.023392126 0.063729316 0.53005344
0.028181199 0.064052105 0.5282346
0.032908965 0.063941091 0.52803409
0.010965941 0.061986517 0.54467201
0.011287758 0.062674917 0.54213434
0.018734585 0.063187659 0.54091775
0.021866268 0.062516011 0.53782862
0.026539594 0.063502826 0.53522903
0.030732965 0.063201234 0.53527725
0.036156945 0.064249747 0.52908772
0.039022863 0.063834876 0.53012496
0.012162106 0.061721012 0.54928964
0.01706728 0.06508109 0.54415959
0.020245314 0.064122885 0.54319841
0.02396895 0.063240081 0.54362208
0.03079549 0.063688628 0.54015929
0.032527342 0.064959958 0.53658926
0.041670538 0.064005151 0.53250456
0.013746628 0.062408119 0.55416548
0.026022023 0.063714772 0.54691809
0.032556612 0.06389007 0.54378104
0.045277029 0.063864455 0.53658921
0.016240362 0.062996075 0.55885524
0.026988298 0.062629551 0.55326939
0.029327115 0.062739387 0.55207741
0.034125265 0.063007936 0.54942405
0.037437964 0.063350141 0.5477677
0.047630452 0.064211845 0.541179
0.019406606 0.062675782 0.56170332
0.023238987 0.062618405 0.56051683
0.027326491 0.06353496 0.55751735
0.031751093 0.063669547 0.55503565
0.03574653 0.063777372 0.55190104
0.041066598 0.063905105 0.55042076
0.045630433 0.063874416 0.54861993
0.048001513 0.064857051 0.54522747
0.019357502 0.058269985 0.53061378
0.022660684 0.0569987 0.52884835
0.01264073 0.057634771 0.53871542
0.01515275 0.057721622 0.53459942
0.018698979 0.058249645 0.53179353
0.023285091 0.059128512 0.52943933
0.028809851 0.058269169 0.52710271
0.033395942 0.058986951 0.52712828
0.011433585 0.057477824 0.54469204
0.011613788 0.057300881 0.54209411
0.020746125 0.06004985 0.54044712
0.023345457 0.058065381 0.53900975
0.027482856 0.058571629 0.53685427
0.036449783 0.059351154 0.52813721
0.039015565 0.05874835 0.52938497
0.01242356 0.057665415 0.54858637
0.024614112 0.05806455 0.54235166
0.02960193 0.058181655 0.53924257
0.042295519 0.059056252 0.53244311
0.014634896 0.057106148 0.55359143
0.026109846 0.057447486 0.54703897
0.032839537 0.058292519 0.54317462
0.035017651 0.056464273 0.54461557
0.045595467 0.059306055 0.53684819
0.017027274 0.057679698 0.55752558
0.021360457 0.05594049 0.55768067
0.026231756 0.058096245 0.55194545
0.03026705 0.057996739 0.55070609
0.034691684 0.058390863 0.54918242
0.036601521 0.058767356 0.54623812
0.045389622 0.057527952 0.54383713
0.046876244 0.059379522 0.54119444
0.02004401 0.058859706 0.55972373
0.022764754 0.058436383 0.55842197
0.02716413 0.058307897 0.55605745
0.030679887 0.058543369 0.55389643
0.03514345 0.05895327 0.55100721
0.040341102 0.05897738 0.5493899
0.043984272 0.059180986 0.54666805
0.046794888 0.060836341 0.54529679
0.016275156 0.050851971 0.53196323
0.019140758 0.052634832 0.53050238
0.02237856 0.052776594 0.52878964
0.026153494 0.051736843 0.52693492
0.012979905 0.052391198 0.53813756
0.015021386 0.053172879 0.53480273
0.01928312 0.053192079 0.53125143
0.024774911 0.052876342 0.52829254
0.028480645 0.053853855 0.52703595
0.033577647 0.054059919 0.52700144
0.012150217 0.052382324 0.54508245
0.012213726 0.052186757 0.54226667
0.036821567 0.053740431 0.52802497
0.039152905 0.054185107 0.52967614
0.013514206 0.052375928 0.54842031
0.026168415 0.053910892 0.54203528
0.029203316 0.054137833 0.540555
0.041985273 0.054022614 0.53283769
0.015814312 0.052199084 0.55249345
0.018148631 0.05082335 0.55412614
0.02744945 0.053690355 0.54650927
0.031999506 0.053963352 0.54374659
0.04443863 0.053734373 0.53731108
0.01800824 0.053604506 0.55592251
0.021120876 0.052388545 0.55596298
0.026316045 0.052795131 0.55483007
0.031037798 0.052928932 0.55188543
0.035394829 0.053128351 0.55023909
0.039920207 0.0524932 0.54723233
0.043530304 0.053335376 0.54387248
0.045705914 0.054729156 0.54107833
0.026539674 0.05374825 0.55589163
0.030502118 0.053714033 0.55366981
0.03626366 0.052894652 0.55030775
0.040084884 0.054725885 0.54855454
0.042640846 0.055398125 0.54673129
0.011940699 0.047215622 0.5344125
0.014438462 0.04783288 0.53206432
0.018270848 0.048261367 0.52904594
0.022891598 0.048647594 0.52690572
0.027405508 0.048659887 0.52509016
0.03061156 0.048893526 0.52414751
0.011667427 0.047800265 0.53774709
0.013519702 0.048857938 0.53438419
0.024405699 0.050915442 0.52814287
0.029243011 0.050637919 0.52601951
0.033859521 0.049223684 0.52566975
0.011764929 0.047316525 0.54419506
0.012115626 0.048082594 0.54257673
0.037149925 0.050854407 0.5287925
0.03906874 0.048753139 0.52897829
0.01389698 0.047426507 0.54811901
0.041704327 0.049431596 0.53311759
0.015834445 0.047658861 0.55096388
0.018268641 0.047103349 0.55236012
0.042647272 0.04839744 0.53933394
0.043167416 0.049615234 0.53647923
0.021954317 0.047463853 0.55383718
0.026040919 0.04773071 0.55365378
0.030564217 0.04862269 0.55243993
0.035709102 0.049187385 0.54965448
0.039683983 0.048389759 0.54630941
0.042047385 0.049157407 0.54285902
0.032218575 0.046710219 0.55268729
0.035916641 0.047368363 0.55065966
0.038626552 0.047095183 0.54889214
0.015161005 0.04405088 0.53200507
0.018976783 0.043304715 0.52946007
0.023065152 0.04357107 0.52695119
0.027306164 0.044711024 0.52546251
0.013018776 0.043335762 0.53832138
0.015263495 0.042329002 0.53463203
0.018187679 0.04129545 0.53163308
0.025781306 0.041717507 0.52745849
0.029373685 0.04320832 0.52656883
0.033602361 0.044194143 0.52689135
0.037114583 0.046234384 0.52645576
0.012113746 0.043853503 0.54380614
0.014020442 0.042331245 0.54198974
0.036273107 0.042850781 0.52948189
0.039197326 0.045371965 0.52906173
0.014450929 0.044190377 0.54789722
0.016139524 0.041465826 0.54668552
0.039511964 0.042573143 0.53422958
0.040954426 0.045294601 0.53242284
0.015934151 0.04393236 0.55035263
0.019002352 0.042410251 0.55088854
0.023630124 0.04138523 0.55033553
0.038685855 0.042156685 0.54215086
0.041457415 0.043151382 0.53859234
0.042952389 0.046167064 0.5362134
0.022010475 0.043325834 0.55343181
0.026166748 0.043348625 0.55275029
0.030503284 0.043221474 0.55065161
0.035119422 0.043456197 0.54808944
0.039137676 0.043932088 0.54578954
0.042110872 0.044205241 0.54255325
0.031384025 0.04509173 0.55313218
0.035972897 0.045450024 0.55056596
0.038950175 0.045701209 0.54860711
0.055957682 0.040429018 0.59551746
0.059260815 0.040927637 0.59363896
0.057788268 0.040799569 0.59839821
0.060852185 0.041169249 0.59649307
0.060020968 0.040662095 0.60046542
0.061666146 0.040937297 0.59963286
0.020498997 0.038381346 0.52909988
0.022668241 0.038853914 0.52781838
0.014934611 0.039645169 0.53844208
0.016684882 0.037987527 0.53536624
0.018875595 0.038151518 0.53177226
0.025771663 0.038179968 0.52797985
0.029484 0.038777318 0.52800137
0.033186883 0.039735466 0.52844542
0.015991325 0.038663629 0.54138535
0.017136529 0.036099449 0.53995883
0.033933859 0.037181657 0.53075308
0.035385199 0.039624773 0.53079647
0.018026799 0.039155617 0.54551828
0.020615239 0.036667101 0.54482865
0.036093563 0.0377234 0.53638291
0.037608434 0.040135927 0.53469485
0.020136844 0.039898708 0.54838639
0.023960318 0.03811568 0.54807639
0.029444456 0.036479115 0.54731798
0.03356652 0.036675699 0.54513693
0.036766544 0.038828161 0.54096049
0.038978189 0.041034486 0.53859991
0.026788443 0.039749324 0.54998863
0.029929752 0.039084755 0.54879612
0.033836104 0.039047416 0.54653263
0.037004963 0.04052202 0.54436529
0.027305653 0.035076238 0.57173115
0.028090348 0.034943469 0.57105589
0.054080509 0.036452718 0.55683899
0.055044316 0.036737356 0.55635846
0.02829841 0.035353702 0.5739038
0.031289287 0.035480782 0.57309937
0.052329209 0.03631483 0.56358498
0.054161772 0.0368605 0.56047803
0.056413941 0.037039943 0.5585525
0.030773245 0.035093434 0.57683557
0.034197178 0.035676025 0.57660311
0.037265934 0.035757117 0.57566708
0.053095646 0.036728948 0.56699538
0.055588998 0.036962815 0.56494188
0.057543725 0.036727995 0.5620414
0.037055489 0.035514027 0.57981563
0.040827572 0.035977192 0.57900435
0.0440358 0.035705369 0.57927758
0.052315652 0.035834558 0.57427698
0.0540445 0.036832366 0.5717901
0.056766175 0.036814861 0.56911755
0.044285022 0.035938077 0.58173561
0.047071252 0.036569722 0.58154356
0.052776746 0.036802735 0.57847542
0.054806381 0.036605015 0.57568246
0.047802225 0.035542302 0.58687139
0.050092369 0.036711115 0.58504653
0.054086689 0.036672357 0.58251381
0.056842197 0.036082134 0.58153248
0.04910228 0.035327554 0.58886504
0.052201852 0.037125707 0.58982038
0.05676448 0.037104353 0.58763093
0.058124304 0.036158897 0.58415639
0.055364043 0.037806626 0.59398353
0.058663327 0.037863951 0.59210694
0.057468042 0.039515134 0.59775794
0.060524866 0.039804384 0.59621906
0.059756003 0.039684702 0.60058343
0.06174159 0.040030401 0.59946281
0.020820148 0.033148699 0.52925146
0.022831868 0.033485241 0.52803499
0.018034445 0.033023648 0.5356943
0.019733181 0.033214025 0.53190327
0.026089638 0.033360906 0.52860236
0.029679114 0.034033597 0.52904928
0.017395707 0.031000027 0.54224336
0.017852176 0.032506961 0.53959262
0.033415128 0.033736669 0.53104264
0.035811272 0.032265808 0.53218812
0.018714983 0.031375881 0.54548979
0.020781092 0.033778846 0.5446561
0.03602092 0.034633175 0.53630424
0.037943982 0.032536495 0.53499085
0.020654477 0.03144744 0.54756117
0.024304828 0.032679535 0.5475862
0.027963296 0.034356032 0.54788399
0.035082869 0.034900725 0.54400426
0.036718424 0.033444479 0.54092485
0.038668063 0.032469317 0.53762734
0.026720868 0.031066375 0.54996115
0.030300852 0.032939941 0.54878968
0.034531862 0.033413209 0.54636395
0.037453122 0.031742658 0.54418951
0.025623426 0.031905651 0.57090902
0.0288206 0.032861322 0.5701654
0.053098053 0.034233041 0.55679548
0.055643141 0.033743538 0.55439645
0.026973067 0.03247869 0.5752331
0.031963646 0.032952867 0.57112956
0.035535403 0.032229289 0.57152689
0.050904017 0.033213429 0.56288439
0.052374646 0.034283616 0.55968773
0.058443911 0.034350686 0.55783904
0.030660536 0.031801008 0.57862985
0.033307694 0.033860579 0.57924479
0.038881976 0.032994464 0.57393593
0.050834738 0.033655975 0.5674665
0.05847339 0.035357654 0.56524438
0.059521563 0.03348387 0.56278461
0.033292793 0.030569097 0.58042884
0.036444377 0.032036841 0.58128637
0.041628398 0.033848811 0.5769819
0.044137977 0.032965705 0.57787889
0.051401705 0.033391371 0.57359362
0.051857784 0.034941152 0.57125616
0.058751933 0.033615366 0.56892413
0.059735678 0.03242328 0.56577158
0.039793164 0.031441614 0.58252549
0.043524504 0.032683615 0.5832718
0.048578784 0.033024885 0.58034211
0.051198695 0.033317588 0.57862955
0.056908786 0.033544336 0.57613301
0.058127418 0.033004843 0.57264048
0.047069978 0.032576025 0.58695132
0.05188477 0.032429446 0.58335632
0.052368008 0.032370314 0.58359742
0.057969477 0.033320636 0.58092332
0.049435876 0.032149844 0.59113336
0.053439308 0.033212394 0.58948147
0.056231134 0.03314013 0.58811319
0.060001999 0.032929599 0.5852201
0.051897131 0.03177312 0.59523624
0.05537346 0.03380606 0.59389317
0.058507107 0.033239894 0.5920881
0.062225364 0.032711424 0.58988565
0.054108266 0.031471506 0.59764242
0.057706382 0.032413568 0.59836477
0.061682388 0.033045426 0.59626955
0.063599102 0.032420076 0.59295011
0.060261667 0.032406881 0.60230285
0.063588209 0.033230469 0.60048932
0.062243253 0.032279409 0.60577124
0.065645553 0.033172272 0.60398066
0.02084958 0.028101426 0.52899772
0.023386154 0.028423024 0.527686
0.015364379 0.026314517 0.53776073
0.018059071 0.027904037 0.53501731
0.019658074 0.028679853 0.53212643
0.026292985 0.02911989 0.52835387
0.030079922 0.028639887 0.52852571
0.033861645 0.027725998 0.52780074
0.016086016 0.027398087 0.54102015
0.017343633 0.029626207 0.53822738
0.032590777 0.030584639 0.52973062
0.035893351 0.028649192 0.53009003
0.018217435 0.028119214 0.54586977
0.020822775 0.030139849 0.54690802
0.038152594 0.031100368 0.5371843
0.038907025 0.029172812 0.53441685
0.020948429 0.027136043 0.54916668
0.023431096 0.028882597 0.54957008
0.039160583 0.029835453 0.5410316
0.040207282 0.028287588 0.53852117
0.026406089 0.027480766 0.55148041
0.031199455 0.028574821 0.55063945
0.035891585 0.028992582 0.54803067
0.039338306 0.028473392 0.54424644
0.03244349 0.025961615 0.55215877
0.036300946 0.026589602 0.54987526
0.020996697 0.024701551 0.56907153
0.022860849 0.025842693 0.56730574
0.052080985 0.026816254 0.55220014
0.054399915 0.027712055 0.55017614
0.056903645 0.026878539 0.54932636
0.02215096 0.025320632 0.57200289
0.023950603 0.027616655 0.56999195
0.029378315 0.027142504 0.56876695
0.052172374 0.028417325 0.55584383
0.056153543 0.029513437 0.55242628
0.058871366 0.027577853 0.55176884
0.02414017 0.026385335 0.57453817
0.027637649 0.027161468 0.57535362
0.032436203 0.027025267 0.57235128
0.035386365 0.028718514 0.57206708
0.051583596 0.02963043 0.56318665
0.053771239 0.028233955 0.56059188
0.058886245 0.029161198 0.55813813
0.059979498 0.028362349 0.55475265
0.030580157 0.028191557 0.57877344
0.034019563 0.026450457 0.57618189
0.038460564 0.028302718 0.57464451
0.052183941 0.029106284 0.56754851
0.056190588 0.0277831 0.5640837
0.060023099 0.030013796 0.56258953
0.033174358 0.028701982 0.58035332
0.036721665 0.028118728 0.58061272
0.040940426 0.027865689 0.57880336
0.044550441 0.02974836 0.57863766
0.052089997 0.030190971 0.57364142
0.05430492 0.028711999 0.57139945
0.058337472 0.029462634 0.56877542
0.059953354 0.030731969 0.56560731
0.04422614 0.029034257 0.58232182
0.04761542 0.02850752 0.5815835
0.053056888 0.028987702 0.57849061
0.055773128 0.029658386 0.57660866
0.057862081 0.030620242 0.5727827
0.047272272 0.027623802 0.58665603
0.051451307 0.028266868 0.58328897
0.052673712 0.028373769 0.58270019
0.058300287 0.028080089 0.58062768
0.04972332 0.0276307 0.59105563
0.05454956 0.027978813 0.58897996
0.055877589 0.02807525 0.58797812
0.060731411 0.028219355 0.58492541
0.051951155 0.027731756 0.59403968
0.054473463 0.027987873 0.59458709
0.057847992 0.027569717 0.59224731
0.062480181 0.028400991 0.58934057
0.057232052 0.027861724 0.59687608
0.061810143 0.027941562 0.59465557
0.063548028 0.026526807 0.59257239
0.020519514 0.023176145 0.52921981
0.023899907 0.023380931 0.52718395
0.015630953 0.022840202 0.53746176
0.017008897 0.022897387 0.53450942
0.018851083 0.023873657 0.53146726
0.026801283 0.024209747 0.52698696
0.030545255 0.023673644 0.5271641
0.033843663 0.024008915 0.52768719
0.015805315 0.02271984 0.54072624
0.03359374 0.02586766 0.52857417
0.036300294 0.024085805 0.52950943
0.016798068 0.022787908 0.54616159
0.040131308 0.023931501 0.53296679
0.017656911 0.020481504 0.55117518
0.019907463 0.022989152 0.55098033
0.04277838 0.02434 0.53827661
0.044639193 0.022107707 0.53716648
0.023407891 0.021761294 0.55349046
0.026589626 0.024092406 0.55347186
0.041207742 0.025134379 0.54521817
0.043004714 0.023133889 0.54263413
0.01882945 0.020290758 0.56456053
0.020733478 0.02134474 0.56305456
0.025940843 0.020502621 0.55569041
0.029056819 0.022094809 0.55618668
0.034177404 0.023029104 0.55403632
0.038070634 0.023456354 0.55185729
0.042336959 0.022971671 0.54891616
0.046722189 0.021826386 0.54695338
0.052193038 0.022928353 0.54596573
0.054708607 0.022152977 0.54527307
0.019406948 0.02206891 0.56822264
0.022238277 0.023545926 0.56520391
0.026707012 0.02167026 0.56427515
0.032344718 0.020553906 0.55773103
0.042408258 0.021020435 0.55242586
0.050192036 0.023226788 0.55142897
0.053483613 0.025189845 0.54778612
0.057281021 0.02431971 0.54749358
0.021344785 0.022434514 0.57168025
0.025255619 0.02097971 0.57220668
0.030260541 0.022804279 0.56730163
0.050745137 0.023912583 0.5558247
0.05791983 0.022893166 0.55410993
0.059279323 0.024855373 0.55082601
0.024086347 0.023933375 0.57407904
0.028142229 0.022722222 0.5734424
0.031361282 0.022763476 0.57154262
0.054129835 0.024000531 0.55909503
0.057381816 0.024869878 0.55761403
0.05988203 0.026266087 0.55445582
0.048140593 0.02317192 0.58706301
0.050393403 0.022649175 0.58428472
0.054511227 0.022892121 0.58233911
0.058552526 0.023861546 0.58143318
0.049692526 0.02278058 0.58873397
0.052875575 0.022783643 0.59022522
0.057298355 0.022811057 0.58845633
0.060063675 0.023412041 0.58512783
0.05280875 0.024633165 0.59451419
0.055157766 0.022391275 0.59337097
0.059424367 0.023136919 0.5908218
0.0625218 0.024405491 0.58954066
0.057865314 0.022746826 0.59792954
0.062437296 0.023504194 0.59591568
0.06448672 0.024413629 0.59377652
0.060512282 0.021919651 0.60191393
0.064675353 0.022808667 0.59999418
0.062739484 0.021315549 0.60584229
0.066776142 0.021895651 0.60386103
0.02057755 0.018625468 0.5287053
0.024241639 0.018867642 0.52649188
0.016256444 0.018716078 0.53771257
0.0173756 0.018024091 0.53470063
0.019605022 0.01812654 0.531268
0.026890857 0.018279139 0.52714723
0.030837188 0.018742882 0.52734798
0.034009609 0.018525826 0.52813715
0.01349401 0.01631669 0.54430437
0.015849125 0.017630417 0.54087526
0.033954076 0.016641099 0.52822298
0.036851384 0.018977635 0.52934831
0.041188203 0.017905131 0.5291481
0.014017669 0.016738135 0.54783261
0.015776373 0.019263135 0.54565436
0.040909007 0.020817012 0.53212678
0.043700159 0.018522216 0.53138655
0.01674304 0.017480999 0.55192178
0.045619465 0.019272856 0.53586656
0.016256317 0.015053723 0.56037503
0.019667435 0.015775561 0.55676323
0.022812614 0.017384395 0.55486852
0.045171227 0.018657681 0.5426001
0.04847667 0.017503249 0.54068476
0.052977458 0.01720934 0.53997034
0.016907405 0.016577937 0.56377435
0.020552153 0.018377878 0.5604198
0.025308784 0.017021155 0.55850273
0.027960945 0.01921745 0.55763251
0.036554076 0.018803427 0.55493981
0.037455127 0.018373441 0.5543142
0.044626504 0.019989351 0.54852623
0.046875808 0.018492578 0.54670203
0.051179282 0.019972324 0.54354507
0.055476934 0.018907506 0.54250628
0.019220721 0.017113345 0.5676356
0.027228547 0.017203491 0.56312001
0.031267986 0.017353408 0.55940795
0.035301596 0.01744017 0.55672729
0.040131561 0.017876664 0.5541963
0.044795223 0.018596385 0.55207163
0.049362361 0.018657215 0.55096745
0.057432782 0.019650672 0.54656535
0.022077484 0.016964737 0.56996822
0.02564925 0.017057015 0.56991029
0.029545678 0.017556604 0.56789792
0.052303538 0.018705677 0.55529135
0.056291908 0.019171551 0.55308449
0.058037587 0.019284144 0.54995042
0.028475855 0.019520445 0.57161552
0.030161098 0.019177686 0.57073826
0.042996332 0.016009614 0.56831384
0.045196492 0.016232595 0.56724119
0.054231942 0.020424437 0.5574066
0.05599279 0.021176133 0.55650949
0.043651652 0.016998973 0.57266027
0.04783418 0.017189678 0.57041764
0.045433573 0.016863476 0.57448667
0.048692331 0.01690824 0.57245088
0.049191512 0.019835953 0.58771336
0.051069282 0.018252775 0.58621103
0.055960409 0.018945839 0.58361655
0.058343038 0.020038128 0.58284897
0.04986497 0.019331671 0.5885725
0.053506494 0.01757149 0.58903313
0.057540439 0.017719146 0.58694696
0.059459217 0.019890221 0.58461702
0.056102641 0.015973365 0.59096408
0.05907565 0.016726498 0.58930945
0.060829327 0.019533968 0.60290915
0.066250138 0.020329546 0.60177678
0.062856212 0.018963071 0.60588861
0.066896491 0.020040326 0.60400367
0.021731518 0.015079079 0.52833146
0.023864098 0.015143579 0.52711225
0.018524893 0.013869404 0.53500473
0.021672852 0.01325193 0.53171259
0.02635139 0.013323655 0.52884924
0.031036109 0.014567585 0.52827555
0.014045414 0.014341101 0.54409093
0.015827218 0.012819402 0.54138672
0.018351234 0.01207659 0.53776664
0.033761006 0.013132855 0.5294953
0.037787464 0.014213496 0.52938873
0.040666036 0.016179036 0.52915359
0.014882863 0.012728457 0.54784036
0.016080588 0.011177464 0.54544121
0.041241787 0.012857129 0.53163952
0.043744624 0.014609555 0.53201681
0.014756867 0.0099194404 0.55489916
0.014805486 0.011817398 0.55234855
0.047693666 0.013954519 0.53438741
0.050087593 0.012381177 0.53571284
0.015324718 0.011528673 0.55942273
0.017562609 0.013384247 0.55639839
0.02394269 0.014842472 0.55607945
0.045575112 0.01615295 0.54431397
0.049281981 0.015489528 0.53885442
0.053099561 0.013932328 0.53832811
0.015851764 0.011967535 0.56394809
0.025625339 0.013942199 0.55811417
0.037952237 0.012313044 0.55451387
0.046579588 0.015135096 0.54677659
0.056818455 0.014632641 0.54130036
0.01887616 0.011903702 0.56780946
0.028779814 0.013216545 0.56273377
0.031786948 0.01244109 0.56010091
0.036192767 0.01299851 0.55711383
0.040401213 0.013262842 0.55498046
0.045249112 0.013196595 0.55302519
0.048616458 0.014473567 0.55153847
0.058632448 0.014513707 0.54618973
0.022038395 0.012323621 0.56985086
0.025190992 0.01220369 0.56915623
0.028345803 0.012818616 0.56674552
0.040562838 0.011111845 0.56400704
0.043323111 0.011456903 0.56239265
0.052544482 0.014431033 0.55348945
0.05621969 0.014114046 0.55203497
0.058466222 0.014511411 0.5497542
0.039327327 0.012103501 0.56967974
0.040911268 0.012736373 0.56652915
0.045640722 0.013108833 0.56440634
0.048977215 0.011575172 0.56471848
0.040403597 0.012703227 0.57311076
0.041951574 0.014690909 0.57270247
0.049288411 0.014676438 0.56829762
0.051375873 0.012302125 0.56723452
0.042000316 0.011796471 0.57848084
0.046020404 0.013580132 0.5766356
0.050820015 0.013843238 0.57384866
0.054635808 0.012734114 0.57131261
0.04449578 0.010568767 0.57969022
0.048584644 0.011840093 0.57838517
0.051917057 0.011824764 0.57623857
0.054722898 0.011925112 0.57405853
0.054478481 0.013749881 0.58944404
0.057968866 0.013885818 0.58751333
0.056481712 0.012510542 0.59270573
0.059808418 0.013036231 0.59107697
0.058637716 0.011422985 0.59515196
0.061703682 0.011794001 0.59376711
0.024073616 0.0094132246 0.53279084
0.026634892 0.0093615614 0.53099781
0.017568128 0.0084859179 0.54156214
0.020249382 0.0079511199 0.53884673
0.02365867 0.0075481734 0.5351516
0.029311843 0.0075648436 0.53191209
0.033674687 0.0087886434 0.53144354
0.03735248 0.009706676 0.5307619
0.016529944 0.0088963611 0.54850876
0.017842468 0.0074953176 0.54536778
0.020517413 0.0056738527 0.5418278
0.03636181 0.0066763875 0.53324968
0.040516991 0.0088205636 0.53299838
0.043693859 0.010661036 0.53356892
0.014733821 0.0083374241 0.55508673
0.015994776 0.0074431435 0.55188167
0.018093839 0.0058888705 0.54845691
0.043541331 0.0076521253 0.5347383
0.046975069 0.0093849245 0.53480256
0.050518408 0.010384176 0.53553307
0.015694678 0.0080553042 0.55818737
0.018275825 0.0058154659 0.55710232
0.05047074 0.0077371984 0.53948838
0.052528366 0.010364873 0.53776354
0.017529663 0.0070589008 0.5631699
0.020327905 0.0051507079 0.55961311
0.02687729 0.00557617 0.55991107
0.031062767 0.0070306603 0.55651641
0.033339951 0.0072218562 0.55646753
0.04208903 0.0077917422 0.5521003
0.04325521 0.0076076221 0.55018467
0.048643015 0.0067824619 0.54804891
0.05192358 0.0071020639 0.54251128
0.055872165 0.0093515366 0.54216284
0.020149618 0.0072957301 0.56679541
0.024086563 0.0057880566 0.56601322
0.028133778 0.007005618 0.5629288
0.031462777 0.0093273725 0.55934274
0.036152016 0.008623302 0.55840147
0.041973189 0.0088867666 0.55570316
0.044761226 0.0098669119 0.55197483
0.050149824 0.0083044311 0.55093712
0.054908581 0.0077668219 0.54903048
0.057486139 0.0094977906 0.54611284
0.022450691 0.0095345993 0.56900251
0.025082234 0.0084594786 0.56781733
0.027884586 0.0088659953 0.56630862
0.037348129 0.006111322 0.56523997
0.039119452 0.0079969838 0.56243414
0.043478444 0.008230282 0.55987138
0.0468296 0.0067979204 0.56008166
0.052619718 0.010508207 0.5526188
0.055660799 0.010353353 0.55094117
0.03812407 0.0074433135 0.56885874
0.039166141 0.0089209778 0.56605726
0.046241701 0.0093284938 0.56242681
0.049299356 0.0079785343 0.56287867
0.038843807 0.007655099 0.57402158
0.05274979 0.0085798232 0.56650335
0.039549865 0.0087009128 0.57880032
0.040404461 0.0080422312 0.57853442
0.055406082 0.009060123 0.57071495
0.044583485 0.0075470963 0.58058029
0.049107045 0.0078849299 0.58062482
0.053443372 0.0080301855 0.57788336
0.055237189 0.0087048244 0.5744729
0.057488706 0.0093939826 0.59328282
0.060199186 0.0096114865 0.59217978
0.058513016 0.0087764766 0.59520495
0.061705098 0.0092171412 0.59382993
0.023301566 0.0054877093 0.53954613
0.025840521 0.0054032975 0.53564221
0.028652068 0.0055147554 0.53380698
0.032501407 0.0060949647 0.53392565
0.019859381 0.0046342607 0.54573935
0.0228734 0.0040718773 0.54303068
0.027618015 0.0031258306 0.54005617
0.031757455 0.0031262885 0.53787845
0.036354013 0.0049999366 0.5356614
0.040058736 0.0057039526 0.53492367
0.018364646 0.003755223 0.55243933
0.020828648 0.0031642285 0.54966855
0.025329707 0.0020993913 0.54719883
0.029785167 0.0015558735 0.544442
0.034038328 0.0016505169 0.54214972
0.038708847 0.0030493254 0.53989166
0.042907625 0.0045177205 0.53761774
0.046778608 0.0055002798 0.53692698
0.019789889 0.0036327662 0.55511189
0.023444213 0.0021457118 0.55364454
0.026692977 0.00085286656 0.55163985
0.033482488 0.00080931606 0.54668725
0.033891998 0.00090018427 0.54525113
0.041420154 0.0017199302 0.5433718
0.045287587 0.0035534792 0.54166645
0.048434339 0.0054388 0.53951138
0.019877993 0.0044734105 0.56375527
0.021823991 0.0043939878 0.56084502
0.02561813 0.0034894105 0.55832714
0.030681917 0.002814176 0.55628592
0.033406232 0.00061385799 0.55572176
0.041433219 0.0011168309 0.55154788
0.043703306 0.0033708762 0.54908335
0.047788084 0.0047592521 0.54632622
0.05142124 0.0061576888 0.54444182
0.055262856 0.0066978182 0.54445237
0.020495709 0.0046144235 0.56493789
0.022654166 0.0043362412 0.56443733
0.033748958 0.0031498445 0.55780315
0.03559104 0.0022358557 0.55894053
0.04267114 0.0022542067 0.55485636
0.043236349 0.0036344924 0.55269647
0.054597631 0.0064708376 0.54675198
0.036879092 0.0023961323 0.56401885
0.03676939 0.00326051 0.56207746
0.045202557 0.0045436444 0.55810028
0.046623014 0.0028517053 0.55850607
0.037154872 0.0025620135 0.57012278
0.051255729 0.003742558 0.56230485
0.038508013 0.001953071 0.5732339
0.053262882 0.0032071816 0.56516528
0.041792348 0.0025260025 0.57778567
0.055068303 0.0035072118 0.5706746
0.045031026 0.0027021496 0.58140892
0.049202666 0.0028408463 0.5819692
0.055123419 0.0032104587 0.57846683
0.056533195 0.0031934825 0.57502663
0.051286064 0.0023386644 0.58147323
0.053487271 0.0027343445 0.58025181
0.030748278 0.00051882444 0.54644948
0.035399567 0.00083697587 0.54397714
0.029049199 0.00023534428 0.55086559
0.031905282 0.00027616229 0.54913026
0.036960542 0.00059626903 0.54639119
0.040150605 0.00093285227 0.54512179
0.030674523 0.00021604262 0.55337274
0.034960881 0.00031919032 0.55307227
0.038578309 0.00055241678 0.55102152
0.041167036 0.00087211188 0.54767644
0.037394799 -0.00018185843 0.55771816
0.041263182 -6.6852197e-05 0.55591607
0.037199203 -0.0015629642 0.56430304
0.038537465 -0.0023308108 0.56131697
0.043802634 -0.0017424882 0.55824178
0.04719156 -0.00093560666 0.5589425
0.036538098 -0.0038736975 0.57212651
0.037338547 -0.0020596581 0.57006443
0.05161177 -0.0009548869 0.56200802
0.054163501 -0.0015037297 0.56235188
0.036769986 -0.0030903295 0.5725618
0.038938247 -0.0020564785 0.57320553
0.053736683 -0.00097051263 0.56516272
0.054534212 -0.0013549058 0.5628854
0.042747874 -0.0023404974 0.57745326
0.055063557 -0.0013333373 0.57059431
0.045506187 -0.0021847924 0.58096993
0.049885973 -0.0021521077 0.58120644
0.054588877 -0.0019090893 0.57851028
0.056453764 -0.0016741133 0.57477689
0.050975718 0.0002768212 0.5815053
0.053134955 0.00030837208 0.58033067
0.040895671 -0.0056933807 0.56292766
0.044468954 -0.0053826021 0.56099057
0.039450314 -0.0065507991 0.56875879
0.0418326 -0.0080748266 0.56595343
0.046784945 -0.0076119769 0.56312186
0.050116263 -0.0058029788 0.56278861
0.040698152 -0.0072086742 0.57275993
0.049586192 -0.0090629021 0.5650956
0.053163543 -0.0063681379 0.56603205
0.043631226 -0.0070071388 0.57662565
0.046256937 -0.0089163873 0.57751507
0.054334298 -0.0082759056 0.57344502
0.054785043 -0.0063214134 0.57066524
0.046000607 -0.0058377525 0.57955045
0.04917299 -0.0070507489 0.57919019
0.053580973 -0.0067646317 0.57686442
0.055562973 -0.0053965794 0.57402158
0.044405133 -0.010034386 0.56709415
0.046327665 -0.0097223781 0.56565535
0.04223099 -0.0099032782 0.57184774
0.04615321 -0.012396514 0.57112169
0.049178563 -0.012398856 0.56950223
0.052097585 -0.0097598862 0.56753725
0.043699693 -0.010134611 0.57450604
0.048044629 -0.012630817 0.57434189
0.05137217 -0.012501197 0.57295012
0.053390339 -0.0096572107 0.57001692
0.049756456 -0.009869257 0.57694411
0.052040257 -0.0099041983 0.57548326
0.043730751 -0.018835358 0.55512005
0.044954263 -0.018968118 0.5541684
0.04427065 -0.018957647 0.55695647
0.047921233 -0.015839729 0.57139027
0.048940606 -0.016093787 0.5708102
0.048568793 -0.0164923 0.57375407
0.050931774 -0.016282164 0.57265681
0.050745696 -0.015799621 0.57604367
0.051508673 -0.015793929 0.57552874
0.04215207 -0.020667855 0.55087805
0.043197706 -0.02072693 0.5502103
0.042900443 -0.021160861 0.55457354
0.045019504 -0.020434212 0.55304331
0.042574018 -0.022558244 0.56119031
0.044856068 -0.021343295 0.55890679
0.046458963 -0.0209521 0.55616224
0.04369662 -0.023780648 0.56443518
0.04602135 -0.023094375 0.56234324
0.046487749 -0.022755248 0.57026494
0.048713557 -0.022464972 0.56979543
0.048347816 -0.021871392 0.57386816
0.050626412 -0.021509228 0.57249647
0.042879608 -0.025628835 0.56173235
0.044751726 -0.02536663 0.55978274
0.043821111 -0.026739847 0.56539273
0.046552107 -0.026336059 0.56359518
0.046072822 -0.027229361 0.56982529
0.048121564 -0.025819324 0.56841338
0.048277594 -0.025904011 0.57253695
0.049458332 -0.025183985 0.57144266
