# .PCD v0.7 - Point Cloud Data file format
VERSION 0.7
FIELDS x y z
SIZE 4 4 4
TYPE F F F
COUNT 1 1 1
WIDTH 1190
HEIGHT 1
VIEWPOINT 0 0 0 1 0 0 0
POINTS 1190
DATA ascii
0.036349326 0.17359869 0.50797474
0.033231877 0.15657568 0.53656286
0.032440636 0.17819101 0.4996742
0.031785607 0.17759255 0.50050879
0.034452058 0.17386843 0.5074923
0.031064304 0.1561081 0.53715318
0.027805757 0.15230583 0.54291677
0.02762779 0.15181042 0.54402375
0.027129421 0.17606895 0.50309783
0.026437586 0.17424613 0.50572318
0.026072115 0.17186145 0.51047897
0.023604397 0.15840921 0.5328213
0.022798855 0.15501653 0.53810501
0.024085037 0.15366723 0.54056197
0.026599636 0.15199895 0.54359466
0.025481913 0.1759585 0.50306457
0.025295518 0.17383876 0.50625676
0.024318334 0.17195009 0.50986326
0.021909036 0.1583046 0.53284103
0.021719728 0.15570769 0.5365423
0.021431014 0.15418945 0.53952372
0.056118894 0.16917099 0.50867647
0.055986956 0.16788587 0.51159173
0.053446248 0.15469602 0.53336883
0.053073905 0.15312938 0.535523
0.053084645 0.17137505 0.50815761
0.053404815 0.16910203 0.51237881
0.051810611 0.1664189 0.51418644
0.050127197 0.15656509 0.53001297
0.051164661 0.15623771 0.53322399
0.050076336 0.15383621 0.53726327
0.04689759 0.17175005 0.50409597
0.048398182 0.17222123 0.50666583
0.047352076 0.16924679 0.51205528
0.048299402 0.16646874 0.5134787
0.047438774 0.15634596 0.52967459
0.045596402 0.15665674 0.53283346
0.045069128 0.15344486 0.53803736
0.042750373 0.1509086 0.53833038
0.044183761 0.1725945 0.50368607
0.043204844 0.17274165 0.50743759
0.042946745 0.16803233 0.51129013
0.041013379 0.15583268 0.53172308
0.040423866 0.15465769 0.53749335
0.03985009 0.151499 0.53897035
0.038511537 0.17392105 0.50244945
0.038534671 0.17367029 0.50713181
0.037584573 0.16807985 0.51154
0.035531141 0.15649125 0.53086799
0.035427444 0.15549432 0.53750539
0.03473147 0.15152481 0.53954232
0.033226453 0.17624444 0.49830368
0.032967202 0.17472859 0.5011338
0.032198828 0.17342797 0.50646508
0.033119746 0.16855939 0.51126349
0.031053897 0.15700983 0.53067309
0.02949626 0.15524025 0.53772229
0.029120747 0.15107809 0.54041213
0.028289616 0.14965469 0.54300404
0.031188505 0.17685568 0.49871501
0.028917616 0.1742738 0.50074375
0.028485287 0.17142378 0.50535297
0.027553337 0.1685808 0.50982165
0.025250629 0.15629902 0.53036189
0.025234953 0.1539291 0.534881
0.025144085 0.15110645 0.53961396
0.026311332 0.15036134 0.54294229
0.024869207 0.17453212 0.50144279
0.024750955 0.17189047 0.50567269
0.02351623 0.16974762 0.5088011
0.021046236 0.1562648 0.53123951
0.021518715 0.15438151 0.53478098
0.02065153 0.15224387 0.53875065
0.056438934 0.16670801 0.50705928
0.056444146 0.16507301 0.50989997
0.053814631 0.15195392 0.53178722
0.053422246 0.1510264 0.53441459
0.053934928 0.16745998 0.50523049
0.055217937 0.16325448 0.51144397
0.052557498 0.16343851 0.51288271
0.050705135 0.15419184 0.52845389
0.053110212 0.15237617 0.52932131
0.050983805 0.14942108 0.53503984
0.046697624 0.17038924 0.5033595
0.04895566 0.16831002 0.50343913
0.046084993 0.16328865 0.51060104
0.048233144 0.1634234 0.51196778
0.047060825 0.15372433 0.52798164
0.044676386 0.1532964 0.52833956
0.045382224 0.14872286 0.5359627
0.042731576 0.15012434 0.53773975
0.043610163 0.16915849 0.50175381
0.043804776 0.16746165 0.50240636
0.042672362 0.16452315 0.51000595
0.04067862 0.15309808 0.52904749
0.040690146 0.14818658 0.5356701
0.039533153 0.14850314 0.53683633
0.038876012 0.17031729 0.50065851
0.038679138 0.16663626 0.50321144
0.038338378 0.16512677 0.50827658
0.036375139 0.1523446 0.5296154
0.035484724 0.14867187 0.53316808
0.035258263 0.1482856 0.53737855
0.034460574 0.17119291 0.50012261
0.033538368 0.16807206 0.50331628
0.032982301 0.16583718 0.50750715
0.030752443 0.1524749 0.52983105
0.030360961 0.14995514 0.53363562
0.030668143 0.1487167 0.53785479
0.029715743 0.17083204 0.50073022
0.03046333 0.1691933 0.5024839
0.029057421 0.16655891 0.50731206
0.026568159 0.15308017 0.52994686
0.026718332 0.15040977 0.53418702
0.025965907 0.149459 0.53635204
0.056182455 0.16392675 0.50622469
0.056210455 0.16305627 0.50779092
0.053327341 0.16341725 0.5028863
0.054150641 0.16008547 0.50748378
0.051622804 0.16012989 0.51001912
0.049593143 0.1505605 0.52668631
0.051679026 0.14808197 0.52812904
0.050211314 0.14560294 0.5323202
0.048702411 0.16341649 0.50187707
0.046769977 0.15968338 0.50678194
0.048798509 0.15893517 0.50945795
0.046977766 0.14956214 0.52534437
0.044677589 0.14749484 0.5265274
0.045664266 0.14506471 0.53270596
0.04441794 0.16405363 0.50302309
0.044800714 0.16147608 0.50621688
0.042142943 0.14828011 0.52837801
0.041353442 0.14674431 0.53194416
0.05257846 0.1586656 0.50185072
0.053337943 0.15661685 0.50445604
0.050772998 0.14358829 0.5262174
0.049582556 0.14300777 0.52933592
0.049556568 0.15858622 0.50110751
0.048423693 0.1563036 0.50469655
0.049184725 0.15660806 0.50740147
0.047428094 0.14671294 0.52424443
0.046201818 0.14436665 0.52500755
0.046565879 0.1420633 0.528898
0.046490341 0.15570149 0.50134367
0.043850247 0.14186226 0.52533501
0.043586321 0.14067599 0.52635717
0.051952936 0.15418079 0.49999964
0.052712493 0.15259479 0.50163805
0.050255574 0.13935086 0.52394789
0.049600907 0.15396811 0.49810031
0.049452927 0.15124305 0.50247395
0.047421753 0.13968226 0.52180159
0.046814442 0.13723899 0.52615947
0.045711823 0.15366842 0.4976894
0.045284323 0.15206961 0.50055087
0.042595692 0.13865089 0.52215791
0.042637043 0.13716371 0.52559811
0.052349769 0.14865623 0.49938434
0.049881093 0.1360375 0.52154875
0.049900781 0.14993574 0.4951632
0.050591659 0.1471819 0.49959797
0.048279572 0.14544997 0.50105411
0.046587154 0.1357335 0.51700199
0.048564807 0.13494362 0.5201087
0.046777882 0.13258769 0.52392691
0.044767413 0.15016852 0.4943755
0.043752696 0.14797823 0.49939558
0.045392804 0.14531688 0.50073987
0.043270711 0.13586809 0.51669729
0.041303068 0.13620169 0.51957124
0.041779086 0.1325164 0.52403617
0.041841544 0.14812627 0.49405438
0.041539121 0.14661466 0.49688065
0.038966052 0.13352515 0.51879275
0.038822033 0.13201049 0.52195066
0.050281137 0.14600758 0.49225497
0.051597431 0.14338422 0.49686268
0.048959233 0.14146654 0.49942818
0.047238447 0.1326336 0.51453704
0.049130611 0.13086197 0.51785147
0.04704427 0.12812673 0.52184629
0.045210905 0.14675666 0.49044374
0.044845041 0.14133397 0.49957755
0.043217566 0.13308461 0.51366401
0.041724801 0.12743814 0.52279413
0.040455386 0.14545554 0.49130684
0.039267641 0.14346142 0.49519089
0.040242147 0.14061928 0.49784404
0.03868866 0.1320526 0.51356739
0.036704857 0.13062929 0.5170272
0.037264958 0.12794571 0.52065283
0.037265725 0.14268625 0.49160329
0.037333913 0.14207475 0.49258387
0.035539296 0.12987664 0.51286364
0.034685474 0.12833352 0.51599896
0.034617864 0.12686126 0.5183689
0.050131164 0.14156806 0.49015743
0.050787702 0.13911593 0.49422973
0.048673064 0.13751407 0.49701387
0.047066428 0.12855601 0.51230359
0.048284274 0.12662715 0.51525939
0.046836257 0.1243307 0.51903629
0.045748398 0.14282426 0.48757681
0.04490865 0.13655828 0.49717888
0.043469325 0.12865745 0.51058376
0.042333744 0.12267517 0.52040583
0.040710822 0.14240098 0.48733869
0.03755426 0.14104526 0.49391299
0.040280607 0.13668601 0.49647009
0.038717277 0.12857603 0.51026285
0.037045471 0.12327538 0.51979744
0.035989754 0.14111584 0.48859361
0.034837738 0.13882799 0.49220055
0.036352307 0.1367996 0.49474099
0.034507442 0.1275242 0.51067978
0.032415606 0.12629372 0.51318026
0.032881182 0.12368567 0.51739347
0.032189295 0.13917135 0.48806882
0.031721734 0.13814639 0.49012834
0.029264599 0.12456366 0.51322359
0.029289957 0.1228222 0.51542366
0.04884734 0.13820493 0.48900467
0.048912868 0.13625562 0.49202344
0.047808487 0.13502997 0.49469054
0.046350677 0.12349731 0.51343733
0.045967028 0.12212677 0.51649296
0.045584053 0.13760421 0.48702392
0.045781255 0.13407519 0.49058646
0.044832431 0.13374844 0.49433735
0.043427248 0.12486434 0.50965416
0.043400079 0.12145437 0.51199919
0.042588405 0.12029141 0.51645434
0.041377388 0.13755128 0.48526853
0.042448878 0.13266698 0.48972544
0.040343907 0.13307191 0.49381357
0.038849179 0.12420481 0.50835216
0.039867438 0.12004165 0.51087523
0.038005102 0.11896703 0.51632828
0.035830386 0.13788255 0.48480672
0.034049079 0.13481233 0.49202779
0.035471704 0.132661 0.49207893
0.033411093 0.12326004 0.50815117
0.032393388 0.12458406 0.50996608
0.03265021 0.11908308 0.51623321
0.03114807 0.13673216 0.4854207
0.029786795 0.13480565 0.48923588
0.03187447 0.13232711 0.4911083
0.030017952 0.12267426 0.5078066
0.027527729 0.12255611 0.51038516
0.028177964 0.11953142 0.51425868
0.028265882 0.13375847 0.48658681
0.025545821 0.1200093 0.51079601
0.025563968 0.11935993 0.51184183
0.039845392 0.13266641 0.48450148
0.040066533 0.13098347 0.48779395
0.03917715 0.12896597 0.49040624
0.037617527 0.11931376 0.50618672
0.037646946 0.11808261 0.50943786
0.036665343 0.11610529 0.51231974
0.03596827 0.13331793 0.48242629
0.038336739 0.13140953 0.48688769
0.035462119 0.12883244 0.49036932
0.033932298 0.11985315 0.50547677
0.035810519 0.11765705 0.50971115
0.033058003 0.11493455 0.5132454
0.031342201 0.13276547 0.4831562
0.029538443 0.13031165 0.48692241
0.031967521 0.12885262 0.48958018
0.029935978 0.11954835 0.5054335
0.027152039 0.11754169 0.50752878
0.028424472 0.11558104 0.51188022
0.028318569 0.13264291 0.48599815
0.025766902 0.11880708 0.50910103
0.025749099 0.11791732 0.51145995
0.059073165 0.12414864 0.48822486
0.059596218 0.12282275 0.491128
0.059582021 0.12018774 0.49535313
0.059166186 0.11795168 0.49958766
0.057539582 0.11544196 0.50369352
0.056932278 0.11298606 0.50535887
0.05622045 0.12466086 0.4858056
0.056174818 0.1146456 0.50468886
0.053885788 0.1126326 0.50752276
0.051579684 0.11047168 0.50946856
0.053562135 0.12537265 0.48358649
0.050811134 0.11086418 0.50851691
0.049788877 0.10986805 0.50966471
0.044707425 0.12618296 0.48230308
0.045340445 0.12596233 0.48513538
0.044591315 0.12321113 0.48886031
0.042785123 0.1149119 0.50309026
0.042994153 0.1125074 0.50698984
0.041725792 0.11055584 0.508394
0.041387033 0.12806624 0.48183167
0.042968519 0.12781894 0.4861165
0.040682562 0.12322345 0.49004024
0.039251622 0.11638482 0.50141048
0.040517092 0.11451991 0.50791538
0.038175806 0.11132853 0.50975209
0.036445767 0.12879491 0.48021248
0.035608824 0.12384491 0.48902717
0.034550365 0.11602813 0.501432
0.033376563 0.11058746 0.51034892
0.033147089 0.12845287 0.4814238
0.031964652 0.12627427 0.48419407
0.032472812 0.12410662 0.4870055
0.030545928 0.11503524 0.50254422
0.029391196 0.1134993 0.50574774
0.030102037 0.111698 0.50918955
0.059842296 0.12134384 0.4852165
0.060785539 0.11969461 0.4891673
0.060926046 0.11696479 0.49359244
0.05990487 0.11477527 0.49768627
0.059082236 0.11183519 0.50198394
0.057754546 0.10974217 0.50399852
0.054686427 0.12354905 0.48192877
0.056901406 0.12254912 0.48434252
0.057199903 0.1193835 0.48751533
0.057477623 0.11578685 0.49270383
0.056966797 0.11351796 0.49674815
0.054477636 0.1116807 0.50135183
0.054629248 0.10968097 0.50605458
0.051947441 0.1073976 0.5079357
0.051900923 0.12432033 0.48124191
0.051132187 0.12170917 0.48388699
0.050078396 0.11863798 0.48711434
0.049325608 0.11604106 0.48895189
0.048924431 0.1104496 0.5005793
0.048939347 0.10955086 0.50483656
0.048879415 0.10722847 0.50880671
0.046526626 0.12368865 0.47962487
0.048048496 0.12343755 0.48350576
0.046676118 0.12038247 0.48861259
0.045099169 0.11735117 0.48993894
0.044467382 0.11295695 0.49737194
0.045326751 0.11300105 0.50068259
0.045524016 0.10956749 0.50622231
0.043241952 0.10694921 0.50837815
0.042533718 0.12381375 0.47830299
0.039500237 0.1186077 0.48852497
0.041871041 0.11803214 0.48954159
0.040940735 0.11305853 0.49744523
0.038432267 0.11277719 0.49796236
0.039084561 0.10603283 0.50798988
0.036739092 0.12412691 0.47871196
0.035011075 0.12129182 0.4810251
0.035977807 0.11956938 0.48625055
0.034747206 0.11168467 0.4991987
0.032531559 0.1078354 0.50321627
0.033570293 0.10714711 0.50717151
0.033133578 0.12247823 0.48314273
0.033164669 0.12177449 0.4854371
0.03140755 0.111442 0.50105596
0.030853758 0.11042096 0.50312877
0.031156797 0.10907084 0.50673062
0.060334727 0.11747509 0.48281899
0.062265582 0.11528592 0.48663136
0.062566787 0.11258608 0.49102196
0.061676849 0.11048858 0.49521279
0.060514741 0.10793277 0.4995099
0.05806952 0.10547481 0.50273228
0.05652827 0.11898818 0.47870827
0.058414806 0.11873111 0.48055011
0.05526885 0.11519253 0.48644754
0.056140665 0.11228476 0.48970118
0.055650074 0.11013074 0.49467021
0.053306025 0.10784164 0.49730518
0.055376738 0.10442144 0.50457454
0.052953683 0.10294934 0.50576752
0.052047968 0.1194047 0.47710302
0.053384025 0.11843978 0.48478103
0.052480888 0.11583447 0.48686397
0.050121054 0.1133915 0.48867708
0.049187731 0.1095084 0.49522263
0.051114548 0.10877281 0.49884292
0.049500868 0.10242561 0.50647861
0.047079485 0.12049131 0.47615933
0.046217918 0.11365419 0.48870641
0.045192651 0.10977304 0.49474448
0.044120409 0.10162576 0.50682771
0.041768081 0.1210015 0.47586471
0.04047586 0.11396086 0.48564297
0.040163402 0.11259258 0.48786399
0.039692562 0.10976633 0.49254647
0.039212029 0.10799184 0.49577987
0.038984533 0.10197818 0.50635457
0.037669294 0.11994042 0.47642431
0.036535367 0.11770402 0.47955653
0.036705621 0.11567232 0.48428813
0.03630732 0.11296293 0.48856068
0.036690492 0.11026841 0.49284944
0.03496518 0.10738036 0.49723044
0.033934616 0.10464573 0.50117153
0.035377771 0.10340452 0.50497591
0.063782141 0.10807346 0.48920187
0.063496724 0.10493386 0.49159044
0.060814373 0.11297566 0.48035222
0.062835336 0.11072955 0.48411119
0.06316857 0.10869095 0.48816842
0.062529162 0.10655485 0.49289864
0.061462205 0.10251969 0.49729186
0.058856744 0.10087965 0.50076604
0.056530051 0.11501774 0.47652125
0.05859828 0.11409485 0.47781888
0.054738585 0.1114763 0.48629913
0.05461454 0.10817511 0.48765841
0.054081578 0.10600144 0.4917829
0.056305181 0.099955589 0.50253016
0.053885132 0.098529831 0.50331378
0.052736629 0.11572023 0.47538221
0.051137026 0.10843848 0.48687387
0.050948836 0.10527296 0.49182388
0.049510252 0.097990803 0.5041942
0.047390439 0.1154986 0.47410858
0.046454564 0.10843474 0.48524192
0.045883887 0.10482223 0.4921383
0.043593526 0.10261884 0.49188858
0.044009484 0.097750247 0.50439548
0.042763434 0.11584639 0.47410822
0.040341686 0.11232245 0.47599033
0.042273086 0.11021304 0.48327658
0.041073278 0.10782839 0.48654816
0.039863572 0.10558824 0.4904944
0.041227322 0.10418757 0.49343315
0.038429771 0.098223224 0.49984658
0.039686754 0.098335274 0.50316763
0.039194759 0.11593324 0.4757151
0.038794763 0.11390598 0.4779526
0.038329378 0.11102131 0.4820053
0.038161956 0.10892522 0.48556396
0.038063571 0.10631768 0.49021482
0.036526173 0.10336715 0.49452323
0.03675583 0.10103379 0.49842519
0.036235906 0.10067166 0.50190639
0.064825311 0.10377362 0.48236287
0.064341456 0.10346684 0.48599553
0.063961543 0.1015475 0.4890953
0.063474737 0.09834592 0.49197349
0.061428968 0.10829908 0.47796562
0.063019216 0.10706733 0.4814086
0.063606352 0.10405859 0.48603213
0.063040927 0.10032661 0.49100879
0.061971687 0.098993659 0.49466217
0.059164595 0.096662551 0.49822715
0.0561225 0.11053588 0.47399598
0.058437407 0.10959694 0.47531152
0.056537718 0.095081165 0.49973425
0.053848092 0.094747394 0.50074112
0.052595902 0.11074691 0.47327459
0.050794438 0.10414249 0.48578024
0.050328668 0.10245471 0.4886764
0.049664207 0.094063759 0.50100923
0.047950815 0.110553 0.47272915
0.045386896 0.10870001 0.4727408
0.046383608 0.10451686 0.48432744
0.0461406 0.10178676 0.48889878
0.044608697 0.093808264 0.50030917
0.043801934 0.11155549 0.47330263
0.042119164 0.10903309 0.47470781
0.04015743 0.10652985 0.47898847
0.039979007 0.10355189 0.48368782
0.038920544 0.10115056 0.48754102
0.038949773 0.097613186 0.49171343
0.039688237 0.095657811 0.49625897
0.04071755 0.095012277 0.4998655
0.039093472 0.10749355 0.47914541
0.038745768 0.10493873 0.48288581
0.038396679 0.10054952 0.48796353
0.037623312 0.099738121 0.49241015
0.037680194 0.098563895 0.49539798
0.065416038 0.10352017 0.47623128
0.065944418 0.10218976 0.47940692
0.066301674 0.099872246 0.48370609
0.065495729 0.097366422 0.48808244
0.064502388 0.094688043 0.49202088
0.06349501 0.093064412 0.4947724
0.062762626 0.10502239 0.47473508
0.064463928 0.10410516 0.47821686
0.063490331 0.098837979 0.48974949
0.062591285 0.095679075 0.49389657
0.060411789 0.092152975 0.49639678
0.057384443 0.10627948 0.47137132
0.058486797 0.10631621 0.47282469
0.055896126 0.092725269 0.49798378
0.054808371 0.090089574 0.49802399
0.052938629 0.10636666 0.47094434
0.049869869 0.090459883 0.49814489
0.04948907 0.10636507 0.47098309
0.047015682 0.1050823 0.47163138
0.044249635 0.090784676 0.4951601
0.046256963 0.090786651 0.49758366
0.043725677 0.10397001 0.4735896
0.041598119 0.10214424 0.47658044
0.040045835 0.1003516 0.48071641
0.039474398 0.097566903 0.48586097
0.040099408 0.094074249 0.48973858
0.041608125 0.092642799 0.49344733
0.039041847 0.09801846 0.4806526
0.038636714 0.096219763 0.48450238
0.038620222 0.094199285 0.48704398
0.065826163 0.098677583 0.47783223
0.06587182 0.095517293 0.48123872
0.065674223 0.093074679 0.4853709
0.064491212 0.091553465 0.4895885
0.061812013 0.10080312 0.47289607
0.063694075 0.097891837 0.47566122
0.064628199 0.094808668 0.47853076
0.063862644 0.090339921 0.48592755
0.062519953 0.089586124 0.48960835
0.059849381 0.088422284 0.49284425
0.0581402 0.088284522 0.49655205
0.057727266 0.10312793 0.46988282
0.05827307 0.10044938 0.47121677
0.056301787 0.086685196 0.49263075
0.054875907 0.087238818 0.49620068
0.053015128 0.10334755 0.46963751
0.053253628 0.099936567 0.46986338
0.050582834 0.086126879 0.49233127
0.051116653 0.087204717 0.4956935
0.050170686 0.10305756 0.46929011
0.048119977 0.10043363 0.47025317
0.046079058 0.097171687 0.47307578
0.044488743 0.088281661 0.48765993
0.04584723 0.086810619 0.49182224
0.046808943 0.08795584 0.49566308
0.044285811 0.10039629 0.47153884
0.042548254 0.098201767 0.474686
0.041896865 0.095419303 0.47856671
0.041453101 0.092678152 0.4830631
0.04110793 0.090499282 0.48716137
0.04213158 0.088415265 0.49090266
0.039234236 0.097199403 0.47897747
0.038801409 0.094573185 0.48352581
0.038763411 0.092807062 0.48663124
-0.0092830732 0.092523538 0.47217152
-0.0095834807 0.090824917 0.47559386
-0.012711756 0.092698589 0.47219703
-0.012849614 0.091002777 0.4754
-0.015656397 0.092039399 0.47261161
-0.015893213 0.091242969 0.47428048
0.065630734 0.090585738 0.47971949
0.065464266 0.089578152 0.48207071
0.060877759 0.09683083 0.47208765
0.062564299 0.093782902 0.47385898
0.06432505 0.091896236 0.47718811
0.063652761 0.087542742 0.48370993
0.061542027 0.086228952 0.48653084
0.059063472 0.08533147 0.48933759
0.057909023 0.096277311 0.47081372
0.058616959 0.093208537 0.47086743
0.056890737 0.083454572 0.48729753
0.055900544 0.08478649 0.48960459
0.05331967 0.096784502 0.47043034
0.052611731 0.093267716 0.47113693
0.050986618 0.084338583 0.48629129
0.051400803 0.085155681 0.48947337
0.049723793 0.097129114 0.47085628
0.047973208 0.09369497 0.47259882
0.045666181 0.089451529 0.47576112
0.045182019 0.087021224 0.47971663
0.046744987 0.086139217 0.48511061
0.047344323 0.086266108 0.48897794
0.044718497 0.094175406 0.47446957
0.044009704 0.09177085 0.47680351
0.043727852 0.089229837 0.48052484
0.043681592 0.08833155 0.48453787
0.026666131 0.095794119 0.46157256
0.026800364 0.095121205 0.46235901
0.024117161 0.079898924 0.48767635
0.023964837 0.079536811 0.48871875
0.024295162 0.096114211 0.46132934
0.023298733 0.094543874 0.46380922
0.019494236 0.082426667 0.48311201
0.021025449 0.081161328 0.48617196
0.021365862 0.079699084 0.48873287
0.020506136 0.095463365 0.46141523
0.018766914 0.094211161 0.46415821
0.017839435 0.092529684 0.46672964
0.016212471 0.083298676 0.48218486
0.016522203 0.081729807 0.48500109
0.017862372 0.079810716 0.4876107
0.014526304 0.093528733 0.46441907
0.013082188 0.09185376 0.46761444
0.011095114 0.090130858 0.46949178
0.010653388 0.084864393 0.47759411
0.011699371 0.084189653 0.48053005
0.012412116 0.082136348 0.48366475
0.008901801 0.090852983 0.46858293
0.0074791908 0.089964181 0.47090352
0.0068523623 0.086554781 0.47638109
0.0080594532 0.084658355 0.47900891
0.0027137324 0.09016306 0.46821541
0.0028886087 0.089531116 0.47129938
0.0027816668 0.086874634 0.47521123
0.0021066144 0.084776491 0.47722274
0.00035145134 0.089876398 0.46799493
-0.0022691712 0.090107463 0.47060877
-0.0029769726 0.087278314 0.4747448
-0.0007869117 0.084907688 0.47684228
-0.007519275 0.090228535 0.47107416
-0.0077919737 0.088165566 0.47424906
-0.01192373 0.091618314 0.47158524
-0.01235681 0.089956075 0.4745594
-0.015547469 0.091387972 0.47183493
-0.015738025 0.090407372 0.47391337
0.065648958 0.086120144 0.47696906
0.065524101 0.085093781 0.47910705
0.061849877 0.089084312 0.47186351
0.064045087 0.087408081 0.47497237
0.063256286 0.083547071 0.48095506
0.06085572 0.082468592 0.4835262
0.056890287 0.089448571 0.46710294
0.058745734 0.089775972 0.4695434
0.057149597 0.08092197 0.48490173
0.054961834 0.078830726 0.4851414
0.053440843 0.08997494 0.46660754
0.052840874 0.090740606 0.46973675
0.05128232 0.081785142 0.48457274
0.051436767 0.078754336 0.48535353
0.050642293 0.089633986 0.46693808
0.048523888 0.088878959 0.47006634
0.046147194 0.088561475 0.47331199
0.045391839 0.084504575 0.48031259
0.047132518 0.081679165 0.48211971
0.048850697 0.079042211 0.48451135
0.045313016 0.086985156 0.46963784
0.04418762 0.086480923 0.47366005
0.043829229 0.084162511 0.4779619
0.044119552 0.080769643 0.48007303
0.028475575 0.093764439 0.45908967
0.02726341 0.09279789 0.46213675
0.024834044 0.078523278 0.48580879
0.025446482 0.076236509 0.48842946
0.024102382 0.094725072 0.45819527
0.024716377 0.091591746 0.4638322
0.022452742 0.089348421 0.46564391
0.021056153 0.080360927 0.48078096
0.022830065 0.079684764 0.48393101
0.020999406 0.07628233 0.4889639
0.019281298 0.093257263 0.45863941
0.017177776 0.093836792 0.46125987
0.018551785 0.088985011 0.46714029
0.01726263 0.081975497 0.47873187
0.014772251 0.079064973 0.48590887
0.016349416 0.076343916 0.48678559
0.016405415 0.091422088 0.45884976
0.013857514 0.091327235 0.46136397
0.014448911 0.089157864 0.4679693
0.012368508 0.087433808 0.46873212
0.011877388 0.083100125 0.47596294
0.013470262 0.083546251 0.47827315
0.011669766 0.078454822 0.48332894
0.013815906 0.076148435 0.48487878
0.011010472 0.089522481 0.46268359
0.0082477108 0.088926993 0.46551821
0.0078599751 0.085962757 0.47054896
0.0078128651 0.084471144 0.47331578
0.0067092553 0.081205592 0.47851267
0.0089674406 0.079236656 0.48074821
0.0032354072 0.088077262 0.46604314
0.0035627224 0.084648639 0.47096911
0.0030985139 0.084426939 0.47114378
0.0021579638 0.08176887 0.47675452
-0.001521226 0.087672785 0.46535078
-0.0024323352 0.086160243 0.46944559
-0.0028380603 0.084372357 0.47195765
-0.0025114343 0.081587031 0.47580069
-0.0062679797 0.087241806 0.46478882
-0.0072032958 0.086875305 0.46891344
-0.0074052811 0.084394135 0.47159702
-0.0076033995 0.081553124 0.47489017
-0.0094720051 0.086546473 0.46493191
-0.012122661 0.085760549 0.46752268
-0.012623951 0.083786145 0.47157836
-0.010890841 0.081450194 0.47415194
-0.016807407 0.08554747 0.46730947
-0.017194718 0.084124669 0.47089538
-0.020776995 0.085390314 0.46687326
-0.021229617 0.083994113 0.47053722
0.066153899 0.081844009 0.4743233
0.065818384 0.080523267 0.4768534
0.062025752 0.085361712 0.46534252
0.06271337 0.084638372 0.46938211
0.064180411 0.083735719 0.47230598
0.063610956 0.07985729 0.47886962
0.061400373 0.077651449 0.48107153
0.059963979 0.074850202 0.48346984
0.058852963 0.08677201 0.4648293
0.060338281 0.087269261 0.46827787
0.058889542 0.078358397 0.48324737
0.056881007 0.075229585 0.48422641
0.053601321 0.087612413 0.46428579
0.051171899 0.088292077 0.466649
0.049588315 0.0780394 0.48362458
0.051586933 0.075335905 0.48442453
0.049411699 0.086332157 0.46396559
0.04759419 0.086676016 0.46640596
0.045913331 0.077513508 0.48171785
0.04751331 0.07505063 0.48279855
0.044446513 0.084561437 0.46669868
0.04242257 0.08290334 0.47094545
0.041964199 0.080264784 0.47561708
0.043229312 0.077145614 0.47950813
0.040632837 0.080525249 0.46959406
0.040353741 0.078555785 0.47366005
0.033007145 0.089554235 0.4528912
0.033370618 0.089123309 0.45564392
0.029669367 0.071640618 0.48327726
0.030010438 0.070715003 0.48632738
0.02938061 0.06857264 0.48797029
0.02989576 0.090280041 0.4525736
0.030427467 0.090775564 0.45604149
0.028467588 0.087402239 0.46003711
0.02649474 0.073890999 0.48243698
0.027059997 0.071949862 0.48740125
0.026219664 0.068837814 0.48848486
0.026623365 0.090862937 0.45325911
0.023961384 0.090012982 0.45564473
0.023804944 0.086757809 0.46027485
0.022302773 0.086646661 0.46333793
0.020649232 0.077130839 0.47911
0.021678027 0.074213333 0.4810845
0.020825371 0.071832366 0.48624665
0.023080099 0.069737546 0.48820189
0.019428693 0.090334922 0.45651966
0.019782674 0.086519569 0.45914543
0.018485546 0.085479595 0.46391544
0.016727213 0.077556178 0.47708577
0.017466418 0.073579505 0.48075297
0.016447149 0.073163107 0.48530102
0.016648613 0.089908347 0.45777491
0.014504381 0.087757096 0.45971534
0.013685703 0.085004225 0.46330523
0.011707976 0.084759101 0.46685946
0.011653371 0.080116376 0.47463414
0.012379203 0.077210359 0.47640839
0.012278318 0.075167038 0.48082709
0.013935793 0.074592903 0.48417109
0.0088724419 0.085299492 0.46443954
0.0076407231 0.083008409 0.46679401
0.0071654581 0.079927027 0.47224244
0.0071824081 0.078657575 0.47536618
0.0091430172 0.077422366 0.47918156
0.0036732741 0.083784565 0.46358678
0.0041148663 0.081383497 0.46840912
0.0039201416 0.080718532 0.46958056
0.0025427118 0.077173583 0.47422555
-0.0013378263 0.083755933 0.46308449
-0.0023088157 0.081134997 0.46754658
-0.0022184364 0.080300339 0.46898594
-0.0023809187 0.077237748 0.47383296
-0.0050557069 0.083540037 0.46317804
-0.0069229975 0.082663983 0.46475062
-0.0068235099 0.080046438 0.46794051
-0.0070266947 0.077701971 0.47294649
-0.01034373 0.08181566 0.46541703
-0.011040539 0.079054818 0.46963462
-0.010186315 0.076477557 0.47104508
0.066455409 0.077971049 0.47126949
0.066260949 0.07594879 0.47465864
0.062340118 0.082264818 0.46374825
0.064024806 0.080856822 0.46615607
0.065470405 0.079961769 0.46942875
0.064766541 0.075166218 0.47716823
0.062578768 0.072936185 0.47930756
0.060296938 0.07173983 0.48145872
0.059540365 0.082943618 0.46219832
0.059584521 0.073641583 0.48188284
0.057418503 0.071084403 0.48226279
0.054473206 0.083953321 0.46023938
0.052435376 0.06999737 0.48306325
0.04997649 0.082943581 0.45708448
0.048737485 0.08387512 0.46008256
0.046535246 0.070447542 0.48246866
0.046563722 0.067388296 0.48303285
0.044790033 0.081806883 0.46053132
0.042899787 0.082182877 0.46397278
0.041592494 0.073713467 0.47844544
0.042865921 0.070487931 0.47981757
0.038224552 0.085754648 0.45120499
0.038355537 0.08530058 0.45380896
0.041637857 0.080104187 0.46046335
0.039401997 0.080034539 0.46319953
0.038293898 0.077737011 0.46822056
0.037920628 0.075610869 0.47214845
0.038029574 0.072342642 0.47619733
0.037301004 0.068726212 0.4794814
0.035023149 0.066704467 0.48426092
0.034252699 0.064646229 0.48586687
0.034754511 0.08791928 0.45078114
0.035601996 0.086962737 0.45498559
0.034013495 0.082972191 0.4574151
0.036393471 0.077554442 0.46380571
0.035195936 0.071615204 0.47344562
0.031576768 0.06937743 0.48039854
0.032657646 0.068434469 0.48548785
0.030850833 0.06577637 0.48770887
0.030787755 0.088190459 0.45059329
0.028274091 0.08520776 0.45216593
0.029462598 0.082977496 0.45895207
0.027578346 0.070840374 0.47899467
0.025091041 0.066029727 0.48410612
0.026944095 0.066126153 0.48771715
0.027185291 0.088730007 0.45209265
0.025542006 0.085570991 0.45446804
0.025333982 0.083527766 0.45759135
0.022982776 0.070123486 0.47972003
0.02235787 0.068863198 0.48311794
0.023509528 0.067964539 0.48712301
0.0031283349 0.079767779 0.46151137
0.0042196475 0.07749594 0.46410272
0.0035395063 0.075168557 0.4679656
0.001993712 0.073757574 0.4716686
0.000905402 0.079125717 0.46152127
-0.0020959787 0.077965982 0.46293628
-0.0030785054 0.075357094 0.46679881
-0.0018833466 0.0736228 0.47062647
-0.0057340115 0.080671035 0.46181035
-0.0059478581 0.077356242 0.4627144
-0.0062402263 0.075214103 0.46725136
-0.0069700629 0.074414097 0.47066778
-0.011254445 0.077533968 0.46249974
-0.012161143 0.075393885 0.46698639
-0.011576034 0.07458096 0.46991894
-0.015977979 0.076606438 0.46187198
-0.01674445 0.0748007 0.46610978
-0.020436242 0.076054797 0.46111223
-0.021062598 0.07403788 0.46512425
0.067130446 0.074024603 0.46904537
0.066923998 0.071847647 0.47273344
0.062039174 0.078597866 0.46176696
0.063962802 0.076678067 0.46361554
0.065571919 0.074764043 0.46685761
0.064948738 0.070236154 0.47387168
0.062567808 0.068744302 0.4766885
0.060168814 0.067220993 0.47831899
0.058243457 0.079699978 0.45534685
0.059705496 0.078732044 0.45934144
0.060244277 0.065704562 0.47719765
0.057561371 0.066527002 0.47988945
0.055391584 0.063461304 0.48231679
0.054997906 0.080728002 0.45420244
0.05567712 0.081389546 0.45785132
0.052893773 0.066806279 0.48227757
0.052103706 0.063337915 0.48325264
0.050047319 0.081094652 0.45444402
0.047274593 0.064208768 0.48276377
0.043447308 0.081553124 0.44862896
0.044512581 0.079528376 0.45309746
0.044244822 0.078825384 0.45703503
0.041969631 0.065699175 0.47881964
0.041800275 0.062615894 0.48134786
0.039918721 0.059980936 0.48456821
0.040170319 0.083401173 0.44824317
0.040826265 0.082226202 0.45333889
0.039867029 0.078264482 0.45673388
0.038985528 0.078562051 0.46016163
0.036487393 0.073301807 0.46704298
0.03653422 0.072338119 0.46771917
0.037268769 0.068640992 0.47628263
0.037629753 0.065813944 0.47786531
0.037776459 0.06410297 0.48313093
0.036324225 0.06084083 0.48594737
0.035650019 0.083736628 0.44820425
0.034958646 0.078699157 0.45586386
0.035794359 0.075865224 0.46048874
0.03578078 0.073254675 0.46456897
0.03518033 0.070584849 0.46930569
0.034317188 0.068339303 0.47388765
0.032700699 0.06586352 0.47753996
0.031824801 0.061576191 0.48568541
0.032140061 0.082833171 0.44890299
0.030204205 0.081147365 0.45138893
0.029686296 0.079123899 0.4552772
0.027478419 0.065609656 0.47742799
0.027073177 0.063461706 0.48145497
0.028701656 0.061871778 0.48423028
0.027071144 0.08226335 0.45381886
0.026887281 0.080921926 0.45519507
0.021986283 0.071368866 0.46328068
0.021644652 0.070194006 0.46541235
0.024548206 0.066654667 0.47864002
0.024271589 0.066180572 0.4806819
0.017953504 0.073021032 0.46213767
0.017487302 0.070539981 0.46616086
0.015458338 0.072520256 0.46236768
0.01534107 0.070424519 0.46558639
0.0022115409 0.076653481 0.46005648
0.0025163665 0.074021563 0.46118325
0.0019189566 0.071518242 0.46613413
0.0011694692 0.07105732 0.46871969
0.001156196 0.076132379 0.45981017
-0.0011348687 0.073010214 0.46106485
-0.0016460419 0.070607483 0.46488741
-0.00090770423 0.070856422 0.46852294
-0.0040777698 0.070923276 0.46098372
-0.0043969005 0.069656931 0.46421453
-0.016833149 0.074732147 0.46027884
-0.018944278 0.07244195 0.46492624
-0.020394586 0.074054912 0.45986778
-0.02113355 0.072474897 0.46410981
0.067019939 0.070413917 0.46804586
0.066847183 0.069101617 0.47011629
0.063329421 0.072743587 0.46194419
0.064357415 0.069819145 0.46533826
0.064139247 0.066832267 0.46993431
0.061944369 0.065422617 0.47405967
0.058236841 0.077731922 0.45473099
0.05958898 0.074879907 0.45641649
0.061242603 0.07206969 0.45948172
0.059510641 0.063220233 0.47450438
0.057302516 0.062120527 0.47786686
0.055782475 0.062283687 0.48100814
0.054759014 0.076974556 0.45256513
0.056183148 0.074464649 0.4536913
0.053603843 0.05989939 0.47834072
0.051796481 0.060231354 0.4808107
0.049140472 0.076570235 0.4474659
0.051114604 0.077448606 0.44979858
0.047681164 0.058382783 0.48194683
0.04535155 0.056255072 0.48204011
0.044970904 0.078827232 0.44651973
0.046128422 0.07847409 0.45053634
0.042769834 0.076480657 0.45579749
0.040476974 0.063873701 0.47686675
0.04299793 0.060063951 0.48167491
0.04141631 0.05676312 0.48364437
0.040894434 0.080132023 0.44489822
0.04020378 0.075447991 0.45543575
0.036466002 0.067111269 0.46460617
0.037938476 0.063188329 0.47577325
0.036845528 0.056312755 0.48507959
0.036017023 0.079621688 0.44500706
0.034665473 0.07452473 0.45489457
0.035233811 0.071712375 0.45778319
0.035239514 0.069229804 0.46252462
0.034663752 0.066826172 0.46655244
0.033606261 0.063882165 0.47074097
0.032897115 0.062902689 0.47444475
0.031788334 0.056620821 0.48383832
0.03254474 0.078964189 0.44636872
0.031382777 0.077138528 0.44876719
0.031599268 0.07546825 0.45241487
0.027211571 0.067348868 0.46104574
0.027001986 0.065858088 0.46388796
0.029104168 0.06146235 0.47611105
0.028295783 0.059016161 0.47912529
0.028920868 0.057643749 0.48197708
0.023124631 0.070278943 0.45797962
0.024824414 0.069196127 0.46094167
0.023944639 0.066630304 0.4653751
0.021931872 0.063806288 0.46662226
0.019642726 0.071159087 0.45735374
0.019002054 0.07194569 0.45969567
0.018596832 0.067178801 0.46679106
0.018469453 0.063903116 0.46740639
0.014355231 0.07104595 0.45529488
0.013551045 0.070073374 0.45989433
0.013190575 0.067206562 0.46464023
0.013251178 0.063746974 0.46784177
0.012044411 0.069125116 0.45570451
0.010785162 0.067836098 0.45980218
0.010722779 0.065625072 0.46309164
0.01097269 0.063758902 0.46610668
-0.001779262 0.069467552 0.45940575
-0.0021177009 0.067362107 0.46277937
-0.0055207759 0.068321064 0.45847088
-0.0060432702 0.06669952 0.46180162
-0.0086791962 0.067010149 0.45812273
-0.0092502758 0.065452166 0.46107265
0.062368635 0.065740012 0.46430513
0.06244199 0.063969597 0.46688154
0.05874576 0.07047338 0.45510799
0.059548274 0.067998603 0.4579505
0.060752984 0.065017931 0.4618369
0.060310714 0.061408985 0.46724364
0.058208033 0.060167886 0.47108942
0.056680571 0.058951359 0.47440916
0.053527515 0.073161125 0.4512288
0.055494837 0.070523307 0.45287901
0.057064693 0.066764049 0.45541039
0.055350006 0.057576146 0.47084659
0.053125337 0.057259012 0.47495469
0.050778814 0.057385579 0.47783273
0.049094841 0.075316414 0.44648391
0.051112752 0.073108003 0.4484109
0.052889455 0.069883004 0.45064548
0.050077472 0.055269148 0.47549328
0.048015654 0.055046581 0.47873312
0.045385092 0.054337122 0.48131463
0.04600545 0.075432695 0.44545481
0.045614608 0.072021455 0.44648787
0.042290121 0.053207647 0.47787967
0.042420972 0.053928319 0.48156437
0.040913299 0.075025916 0.44369698
0.042434197 0.071129814 0.44627178
0.038533114 0.068358593 0.45077357
0.038944118 0.066621415 0.45606232
0.037711699 0.065653466 0.45772627
0.036457069 0.060691368 0.46607774
0.037413076 0.059460841 0.46770111
0.036253143 0.055574242 0.47192246
0.039014526 0.052769314 0.47702506
0.036978483 0.052615028 0.48109981
0.036437266 0.074900843 0.4438152
0.034998976 0.071515046 0.44601798
0.035243511 0.069730729 0.45093042
0.036234446 0.069082595 0.45621538
0.034462154 0.065954521 0.45944723
0.03346226 0.062611759 0.46483818
0.034953497 0.061075628 0.4690868
0.032926761 0.056866538 0.47236264
0.031907246 0.053587284 0.47620675
0.032795757 0.052992664 0.48033103
0.033192374 0.076220125 0.44552082
0.032785095 0.073725671 0.44728076
0.032460723 0.072293341 0.45013347
0.028275995 0.06509202 0.455511
0.029508695 0.065049931 0.45912278
0.02920798 0.062433209 0.46344543
0.027265392 0.059659261 0.4648084
0.030026818 0.057934985 0.47442028
0.029744953 0.055874657 0.47720632
0.024759535 0.066777311 0.45499551
0.026417585 0.066754043 0.45788825
0.025488056 0.062670656 0.46466109
0.023502432 0.060172684 0.46575344
0.020060983 0.067967884 0.45306566
0.018544659 0.059944056 0.46663308
0.015637647 0.06975659 0.45177603
0.015425615 0.068720773 0.45211813
0.013546851 0.060158696 0.46662295
0.011442732 0.066806629 0.45365682
0.0088795349 0.064886436 0.45686954
0.0087451786 0.062160324 0.46121591
0.010541901 0.060940787 0.46446988
-0.0063659623 0.065391213 0.45714357
-0.0069646835 0.063954137 0.45963097
-0.0084913075 0.06488578 0.45654979
-0.0091446415 0.063326575 0.45961842
0.057428628 0.064643502 0.45830226
0.059269149 0.062298011 0.46188074
0.059228919 0.060529556 0.46473664
0.056962654 0.059160225 0.46759272
0.054245256 0.067257367 0.45247421
0.054859597 0.064598665 0.45552239
0.05475973 0.060704228 0.45965484
0.054275256 0.058103308 0.46351206
0.053454977 0.056825116 0.46873197
0.051972311 0.055402715 0.47197902
0.049564045 0.069031507 0.44769558
0.050536327 0.066601641 0.45038781
0.050159544 0.062861226 0.45404297
0.050014369 0.059500355 0.45809641
0.049556207 0.056891773 0.46213844
0.048758231 0.055171922 0.46716586
0.048230425 0.053736467 0.47192162
0.046599522 0.052476659 0.47541162
0.046563052 0.068940014 0.44727755
0.045848936 0.065528229 0.44963726
0.045793679 0.062333986 0.45209461
0.046148192 0.057665676 0.45907381
0.047108244 0.057160728 0.4601042
0.04444867 0.053662065 0.46655115
0.04360982 0.052842651 0.47100672
0.043540329 0.052299757 0.47522584
0.039285667 0.07188347 0.44356295
0.040629208 0.070095211 0.44625735
0.040674087 0.066821031 0.44954842
0.039605912 0.063242547 0.45358801
0.038700819 0.059932008 0.45448393
0.037689678 0.055318709 0.46221706
0.03834004 0.055429149 0.46620113
0.038281526 0.053855039 0.47107285
0.037747882 0.05274123 0.47521785
0.035578161 0.051313736 0.47809961
0.0379529 0.072011545 0.44347715
0.037190184 0.070592023 0.44502315
0.036626682 0.062422875 0.45509595
0.034718283 0.061063286 0.45527411
0.034186941 0.056534156 0.46205741
0.035582408 0.05683304 0.4642604
0.03405112 0.052059222 0.4763982
0.029778348 0.06191067 0.45374018
0.031397875 0.062168799 0.4550961
0.029950455 0.058057234 0.46343771
0.028930889 0.056063719 0.46326053
0.024547115 0.063529357 0.45102435
0.023155943 0.055543482 0.46501142
0.021251839 0.063184932 0.45007378
0.019702107 0.054873906 0.46466511
0.01561803 0.063259378 0.45037118
0.014109116 0.055698454 0.46334565
0.010804914 0.062780626 0.45087385
0.0080206618 0.061003603 0.45348647
0.0076267347 0.057487503 0.45939749
0.0097034685 0.055873148 0.46202505
0.0073094629 0.059435863 0.45485583
0.007080093 0.058364656 0.4571566
0.047877874 0.058698781 0.45718762
0.047334932 0.056033544 0.46170974
0.045169532 0.060463279 0.45372051
0.045026019 0.058640782 0.45651838
0.044480722 0.055708945 0.46144459
0.043747209 0.054092191 0.46440253
0.042188764 0.060315844 0.45357543
0.040057823 0.05822533 0.45666778
0.039742693 0.056106824 0.46023965
0.041066773 0.054220747 0.463801
0.034882978 0.057848141 0.4557524
0.034229651 0.055574451 0.45930606
0.029608674 0.058539078 0.451628
0.031394139 0.056455906 0.45356959
0.030995131 0.053555332 0.45895031
0.028486662 0.052753657 0.46133605
0.023620948 0.059013017 0.4460687
0.024778198 0.059583202 0.44862199
0.023494281 0.051386897 0.46280026
0.021829206 0.049773604 0.46404752
0.023082901 0.059665825 0.44644451
0.021283824 0.059634797 0.44816118
0.019698892 0.051169552 0.46267629
0.021171708 0.049857177 0.46411791
0.015664268 0.058659643 0.44848794
0.014476284 0.051656738 0.46070611
0.011206966 0.058370657 0.44870791
0.0085827485 0.056318022 0.45156094
0.0082017183 0.053505845 0.45618609
0.01025432 0.051800653 0.45940331
0.0075815842 0.057882655 0.45349127
0.007359039 0.056541741 0.45553952
0.028957479 0.052934244 0.45250985
0.028567694 0.050931856 0.45603913
0.024969015 0.054472208 0.44820252
0.02607269 0.051297754 0.4503409
0.025652457 0.048510391 0.45532206
0.02397275 0.048296019 0.45872995
0.020996094 0.054374203 0.44671747
0.022551347 0.046456799 0.45543948
0.019626603 0.047194291 0.45888016
0.016149379 0.054130211 0.44690937
0.014074057 0.051494561 0.44718695
0.012940347 0.046998378 0.45497915
0.014878549 0.047666378 0.45772639
0.012336526 0.05471725 0.44771788
0.01095324 0.05206202 0.44936147
0.010425359 0.049527958 0.45363012
0.011603896 0.048942879 0.45711583
0.023821265 0.04871282 0.45043159
0.023931932 0.047650836 0.45260498
0.021070339 0.051143572 0.44670808
0.019654229 0.046960775 0.44832858
0.019323427 0.045050271 0.45115983
0.019175887 0.045295406 0.45554894
0.018063843 0.05093655 0.44626614
0.015947245 0.046693243 0.4478943
0.01525186 0.044804875 0.45089042
0.0163946 0.045404758 0.45526069
0.012668476 0.048839729 0.44929805
0.01261868 0.047306865 0.45153385
0.034678791 0.03855899 0.4509843
0.034799479 0.037598267 0.45220193
0.032862432 0.038679384 0.45037988
0.018663839 0.043305516 0.44748479
0.018596537 0.042442195 0.44831565
0.016382582 0.043072142 0.44640118
0.015971966 0.041800454 0.44864753
0.013233174 0.043188997 0.44712803
0.013237756 0.04268422 0.44789773
0.039188169 0.036685437 0.45098791
0.03916714 0.035948098 0.45198724
0.035735518 0.036887862 0.44940737
0.035787731 0.036050133 0.45198721
0.030508216 0.037637703 0.44517019
0.031065574 0.036926664 0.44849917
0.032432616 0.035741203 0.4511413
0.027267363 0.036931612 0.4436596
0.02767455 0.035811041 0.44663116
0.020817723 0.037961636 0.44324812
0.019956905 0.036989823 0.44513848
0.01674125 0.038740091 0.44322294
0.016595885 0.037563384 0.44563103
0.030077836 0.035079859 0.44341296
0.030643582 0.033865955 0.4457753
0.026585415 0.034664914 0.44163814
0.026540514 0.033188783 0.44458291
0.021687888 0.034329984 0.44071099
0.021638777 0.034125898 0.44356319
0.018133614 0.035070725 0.44159931
0.018343948 0.034801885 0.44332948
