# .PCD v0.7 - Point Cloud Data file format
VERSION 0.7
FIELDS x y z
SIZE 4 4 4
TYPE F F F
COUNT 1 1 1
WIDTH 1190
HEIGHT 1
VIEWPOINT 0 0 0 1 0 0 0
POINTS 1190
DATA ascii
0.15060757 -0.094367839 0.93855602
0.15054765 -0.12418768 0.92347109
0.15061545 -0.084109358 0.93838233
0.15066455 -0.084819764 0.93739408
0.15049782 -0.093160138 0.93699569
0.15051046 -0.12408755 0.92117894
0.15064697 -0.12930608 0.91560733
0.15050021 -0.13036573 0.91500896
0.15036133 -0.085914202 0.93197054
0.15055278 -0.08862187 0.93014693
0.15016827 -0.093436256 0.92788595
0.15024695 -0.11679684 0.91603237
0.1504329 -0.12233589 0.91297281
0.15043029 -0.12541507 0.91314656
0.1504893 -0.12955573 0.91422123
0.15036684 -0.08533515 0.93042386
0.15055877 -0.088823006 0.92883754
0.15029103 -0.092254475 0.92645383
0.15021746 -0.1162408 0.91442752
0.1505613 -0.12035761 0.91258013
0.15033644 -0.12336449 0.91110182
0.15533359 -0.10416442 0.95566225
0.154952 -0.10706928 0.95440382
0.15508692 -0.12982468 0.94270581
0.15531757 -0.1321499 0.94137406
0.15350625 -0.10163671 0.9535163
0.15334101 -0.10621613 0.95207083
0.1546282 -0.10831804 0.94943774
0.1549672 -0.12503637 0.94102389
0.15368789 -0.12817587 0.9409948
0.15363443 -0.13215083 0.9382627
0.15484351 -0.095902182 0.94901693
0.15323263 -0.098328069 0.94979036
0.15298997 -0.10367608 0.94657665
0.15471753 -0.10643686 0.94639057
0.1551536 -0.12387799 0.93857163
0.15316632 -0.12563427 0.9360348
0.15325528 -0.13112828 0.9332993
0.15513724 -0.13166675 0.93045974
0.15415026 -0.094195247 0.94681424
0.15205896 -0.096823141 0.94487154
0.15413749 -0.1019934 0.94241506
0.15414178 -0.12342923 0.93189931
0.15218875 -0.12843992 0.92942882
0.1541182 -0.13086073 0.92772448
0.15327081 -0.090516761 0.94221443
0.15111434 -0.094448082 0.94084251
0.15362397 -0.10021613 0.93737566
0.15365535 -0.12043273 0.92720842
0.15114111 -0.12624578 0.92498446
0.15347576 -0.12944432 0.92281437
0.15303412 -0.084161967 0.93903977
0.15288579 -0.08705543 0.93763256
0.15125176 -0.09170042 0.9350912
0.1530638 -0.098143026 0.93342227
0.15301949 -0.11840381 0.92322952
0.15086681 -0.12437021 0.91935438
0.15305679 -0.12830417 0.9172501
0.15291284 -0.13075306 0.91540164
0.15216869 -0.083475552 0.93717539
0.15321311 -0.085464314 0.93387496
0.15329862 -0.090345487 0.93148309
0.15341705 -0.09492664 0.92866892
0.15341371 -0.11635194 0.91776013
0.15315911 -0.12109485 0.91589493
0.15318039 -0.12618905 0.91379136
0.15220904 -0.12966044 0.91375011
0.15237549 -0.084437087 0.92997777
0.1524944 -0.089030161 0.92803514
0.15267089 -0.092093535 0.925488
0.15272698 -0.11554532 0.91359764
0.15258113 -0.11945108 0.91257995
0.1523504 -0.12333082 0.91013575
0.15829116 -0.10407972 0.95583469
0.15825695 -0.10713235 0.9546417
0.15826948 -0.12991288 0.94284666
0.1577096 -0.13232665 0.94151342
0.15841021 -0.10133689 0.95420909
0.15895833 -0.1087631 0.95263094
0.15789917 -0.10887837 0.94979423
0.15783483 -0.1250526 0.94144058
0.15911102 -0.12745835 0.94299531
0.15861523 -0.1326706 0.93868929
0.15637365 -0.09584552 0.94871753
0.15826626 -0.097675815 0.95029753
0.1587669 -0.10472514 0.94439805
0.15809688 -0.10656095 0.94603556
0.1582409 -0.12354843 0.93807977
0.15827343 -0.12316206 0.93566179
0.15838611 -0.13169071 0.93305862
0.15610956 -0.13153414 0.93042409
0.15804628 -0.09396787 0.9460153
0.15918663 -0.095337443 0.94560677
0.15778716 -0.10243577 0.94169194
0.15782708 -0.12236713 0.93170059
0.15869263 -0.129981 0.92865729
0.15775467 -0.13036393 0.9273259
0.15729989 -0.09082301 0.94220644
0.15915726 -0.094493143 0.94042146
0.15786526 -0.099172324 0.93830335
0.15790915 -0.12159774 0.92736334
0.15920785 -0.12582412 0.92465144
0.15739095 -0.12934163 0.92314994
0.15653396 -0.088377684 0.93846697
0.15753818 -0.092050768 0.93595898
0.15729898 -0.09626814 0.93371755
0.15732501 -0.11965995 0.92211151
0.15753713 -0.12375204 0.92006522
0.15648277 -0.12785707 0.91885424
0.15622997 -0.087301761 0.93380189
0.15679787 -0.089742944 0.93360704
0.15652421 -0.094349004 0.93029994
0.15647601 -0.11795166 0.91833675
0.15663177 -0.12266415 0.91663361
0.15630302 -0.12458073 0.91509211
0.16108838 -0.10456513 0.95517313
0.16104452 -0.10624334 0.95454609
0.16303436 -0.10103642 0.95335168
0.16362095 -0.10658473 0.95201463
0.16213445 -0.10770379 0.94895554
0.16178051 -0.12485089 0.94004828
0.16331425 -0.12790792 0.9409852
0.16322595 -0.13190289 0.93783909
0.16324812 -0.098525979 0.94934416
0.16384606 -0.10349909 0.94526505
0.16326362 -0.10675579 0.94620872
0.16315013 -0.12325521 0.93776453
0.16417903 -0.12431248 0.93480015
0.16319963 -0.13079894 0.9333787
0.16184305 -0.097604811 0.94519043
0.16246441 -0.101509 0.94402343
0.16240238 -0.12453681 0.9321059
0.16186389 -0.12784439 0.92999184
0.1675954 -0.10206971 0.95182174
0.16808483 -0.10539355 0.95129794
0.16808751 -0.12805431 0.93962026
0.16692892 -0.13041912 0.93748844
0.16784537 -0.10039689 0.94920838
0.16791505 -0.1039355 0.94659144
0.16633131 -0.10627649 0.94659996
0.16618586 -0.1238137 0.93781877
0.16773674 -0.12504785 0.93590492
0.16776808 -0.12938792 0.9345873
0.17000747 -0.10077369 0.94560802
0.16957173 -0.12558797 0.93303263
0.17005624 -0.12685977 0.93221438
0.17234841 -0.10236387 0.95070213
0.17293021 -0.10469175 0.95056379
0.17284696 -0.12793566 0.938779
0.17334223 -0.10005551 0.94900846
0.1734581 -0.10479236 0.94697744
0.1734672 -0.12500422 0.93683761
0.17331916 -0.12943301 0.93445146
0.17355716 -0.098435886 0.9454428
0.17345339 -0.10133095 0.94385064
0.17386168 -0.12399745 0.93200928
0.17339888 -0.12748413 0.93071425
0.17743474 -0.10450726 0.94993275
0.17688707 -0.12734573 0.93832707
0.17831656 -0.09959954 0.94916511
0.17848033 -0.10470563 0.94788885
0.17908172 -0.10582904 0.94491529
0.17924058 -0.12258067 0.93649113
0.17847236 -0.12618805 0.93725491
0.1784467 -0.12970731 0.93394786
0.17818451 -0.096977904 0.94467783
0.17745706 -0.10168215 0.94178492
0.17916912 -0.10457889 0.94229239
0.17906532 -0.12106024 0.93353021
0.17719477 -0.12252863 0.93096358
0.17813002 -0.12800212 0.92925775
0.17991397 -0.096571468 0.94156682
0.17976116 -0.099444136 0.94012159
0.17973927 -0.12225217 0.92837894
0.17943123 -0.12545389 0.92698556
0.1831919 -0.099149317 0.94941306
0.18319616 -0.10456561 0.9486993
0.18337385 -0.10655642 0.94506276
0.18319672 -0.12221543 0.93706131
0.18316159 -0.12640466 0.93745315
0.18335313 -0.13012975 0.93372756
0.18313894 -0.09548448 0.94539869
0.18314661 -0.10523476 0.94116813
0.18299213 -0.11983209 0.93368328
0.18312129 -0.12926888 0.92835408
0.18351296 -0.095037818 0.94042742
0.18318158 -0.098665863 0.93774402
0.18434264 -0.10246607 0.93721765
0.18363595 -0.11856567 0.92925978
0.18297757 -0.12129955 0.9260937
0.18348265 -0.1256678 0.92494315
0.18553729 -0.095366322 0.9367227
0.18557027 -0.09646561 0.93636137
0.18565984 -0.11782681 0.92601848
0.18534189 -0.12076367 0.92396563
0.18540171 -0.1233331 0.92287779
0.18806161 -0.099396214 0.948816
0.18814752 -0.10405841 0.9476828
0.18797669 -0.10627551 0.94454521
0.18782279 -0.12218 0.9365685
0.1880611 -0.12590218 0.93639898
0.18802711 -0.12948474 0.93343252
0.18800709 -0.09512721 0.94577974
0.1884717 -0.10546679 0.94077528
0.18837526 -0.11942069 0.93374217
0.18846542 -0.12970282 0.92846775
0.18816656 -0.093284458 0.94106895
0.18579569 -0.098093137 0.93594265
0.18842256 -0.10314149 0.93670982
0.18830127 -0.11746027 0.92940134
0.18791661 -0.12700427 0.92387289
0.18833047 -0.093161926 0.93602186
0.18839434 -0.096710443 0.93338078
0.1889479 -0.10024814 0.93358141
0.18872237 -0.11673722 0.92512316
0.18837759 -0.11856389 0.92217582
0.18851379 -0.12334145 0.92078811
0.19002271 -0.092226051 0.93217993
0.18982959 -0.094194435 0.93091542
0.18963942 -0.11823048 0.91882616
0.19002277 -0.12081742 0.91780907
0.19145399 -0.099510603 0.94715279
0.19160359 -0.1028723 0.94589037
0.1912339 -0.10519313 0.94381368
0.19155025 -0.12512916 0.93437845
0.19115472 -0.12809491 0.93282598
0.19276384 -0.096978597 0.94454384
0.19400418 -0.10154537 0.9428733
0.19232246 -0.10439815 0.94084603
0.19210428 -0.12036479 0.93306631
0.19384497 -0.1238052 0.93156248
0.19253391 -0.12765931 0.92926323
0.19342768 -0.094037503 0.94112486
0.19543606 -0.10026439 0.93968928
0.19287986 -0.10263817 0.93666625
0.19303572 -0.11793129 0.92902905
0.19540109 -0.12223917 0.92826635
0.19344045 -0.12648132 0.92472816
0.19301909 -0.091485329 0.93618405
0.19188285 -0.098098218 0.93174309
0.19379798 -0.09963271 0.93253821
0.19359879 -0.11620831 0.92381179
0.19147503 -0.11671411 0.9226644
0.19304335 -0.12439505 0.91981012
0.19339454 -0.090794548 0.93138754
0.19302875 -0.094272576 0.92857873
0.19434485 -0.097679801 0.9293949
0.19405806 -0.11495324 0.92061973
0.19269183 -0.11619473 0.9175446
0.19337022 -0.12095192 0.91632605
0.19517359 -0.092035376 0.92767203
0.19454485 -0.11695693 0.91498172
0.19457409 -0.11810818 0.91454631
0.1979166 -0.095063381 0.93875957
0.19770852 -0.098584116 0.93762702
0.19806117 -0.10129707 0.93557739
0.19825819 -0.11793198 0.92733955
0.19767034 -0.12114467 0.92614812
0.19784585 -0.1240251 0.92394561
0.19815829 -0.09166383 0.93590516
0.19769005 -0.097022094 0.93638009
0.19795492 -0.099970132 0.93210632
0.1979166 -0.11576401 0.9242478
0.19777913 -0.12088856 0.92426378
0.19815019 -0.12398981 0.92005378
0.19796465 -0.090817437 0.93127
0.1980484 -0.094332494 0.92793888
0.19811209 -0.098042242 0.92909068
0.19794267 -0.11440659 0.92047656
0.1984258 -0.11600184 0.91681749
0.1979875 -0.12089383 0.9162935
0.19643429 -0.09208034 0.92762351
0.19645172 -0.11620255 0.91538411
0.19601963 -0.1185177 0.91448408
0.20459172 -0.10897049 0.95352978
0.20429358 -0.11212324 0.95287335
0.20441592 -0.11674745 0.95103025
0.20416467 -0.12105211 0.9489063
0.20413575 -0.1249335 0.94562966
0.20536342 -0.12717742 0.94400758
0.20519367 -0.10572828 0.95169157
0.20422766 -0.12560491 0.9438895
0.20437378 -0.12798476 0.94047809
0.20509613 -0.12970273 0.93726861
0.20553517 -0.10262968 0.95002431
0.20519152 -0.12847018 0.93691933
0.20539999 -0.12948111 0.93540627
0.20491779 -0.097983927 0.94235975
0.2037126 -0.10061926 0.94208831
0.20414096 -0.10462058 0.9396776
0.20394503 -0.11929195 0.93197405
0.20404869 -0.12362853 0.93048584
0.20493257 -0.12519035 0.92844409
0.20332363 -0.095535398 0.93985826
0.20146628 -0.099711068 0.9400475
0.20328 -0.1041469 0.93571466
0.20330241 -0.11596806 0.92952138
0.20168975 -0.12256622 0.92840028
0.2033509 -0.12464871 0.92494428
0.20319921 -0.092083156 0.93590409
0.20293194 -0.10118788 0.93143934
0.20329472 -0.11442932 0.92506474
0.20337567 -0.12371608 0.9201414
0.20266634 -0.092018202 0.93241447
0.20305845 -0.094825499 0.93000942
0.20352939 -0.098278984 0.92916524
0.20332599 -0.11432032 0.92079324
0.20294788 -0.11719946 0.91844332
0.20279744 -0.12107416 0.91769481
0.20857728 -0.10807268 0.95443428
0.2080531 -0.1123776 0.95379275
0.20816556 -0.11726394 0.95201379
0.20790656 -0.12121189 0.94937891
0.20820218 -0.12573776 0.94669187
0.20889446 -0.12783843 0.94438761
0.20801555 -0.10251667 0.95110708
0.20779449 -0.10574197 0.95223874
0.20892653 -0.10986432 0.95085967
0.209406 -0.11581393 0.94878465
0.20927325 -0.11994398 0.94661885
0.20835827 -0.12361108 0.94255924
0.20770314 -0.12839708 0.94088507
0.20853929 -0.12998055 0.93731606
0.20752099 -0.10059128 0.94889939
0.2083751 -0.10364354 0.94681138
0.20931107 -0.10727346 0.94418341
0.2105633 -0.10966811 0.94234359
0.20944977 -0.12151057 0.93732983
0.20806521 -0.12538616 0.93591732
0.20804518 -0.12964477 0.93417871
0.20853683 -0.097597934 0.94421911
0.20688367 -0.10142493 0.94446719
0.20683253 -0.10646026 0.94101185
0.20866407 -0.1083344 0.93844908
0.20863268 -0.11613857 0.93470049
0.20697206 -0.11912604 0.93456596
0.20712809 -0.12525825 0.93235493
0.20813864 -0.12736282 0.92899925
0.20884173 -0.095007077 0.94091743
0.20793943 -0.10457005 0.9339512
0.20807183 -0.10652369 0.9357264
0.20828064 -0.11486378 0.93142885
0.20809847 -0.1144953 0.92888522
0.2088549 -0.12594253 0.92503136
0.2079913 -0.093081087 0.93549436
0.20914423 -0.095614098 0.93255681
0.20803839 -0.10099773 0.93155664
0.20817307 -0.11464901 0.92485124
0.20930232 -0.11884932 0.92073435
0.20795608 -0.12275805 0.92040867
0.20692982 -0.096114352 0.9304921
0.20637372 -0.098310664 0.92970014
0.2072247 -0.11504966 0.9211632
0.2070159 -0.11699559 0.91981578
0.2063702 -0.12064739 0.91875029
0.21314985 -0.10805206 0.95465487
0.21322373 -0.11284941 0.95484161
0.21333829 -0.11775278 0.95322883
0.21295947 -0.121786 0.95071006
0.2129032 -0.12601353 0.94779932
0.2132248 -0.12885365 0.94402641
0.21368733 -0.10263256 0.95265073
0.21309641 -0.10493656 0.95381689
0.21294567 -0.11018582 0.94837439
0.21385212 -0.11446673 0.94756597
0.21315321 -0.11930453 0.94518292
0.21363392 -0.12162734 0.94171143
0.21302262 -0.12984517 0.94075066
0.21352693 -0.13059638 0.93781078
0.2138539 -0.09950126 0.94904649
0.21087752 -0.1066725 0.94787067
0.21200287 -0.10921566 0.94581938
0.21303146 -0.11093366 0.94253075
0.21299112 -0.11767446 0.93887651
0.2119126 -0.12165654 0.93945968
0.21339385 -0.13015032 0.93427736
0.2130776 -0.09642674 0.9449597
0.21253891 -0.10941269 0.93896031
0.2127482 -0.11570614 0.93536568
0.21355724 -0.12883036 0.92899132
0.21244565 -0.09401574 0.94023257
0.21345764 -0.10468376 0.93457359
0.21348777 -0.10699551 0.93332553
0.21351321 -0.11191148 0.93088263
0.21336851 -0.1151692 0.92909354
0.21316269 -0.12640963 0.92444056
0.21280959 -0.093453489 0.93601465
0.21307102 -0.096599139 0.93353784
0.21242997 -0.10142987 0.93186516
0.21256745 -0.10598595 0.92963421
0.21273434 -0.11083402 0.92812788
0.21288477 -0.11507436 0.92459124
0.21317115 -0.11914121 0.92186153
0.21240275 -0.12332506 0.92182297
0.21821831 -0.1187573 0.9538033
0.21968785 -0.12201649 0.95211154
0.21829887 -0.1082557 0.95473349
0.21845457 -0.11306828 0.95500553
0.21817179 -0.11741301 0.95367467
0.2175689 -0.12199407 0.9512257
0.21874166 -0.12700373 0.94802427
0.2182222 -0.12962019 0.94422531
0.21820898 -0.10264991 0.9523316
0.21847798 -0.10487871 0.95366323
0.2161811 -0.11155238 0.94704092
0.21832171 -0.1141062 0.94575381
0.21806505 -0.11825032 0.94356734
0.21795762 -0.13054122 0.94113368
0.21862978 -0.13093953 0.93832421
0.21793774 -0.10001952 0.94930041
0.21826862 -0.11207828 0.9428106
0.21846829 -0.11746863 0.94047332
0.21836451 -0.13030127 0.93388265
0.21842887 -0.097130328 0.94464588
0.21879689 -0.10904152 0.93892628
0.21836951 -0.11607783 0.93557316
0.22024229 -0.11603458 0.93299365
0.2181143 -0.12856412 0.92865998
0.21783149 -0.095282249 0.94043189
0.21975029 -0.097522736 0.93680918
0.21799472 -0.10511044 0.9360258
0.2183087 -0.10841247 0.93341285
0.21815586 -0.11219438 0.93063289
0.21795821 -0.1157171 0.93072921
0.21965353 -0.12261074 0.9248867
0.21795486 -0.12572125 0.92513454
0.21671201 -0.095246464 0.93668079
0.2172946 -0.097837716 0.93519008
0.21768986 -0.10226972 0.93291777
0.21767691 -0.10605195 0.93125039
0.21755442 -0.11097932 0.92921436
0.21780749 -0.11525751 0.92585808
0.2178501 -0.11957143 0.92440516
0.21636319 -0.12237749 0.92284465
0.22544841 -0.11551939 0.95569807
0.22383948 -0.11843681 0.95414108
0.22389351 -0.12168812 0.95244902
0.22515514 -0.12530011 0.95041609
0.22356822 -0.10865399 0.95487243
0.22298436 -0.11259326 0.95507562
0.22326483 -0.11793036 0.95358866
0.2239136 -0.12346081 0.95075887
0.22313847 -0.12664539 0.94840837
0.22315401 -0.12957467 0.94423199
0.22331528 -0.10247386 0.95160717
0.22360492 -0.10481463 0.95315892
0.22357985 -0.13055642 0.94098741
0.2231828 -0.1305439 0.93812358
0.223272 -0.10050306 0.94858789
0.22249363 -0.11300662 0.94178283
0.22244628 -0.11595616 0.94012409
0.22336455 -0.12954269 0.93399942
0.22341542 -0.098449931 0.94438362
0.22483686 -0.098360866 0.9415589
0.22262362 -0.11004382 0.93818963
0.22263746 -0.11490911 0.9360128
0.2236128 -0.12724166 0.92944342
0.22199526 -0.096947223 0.94060576
0.22334258 -0.098616637 0.9380433
0.22319786 -0.10251487 0.93440711
0.22336403 -0.10762001 0.93219495
0.22340667 -0.1114544 0.92954361
0.2243342 -0.11645977 0.92754138
0.2237585 -0.1213122 0.92646748
0.22255164 -0.12491444 0.92624253
0.22222126 -0.10181791 0.93360347
0.22249888 -0.10588964 0.93160784
0.22367531 -0.11187863 0.92879391
0.22206888 -0.11558077 0.92661619
0.22156733 -0.11856353 0.92553878
0.22881252 -0.11086135 0.95793307
0.22838046 -0.11423983 0.95720291
0.22821635 -0.11891636 0.95575911
0.22809991 -0.12331588 0.95316839
0.2283417 -0.12736872 0.95048743
0.22827756 -0.12997371 0.9483822
0.22810844 -0.10799514 0.95625234
0.22724174 -0.11186431 0.95662236
0.22586054 -0.12327383 0.95118105
0.22641569 -0.12774824 0.94841397
0.22803867 -0.13058107 0.94483966
0.2283859 -0.10272492 0.95251495
0.22768876 -0.10429347 0.95313334
0.22645086 -0.12996355 0.94033027
0.22862589 -0.13079108 0.9386822
0.22824052 -0.10071383 0.94852883
0.22792761 -0.12891765 0.93414968
0.22799963 -0.09948577 0.94531405
0.22861406 -0.099689797 0.94252759
0.22879873 -0.12428905 0.92985803
0.22769807 -0.12699327 0.93103218
0.22836523 -0.10058407 0.93865019
0.22828126 -0.10306594 0.93538851
0.22762546 -0.10667461 0.93234271
0.22737446 -0.11191097 0.9296847
0.22845146 -0.11687392 0.9283303
0.22789928 -0.12108998 0.92833459
0.22959855 -0.10731128 0.93087399
0.22916709 -0.11110896 0.92897356
0.22961444 -0.11408467 0.92775398
0.23219007 -0.1145042 0.95670676
0.23318277 -0.11872188 0.95502764
0.23317504 -0.12311642 0.95308644
0.23226838 -0.12680365 0.95042485
0.2326061 -0.10806023 0.95489049
0.23382838 -0.1123144 0.95515853
0.23508431 -0.11638493 0.9544757
0.2351267 -0.12414449 0.95059556
0.2338222 -0.12698951 0.94812101
0.23300999 -0.12917292 0.94444257
0.23113862 -0.13162735 0.94176644
0.23187158 -0.10306475 0.95250821
0.23353307 -0.10556105 0.95199841
0.23438247 -0.12848885 0.94079608
0.23200497 -0.13062188 0.93858665
0.23150305 -0.10104425 0.94825447
0.23433599 -0.10285808 0.94760084
0.23464514 -0.12640834 0.93543792
0.23204875 -0.12885125 0.93523204
0.23174489 -0.099853568 0.94564307
0.23337986 -0.10107477 0.9428407
0.23462127 -0.10410105 0.93936598
0.23476759 -0.11940668 0.93162161
0.23400985 -0.12395477 0.93134779
0.23114055 -0.12691291 0.93141901
0.2325128 -0.10073685 0.93890506
0.23269176 -0.10365515 0.93587333
0.23307434 -0.10783305 0.9335016
0.23312271 -0.112569 0.93115711
0.23289591 -0.11676274 0.92915124
0.23285688 -0.12112324 0.92854071
0.23116414 -0.10638922 0.93133515
0.2310881 -0.11111945 0.92901331
0.23102961 -0.11443096 0.92767358
0.23550254 -0.08524134 0.88710779
0.23520845 -0.088684291 0.88545018
0.23511788 -0.083930239 0.88395816
0.23494308 -0.087252811 0.88251466
0.23528434 -0.08348988 0.88094884
0.23510769 -0.085121371 0.88006425
0.23817641 -0.11962853 0.95406431
0.23783994 -0.12193639 0.95300043
0.23637013 -0.10885803 0.953309
0.23820102 -0.11229405 0.95364606
0.23824883 -0.11649925 0.95388436
0.23864169 -0.1235289 0.95036745
0.23820488 -0.12564704 0.94729149
0.23739363 -0.12743098 0.943977
0.23730011 -0.10698735 0.95078343
0.23995642 -0.10867784 0.95069611
0.23990089 -0.12582642 0.94209433
0.23752263 -0.12673914 0.94083422
0.23676232 -0.1047693 0.94675142
0.23938143 -0.10667631 0.9450568
0.23927008 -0.12245083 0.93710834
0.23698144 -0.12482139 0.93678075
0.23601814 -0.10364619 0.94337273
0.23797381 -0.1059777 0.94043446
0.23986955 -0.10962709 0.93638259
0.23992227 -0.11376766 0.93422854
0.23804706 -0.11912605 0.93393379
0.2360163 -0.12243398 0.93341887
0.2364025 -0.10609329 0.9369933
0.23724058 -0.10882085 0.93509871
0.23752026 -0.11289486 0.93317288
0.23625521 -0.11654918 0.93177325
0.2403837 -0.088272937 0.92428792
0.24057214 -0.089266196 0.92402858
0.24065033 -0.11576916 0.9107067
0.24042338 -0.11672535 0.91018224
0.24007884 -0.087064043 0.92223155
0.24010731 -0.089427888 0.92022651
0.2404929 -0.10922331 0.90831476
0.24012826 -0.11284462 0.90856427
0.24010901 -0.11571391 0.9078033
0.24035025 -0.086043999 0.91853374
0.23992397 -0.088206604 0.91583967
0.24000601 -0.090720415 0.91384619
0.24000153 -0.10687557 0.90573859
0.23994252 -0.10998962 0.90485108
0.24035579 -0.11347045 0.90489602
0.24010469 -0.08717823 0.9116652
0.23983154 -0.090007938 0.90901577
0.24023265 -0.091588661 0.90622616
0.24062401 -0.10040139 0.90225613
0.23978326 -0.10347736 0.90223074
0.24000524 -0.10721686 0.90151161
0.23993108 -0.089721277 0.90461993
0.23942696 -0.09149155 0.90242654
0.23954058 -0.097261161 0.89947373
0.23991655 -0.10069795 0.89939535
0.24031112 -0.087473527 0.8988142
0.23930231 -0.090332337 0.89794791
0.23959595 -0.094677471 0.89610285
0.24033627 -0.097016454 0.89440423
0.24051684 -0.086560763 0.89661521
0.23882413 -0.087625369 0.89349198
0.23911378 -0.092011482 0.890984
0.24022964 -0.095590413 0.89185679
0.23814535 -0.086031102 0.88851273
0.23829168 -0.089447655 0.88686478
0.23640743 -0.08420907 0.88460743
0.23630071 -0.087222427 0.88296294
0.23624502 -0.08319246 0.88111639
0.23602206 -0.085257381 0.88011432
0.24341033 -0.1194175 0.95380324
0.24320076 -0.12157558 0.95283431
0.24320526 -0.11253494 0.95243424
0.24321188 -0.11662449 0.95318872
0.24344718 -0.12295017 0.94983423
0.24291599 -0.12465278 0.94661623
0.24498525 -0.1066851 0.94927126
0.24358648 -0.10920038 0.95037693
0.24330902 -0.12511745 0.94241518
0.24484396 -0.12545909 0.9398182
0.24456131 -0.10478371 0.94633424
0.24227825 -0.106764 0.9450677
0.2423552 -0.12231573 0.93726552
0.24457461 -0.12437835 0.9364661
0.24450625 -0.1041844 0.94356024
0.24343282 -0.10629705 0.94052243
0.24190712 -0.1082129 0.93731534
0.241797 -0.11546755 0.93365538
0.24342196 -0.11885181 0.93408549
0.24458718 -0.12261812 0.93437296
0.24507073 -0.10563198 0.93721265
0.24339265 -0.10872126 0.93490195
0.24318177 -0.11313893 0.9327926
0.24504681 -0.11649732 0.93165433
0.24350373 -0.087832123 0.92619306
0.24271177 -0.090305492 0.92396969
0.24282575 -0.11513393 0.9115774
0.24350251 -0.11852419 0.91085607
0.24284914 -0.085072175 0.92261511
0.24272475 -0.091299906 0.92083472
0.24358863 -0.092961602 0.91768336
0.24355099 -0.1088319 0.90993822
0.2426499 -0.11234865 0.91052747
0.24290523 -0.11731355 0.90658504
0.24357462 -0.084336095 0.91766268
0.24161239 -0.085437357 0.91510057
0.24289076 -0.092918187 0.91354817
0.24295701 -0.10504851 0.90738291
0.24166009 -0.11129424 0.90233397
0.24365643 -0.11381458 0.90290207
0.24485989 -0.084286645 0.91449589
0.24350254 -0.085444182 0.91139108
0.24205719 -0.092015453 0.90954304
0.24301822 -0.092655867 0.90698403
0.24304637 -0.10031956 0.90343809
0.24159461 -0.10257925 0.90436524
0.24329212 -0.10833777 0.90004283
0.24462754 -0.11142606 0.90104604
0.24420124 -0.08629398 0.90794235
0.24309795 -0.087860122 0.90442777
0.24307083 -0.093152225 0.90193003
0.24294743 -0.096060745 0.9007436
0.24304891 -0.10136275 0.89746213
0.24375388 -0.10489721 0.89845431
0.24323882 -0.086840324 0.89942169
0.24371013 -0.092518471 0.89750743
0.24378221 -0.092591256 0.89697391
0.24316224 -0.098014742 0.89387041
0.24363051 -0.084722161 0.8951056
0.2427962 -0.088404901 0.89273351
0.24303347 -0.091109172 0.89121622
0.24350071 -0.095615037 0.8897627
0.24397951 -0.082725689 0.89075524
0.24214342 -0.08590544 0.88862461
0.24290285 -0.089137271 0.88708287
0.2436628 -0.093029246 0.8852855
0.24429792 -0.081986055 0.88757384
0.24348916 -0.083480924 0.88418758
0.24309814 -0.087490477 0.88209742
0.24391337 -0.091274112 0.88241851
0.24347809 -0.081692263 0.87984723
0.24285841 -0.085111752 0.87812793
0.24357814 -0.079958171 0.87624788
0.2428918 -0.083405286 0.87445199
0.24845976 -0.11938377 0.95400935
0.24829088 -0.12191705 0.95266312
0.249722 -0.1089778 0.95357025
0.24834047 -0.11284271 0.95288616
0.24772891 -0.11616579 0.95320106
0.24769887 -0.12305214 0.9498806
0.24833617 -0.12503372 0.94667625
0.24943565 -0.12772727 0.94399333
0.24856515 -0.10676312 0.95110536
0.24648547 -0.10988652 0.95162046
0.24646351 -0.12556681 0.94389284
0.24852709 -0.12704481 0.94100505
0.24777937 -0.1040221 0.94658309
0.24584045 -0.1047497 0.94381541
0.24594629 -0.12261979 0.93507218
0.24799365 -0.1252237 0.93605763
0.2487718 -0.10281003 0.94247937
0.24712192 -0.10397586 0.94017816
0.24712771 -0.11996374 0.93207759
0.2488002 -0.12254158 0.93267012
0.24858806 -0.10402054 0.93666911
0.24773002 -0.10748617 0.93318576
0.24760044 -0.11231297 0.93080217
0.24839087 -0.11735178 0.93012714
0.25034371 -0.10680857 0.93134344
0.24995756 -0.11090545 0.9294579
0.25055721 -0.086349286 0.93116611
0.24955572 -0.08891654 0.93061709
0.25033724 -0.11795425 0.91515279
0.24960878 -0.12097906 0.91438061
0.25057688 -0.12305468 0.91281849
0.24989353 -0.084625833 0.92853981
0.24774402 -0.087417312 0.92816347
0.24849179 -0.091477916 0.92440343
0.24862392 -0.11509284 0.91297901
0.24781257 -0.1202162 0.91162837
0.24988411 -0.12219851 0.90979964
0.24883384 -0.083724305 0.92544425
0.24818337 -0.085077092 0.92209065
0.24862434 -0.090259351 0.91985267
0.24707025 -0.092252851 0.91755873
0.24714826 -0.10878491 0.9092685
0.24872161 -0.11208688 0.90896791
0.24809651 -0.11705218 0.90613967
0.24905156 -0.12041427 0.90717858
0.24717064 -0.083987251 0.91770875
0.24914208 -0.087978706 0.91638255
0.24753438 -0.091855973 0.91357207
0.24755566 -0.10551272 0.90630412
0.2491627 -0.11056518 0.90500069
0.24714944 -0.11408129 0.90265965
0.24672163 -0.084185757 0.91466808
0.24744882 -0.085954152 0.91161281
0.24794258 -0.089820929 0.90917557
0.246224 -0.092100881 0.9062683
0.24627027 -0.10050631 0.90289932
0.2479157 -0.10352951 0.90237719
0.24742572 -0.10801189 0.9005391
0.24633113 -0.11159773 0.90098923
0.24680318 -0.088851675 0.90445292
0.24749957 -0.09135358 0.90209383
0.24735577 -0.097006485 0.89936799
0.24686463 -0.10012831 0.89819217
0.2461189 -0.10450743 0.89863241
0.24820215 -0.086943664 0.89950764
0.24785009 -0.092114441 0.8979733
0.2478153 -0.093297146 0.89730072
0.24841903 -0.098176479 0.89385575
0.24815799 -0.084717155 0.89499044
0.24808639 -0.089178197 0.89219469
0.24808006 -0.090759814 0.89167023
0.24824515 -0.0960292 0.88941061
0.24805623 -0.083532587 0.89145994
0.24789163 -0.084526062 0.88906974
0.24853107 -0.088341661 0.88763124
0.24799567 -0.093400657 0.8854593
0.24806228 -0.0842022 0.88550162
0.24825257 -0.0886278 0.88299692
0.2498081 -0.091253221 0.88277578
0.25335634 -0.11876132 0.95423865
0.25336412 -0.12236235 0.95261198
0.25321248 -0.10919644 0.9535802
0.25331095 -0.11240777 0.95412409
0.25251466 -0.11600339 0.9543215
0.25266826 -0.1242121 0.95032334
0.25335953 -0.12616205 0.9471522
0.25315022 -0.12761967 0.94413608
0.253234 -0.10660552 0.95158315
0.25125453 -0.1268442 0.94380575
0.25312027 -0.1275187 0.94107825
0.25303206 -0.10270375 0.94767565
0.25332734 -0.12684104 0.93596435
0.25520909 -0.098950893 0.94415855
0.25280866 -0.10051598 0.94237536
0.25286105 -0.12399806 0.93076169
0.25520656 -0.1258513 0.92990023
0.25410426 -0.10037445 0.93809021
0.25191459 -0.10231364 0.93544388
0.25177413 -0.11744171 0.92809403
0.2539334 -0.12048233 0.928119
0.25501472 -0.088602334 0.93558836
0.2540935 -0.090974115 0.93486029
0.25539893 -0.099937692 0.93477762
0.25392753 -0.10137841 0.93190533
0.25328574 -0.10609783 0.92889994
0.25309819 -0.11011883 0.926929
0.25386214 -0.11493106 0.92509997
0.25525904 -0.11897258 0.92262828
0.25442713 -0.1229434 0.91867095
0.25533259 -0.12489951 0.91700876
0.25314495 -0.086010545 0.93300122
0.2518906 -0.090173513 0.93236321
0.25398678 -0.093374833 0.92924744
0.25555795 -0.10189427 0.92834932
0.25569943 -0.11198614 0.92307949
0.25386494 -0.11733283 0.91720611
0.25216547 -0.12229479 0.91653597
0.25320789 -0.12464401 0.91359359
0.25275111 -0.084285796 0.92943555
0.25435558 -0.085996106 0.92594433
0.25290945 -0.092960186 0.92458481
0.25306106 -0.1140681 0.91424072
0.25444469 -0.11949396 0.90933138
0.25265092 -0.12306522 0.91004646
0.25129482 -0.083945408 0.92579132
0.25270009 -0.086706564 0.92283779
0.25285977 -0.090095863 0.92126924
0.25301301 -0.1133035 0.90959609
0.25233361 -0.11640973 0.90774828
0.25115019 -0.12049543 0.90746325
0.25267178 -0.086873025 0.89863801
0.25338146 -0.090407662 0.89837325
0.25338006 -0.094354674 0.89608806
0.25261608 -0.097440831 0.89326239
0.25307521 -0.086359359 0.89641827
0.25316113 -0.086938635 0.89295238
0.25338235 -0.090902232 0.89031953
0.25301 -0.095237464 0.88992685
0.25117189 -0.083469838 0.89053768
0.25354916 -0.085626647 0.88929367
0.25307184 -0.09017995 0.88722056
0.25198063 -0.093054712 0.88537943
0.2531628 -0.083432823 0.88446921
0.25266954 -0.087719858 0.88184047
0.25191957 -0.090687186 0.88135517
0.25397345 -0.08161594 0.88004112
0.25332803 -0.085600466 0.87769294
0.25454506 -0.079618499 0.87598634
0.25420466 -0.083566085 0.8737824
0.25791961 -0.11898363 0.954561
0.25790808 -0.12289343 0.95280129
0.25734943 -0.1091333 0.95299351
0.25818673 -0.11220846 0.95379692
0.25829244 -0.11629982 0.95391268
0.25858885 -0.12382678 0.95025969
0.25828972 -0.12592341 0.94689167
0.25861782 -0.12706253 0.94383734
0.25941151 -0.10202477 0.95155948
0.258313 -0.10624667 0.95154917
0.26049459 -0.12686376 0.94386643
0.25825 -0.12770152 0.94080371
0.25951481 -0.13027035 0.93736857
0.25889853 -0.099442907 0.94911593
0.25652406 -0.10236046 0.94886446
0.25649822 -0.12781277 0.93585533
0.25893429 -0.12988633 0.93401945
0.25814143 -0.097664893 0.94453698
0.25812191 -0.12733035 0.92988127
0.26026911 -0.090315215 0.94017345
0.25981319 -0.095255755 0.93940854
0.2584042 -0.098679438 0.93787116
0.25849774 -0.12150915 0.92643267
0.2598556 -0.12489888 0.92482233
0.26036674 -0.12802334 0.92153138
0.25866464 -0.087968141 0.93767953
0.25713393 -0.092885017 0.93655783
0.25875649 -0.097088717 0.93375826
0.2567063 -0.099420778 0.93203396
0.25757852 -0.10648602 0.92650354
0.25806713 -0.10748918 0.92612535
0.25695169 -0.11639692 0.92348927
0.25860277 -0.11909524 0.92270166
0.2574138 -0.12420677 0.92093128
0.2586965 -0.12744319 0.91800499
0.25810432 -0.086133227 0.93357265
0.25850713 -0.094390988 0.9295513
0.25865269 -0.0997409 0.92833632
0.25882751 -0.10423639 0.92654091
0.25868264 -0.10907836 0.92399937
0.25823456 -0.11350656 0.92135888
0.25840703 -0.11700727 0.91822886
0.25790685 -0.12525354 0.91407609
0.25830022 -0.085828021 0.92989939
0.25836426 -0.087905809 0.92699289
0.25809917 -0.09179531 0.92492336
0.25834501 -0.11512305 0.91335088
0.2581239 -0.11922286 0.91131687
0.25818884 -0.12279494 0.91166061
0.25597104 -0.088233277 0.92365646
0.25641465 -0.089892536 0.92277485
0.26021141 -0.099001467 0.91364962
0.26011866 -0.10114238 0.9124459
0.25664324 -0.11456589 0.91053289
0.2559979 -0.11634048 0.90958172
0.25911039 -0.09585081 0.91062301
0.2591736 -0.10007595 0.9084543
0.25926322 -0.095352858 0.90812135
0.25942552 -0.098876685 0.90659744
0.2560271 -0.086763158 0.89746082
0.25773796 -0.088981777 0.8967973
0.25734159 -0.093923792 0.89423716
0.2563788 -0.095961988 0.89269513
0.25653177 -0.086412907 0.89642709
0.2584317 -0.088008933 0.89319998
0.25852638 -0.092018977 0.8910653
0.25651717 -0.095133901 0.89077449
0.26007682 -0.087811753 0.88999414
0.25950703 -0.090896487 0.88847649
0.25633696 -0.080855161 0.87925529
0.25581354 -0.084900834 0.87542659
0.25689766 -0.079525918 0.87590414
0.25605783 -0.083421841 0.87363398
0.26152283 -0.11976335 0.95388484
0.26159021 -0.12197829 0.95282274
0.26237512 -0.11239703 0.95274961
0.26323476 -0.11685681 0.95204228
0.2634584 -0.12186742 0.94982046
0.26243731 -0.12505944 0.94627202
0.26141497 -0.10241154 0.95126098
0.2630994 -0.1055669 0.95135856
0.26406792 -0.10993605 0.95135301
0.26394796 -0.12552832 0.94336182
0.26304629 -0.12795466 0.94009203
0.26121563 -0.12988117 0.93782443
0.26293945 -0.099721424 0.94846827
0.26461798 -0.10229328 0.9488734
0.26447666 -0.12799358 0.93599439
0.26282266 -0.12919262 0.93369132
0.26550925 -0.093702964 0.9446072
0.26369917 -0.095924705 0.94598472
0.26357019 -0.12944959 0.92910671
0.26520151 -0.12963681 0.92641103
0.26377973 -0.090388887 0.94154119
0.26212195 -0.094239354 0.94138801
0.26095182 -0.098194346 0.93629658
0.26096049 -0.12020072 0.92516893
0.26196069 -0.12675688 0.92523479
0.26369765 -0.12927444 0.92242038
0.26321706 -0.086990111 0.93852776
0.26185727 -0.097429641 0.93377125
0.26413366 -0.10729593 0.92570633
0.26194012 -0.11869366 0.92296022
0.2630623 -0.12897587 0.91765994
0.26328582 -0.085527539 0.93384612
0.26256782 -0.09538357 0.92856294
0.2635577 -0.099213451 0.92759937
0.26328859 -0.10419603 0.92566389
0.26327586 -0.10834986 0.92341053
0.26361501 -0.11270292 0.92053556
0.26253375 -0.11590018 0.91858917
0.26310036 -0.12597902 0.91339052
0.26293668 -0.085664168 0.93007749
0.26321521 -0.088016793 0.92788124
0.26281589 -0.091819108 0.92664617
0.26513702 -0.10091068 0.91818309
0.26496419 -0.10382079 0.91682446
0.26268241 -0.11652161 0.9142499
0.26320502 -0.11978511 0.91205913
0.26297948 -0.12295441 0.91150105
0.26390886 -0.09559758 0.91595775
0.26344785 -0.099118255 0.91643506
0.26334929 -0.10356439 0.91374528
0.26501468 -0.10512111 0.91084963
0.26324487 -0.093418121 0.91311181
0.26134026 -0.094733566 0.91203672
0.26181495 -0.10251445 0.90850616
0.26431054 -0.10445026 0.90743399
0.26404458 -0.089862481 0.90876126
0.26249722 -0.093750603 0.9064731
0.26253247 -0.098776847 0.90410501
0.26388732 -0.1029686 0.90242696
0.26533893 -0.090220362 0.9060421
0.26428854 -0.093677148 0.90339911
0.26451764 -0.097330734 0.90187854
0.26460958 -0.10071912 0.90080822
0.26227635 -0.088026211 0.89223212
0.2623542 -0.091599658 0.89045632
0.26349428 -0.086417273 0.88875139
0.26316607 -0.089669667 0.88693196
0.26459378 -0.085573077 0.88560599
0.26440081 -0.088469163 0.883865
0.26713648 -0.11713485 0.94952011
0.26735702 -0.12005858 0.94843352
0.26749605 -0.10618755 0.94990081
0.26823422 -0.1099128 0.94924808
0.26890406 -0.11486311 0.94855124
0.26923701 -0.12073279 0.94574255
0.2682187 -0.12365481 0.94239938
0.26748306 -0.12634788 0.93974614
0.26681533 -0.099909276 0.94679892
0.26837322 -0.10316379 0.94752872
0.27042276 -0.1074973 0.9473719
0.27038518 -0.12358543 0.93919849
0.26843181 -0.12625834 0.93588698
0.2667127 -0.12768529 0.93291819
0.26708186 -0.093454525 0.94454652
0.26813358 -0.096758492 0.94534653
0.26988769 -0.10068442 0.94559336
0.26967257 -0.12648308 0.93243021
0.26808855 -0.12846634 0.92953974
0.26722005 -0.12992643 0.92619294
0.26730418 -0.091435969 0.94199842
0.26968756 -0.093676701 0.94053036
0.26973242 -0.12651199 0.92402887
0.26725358 -0.12923159 0.92327201
0.26821631 -0.088329434 0.93767375
0.27035829 -0.092742264 0.93742651
0.27020666 -0.096233092 0.93186277
0.26904556 -0.10147183 0.93032497
0.2689546 -0.10281316 0.92847645
0.26890555 -0.11139392 0.92375284
0.26920211 -0.11362054 0.9238857
0.27032828 -0.11838923 0.92068225
0.27033103 -0.12481823 0.92112631
0.26826674 -0.12745926 0.91803813
0.26797503 -0.086846873 0.93345374
0.269676 -0.089645043 0.93068582
0.26873541 -0.094538167 0.92908943
0.26667753 -0.099493071 0.92835009
0.26761374 -0.10288989 0.92504013
0.26768991 -0.10842259 0.92178136
0.26695293 -0.11311884 0.92159081
0.26877967 -0.11694749 0.91777503
0.26958409 -0.12118582 0.91495377
0.26806191 -0.12513483 0.91446269
0.26576704 -0.086452216 0.93026817
0.26699281 -0.088863611 0.9287957
0.26675704 -0.091713905 0.9273414
0.26995122 -0.09781751 0.92021173
0.26823613 -0.10122536 0.92031759
0.26827484 -0.10581595 0.918185
0.26984304 -0.10746989 0.91533345
0.2666311 -0.11707872 0.91474992
0.26697165 -0.12017437 0.91320479
0.26853698 -0.09535104 0.91749364
0.26719764 -0.098320797 0.91820383
0.26721448 -0.10533851 0.91444069
0.26867983 -0.10663171 0.9116919
0.26818863 -0.091525808 0.9139632
0.26811054 -0.10563944 0.90678304
0.26701936 -0.088051409 0.91064805
0.26772264 -0.088720806 0.91010749
0.26760864 -0.10370816 0.90219581
0.26833099 -0.089383356 0.90551561
0.26818761 -0.091929272 0.90176374
0.26831907 -0.096649408 0.89975286
0.26783389 -0.10050484 0.90020454
0.26663101 -0.086353935 0.88764822
0.26656678 -0.088808909 0.88604206
0.26722932 -0.085322961 0.88572353
0.26697192 -0.088286117 0.88387209
0.27080312 -0.11094224 0.94638199
0.27112409 -0.11558699 0.94651431
0.27119395 -0.11869574 0.94524306
0.27077702 -0.12081078 0.94199944
0.27130511 -0.10385525 0.94570732
0.27208501 -0.10776227 0.94477755
0.2733314 -0.11284948 0.94258195
0.27358061 -0.11698712 0.94041502
0.27198038 -0.1215124 0.93786252
0.27146143 -0.12425584 0.93522263
0.27190033 -0.097454682 0.94314319
0.27268705 -0.10109937 0.94270158
0.27402511 -0.10562742 0.9404214
0.27484998 -0.11039242 0.93833303
0.27501377 -0.11469352 0.93613607
0.27389222 -0.11927009 0.93355417
0.27268133 -0.12359576 0.93136811
0.2718899 -0.12640916 0.92855996
0.27199721 -0.096059561 0.94045371
0.27368769 -0.099261768 0.93830734
0.27518421 -0.10268571 0.93679678
0.27568212 -0.110605 0.93402827
0.27565578 -0.11202248 0.93450624
0.27522358 -0.11787846 0.92936838
0.27361524 -0.12156758 0.92712545
0.27193874 -0.12522034 0.92572999
0.2708804 -0.089047194 0.93545347
0.27113846 -0.092539072 0.93550855
0.27228752 -0.096714057 0.93383443
0.27324691 -0.101229 0.93084121
0.27558005 -0.10312472 0.92895859
0.27556035 -0.11113359 0.92472017
0.27348784 -0.11456258 0.92421544
0.27236766 -0.11921675 0.92239922
0.27118951 -0.12289787 0.92045814
0.27081576 -0.1250954 0.91728312
0.27072781 -0.088432536 0.93427074
0.27111509 -0.090053774 0.93278462
0.27299485 -0.10173813 0.92745018
0.27395007 -0.10180084 0.92530411
0.27437046 -0.10917416 0.92180181
0.27308688 -0.11134112 0.9225412
0.27093887 -0.12281606 0.91652691
0.27368045 -0.09836477 0.92135507
0.27287576 -0.099942833 0.92253417
0.2720882 -0.1080604 0.91783655
0.27382579 -0.10844549 0.91646636
0.27332813 -0.093511805 0.91765559
0.27301279 -0.10799543 0.91048115
0.27389342 -0.091690294 0.91478443
0.273541 -0.10675469 0.90721327
0.2733151 -0.089840271 0.90948564
0.27314016 -0.10326482 0.90259135
0.27316123 -0.088707313 0.90475905
0.27318472 -0.090619475 0.90100688
0.27318534 -0.096875101 0.89812148
0.27337512 -0.10050178 0.89891779
0.2737923 -0.092182867 0.89958376
0.273532 -0.094455466 0.89846075
0.2758618 -0.10923506 0.93641734
0.27582547 -0.1139214 0.93399149
0.27592778 -0.10462666 0.93530935
0.27606687 -0.1076749 0.93394589
0.27605471 -0.11280972 0.93133932
0.27589771 -0.11567955 0.92943132
0.27593571 -0.1034863 0.93254763
0.27602765 -0.10616925 0.92919099
0.27601773 -0.1099184 0.92737728
0.27591917 -0.11415271 0.92714405
0.27648193 -0.1037045 0.92455655
0.27659282 -0.10738547 0.92239708
0.27763835 -0.098109491 0.9209978
0.27856001 -0.10128374 0.92160755
0.27830005 -0.10682764 0.91901481
0.27761793 -0.10821477 0.91581523
0.27966261 -0.091184571 0.91713369
0.27795288 -0.093426749 0.91761655
0.27772838 -0.10820031 0.91043717
0.27837548 -0.10933647 0.90815216
0.27887625 -0.090998456 0.91668212
0.27791661 -0.091751844 0.91451508
0.27773315 -0.10681111 0.90689629
0.27822551 -0.10911571 0.90754139
0.27822658 -0.090405665 0.90897173
0.27797604 -0.10307977 0.90272349
0.27807584 -0.089086883 0.90470117
0.27822471 -0.091377765 0.9009636
0.2782729 -0.096273534 0.89862382
0.27824029 -0.10041223 0.89920813
0.27583668 -0.091874696 0.89985597
0.27593666 -0.094066374 0.89874709
0.28196713 -0.10112432 0.91880959
0.28187418 -0.10475903 0.91696632
0.28257114 -0.09546712 0.91669834
0.28428712 -0.099046029 0.91635954
0.28413099 -0.10420589 0.9138878
0.28247941 -0.10646176 0.91130626
0.28315178 -0.092851758 0.9134087
0.2856366 -0.10409737 0.91048646
0.28306982 -0.10549444 0.90696561
0.28295147 -0.091347501 0.90879524
0.28494242 -0.092007324 0.90616244
0.2847842 -0.099966474 0.90182126
0.28294247 -0.10260753 0.90299731
0.281791 -0.090346701 0.90516371
0.28315097 -0.092379585 0.90277982
0.28313136 -0.096805841 0.90047133
0.28194341 -0.10033697 0.90043372
0.28631783 -0.099466532 0.91362852
0.28613615 -0.10175556 0.91285974
0.28593835 -0.094332598 0.9127124
0.28862098 -0.097025692 0.90994149
0.28880668 -0.10007247 0.90837365
0.2863616 -0.10347854 0.90704465
0.28614628 -0.09296827 0.90999717
0.28883186 -0.095439024 0.90655917
0.28889146 -0.09847673 0.90461111
0.28623423 -0.10217841 0.90456998
0.28606364 -0.09441223 0.90362477
0.28624469 -0.096906424 0.90257728
0.29546636 -0.10847604 0.92114013
0.29568276 -0.10994536 0.92067701
0.29555205 -0.10726624 0.91965425
0.29212677 -0.097630799 0.90839332
0.29244339 -0.098672688 0.90788889
0.29272947 -0.096021302 0.90652806
0.29265741 -0.098274089 0.90520459
0.29205734 -0.09540914 0.90342414
0.29210138 -0.096265361 0.90308917
0.29736599 -0.11097398 0.92488134
0.29749188 -0.11211286 0.92440188
0.29777038 -0.1083351 0.92217344
0.29718611 -0.11083201 0.92128789
0.29893634 -0.10263886 0.91870445
0.29789606 -0.1058725 0.91810471
0.29766396 -0.10905775 0.91833979
0.30009988 -0.10054523 0.91595733
0.29958311 -0.10361846 0.91522264
0.29900688 -0.097388148 0.91033006
0.29882845 -0.099051185 0.9087612
0.29808745 -0.095526189 0.90673673
0.29786885 -0.097964518 0.90563607
0.30199802 -0.102209 0.91819733
0.30188048 -0.10488676 0.91776127
0.30302897 -0.099676803 0.91536111
0.30280223 -0.1027239 0.91412973
0.30347082 -0.097284667 0.91099763
0.30219728 -0.09967953 0.91009104
0.30215442 -0.096373767 0.90762007
0.30152208 -0.097979844 0.90725863
