# .PCD v0.7 - Point Cloud Data file format
VERSION 0.7
FIELDS x y z
SIZE 4 4 4
TYPE F F F
COUNT 1 1 1
WIDTH 837
HEIGHT 1
VIEWPOINT 0 0 0 1 0 0 0
POINTS 837
DATA ascii
0.30250078 -0.15239896 0.97720975
0.30102083 -0.15407549 0.97887099
0.30703399 -0.14367586 0.97503704
0.30479828 -0.14637701 0.97608441
0.30199754 -0.14968075 0.97821242
0.29946059 -0.15268518 0.98114944
0.29739606 -0.15531933 0.98466128
0.29600871 -0.15673555 0.98790038
0.30710977 -0.14043972 0.97663659
0.30382052 -0.14276034 0.97861904
0.30066738 -0.14559528 0.98120046
0.2980628 -0.14864619 0.98425907
0.29617888 -0.15200886 0.98746008
0.29498446 -0.15483359 0.9908154
0.30947122 -0.135056 0.97846782
0.3071062 -0.13652885 0.97943443
0.30324829 -0.13897735 0.98182791
0.30005383 -0.14176258 0.98449159
0.29741693 -0.14485511 0.98758894
0.29549795 -0.14817125 0.99085081
0.29426014 -0.15187299 0.99442518
0.29380322 -0.15306088 0.99727905
0.30937663 -0.13263264 0.98097032
0.30712616 -0.1329854 0.98306382
0.30324993 -0.13552842 0.98537415
0.29999223 -0.13828526 0.98820573
0.29741332 -0.14137717 0.99118799
0.2955004 -0.1447549 0.99436331
0.29427031 -0.1483878 0.99793011
0.29380924 -0.15127172 0.99906915
0.30707338 -0.13039681 0.98698723
0.30386215 -0.1322612 0.98946691
0.3006573 -0.13510881 0.9919678
0.29805404 -0.13823986 0.99492294
0.29612908 -0.14161044 0.99831837
0.29500991 -0.14483882 1.0009855
0.30694079 -0.12890127 0.99033201
0.30474383 -0.12997632 0.9931258
0.30191526 -0.13228671 0.9961701
0.29942614 -0.13526613 0.99903965
0.29738739 -0.13880636 1.0016383
0.29608157 -0.14190805 1.0031135
0.30239865 -0.13135746 0.99908388
0.30096292 -0.13305937 1.0007803
0.31104144 -0.15253456 0.9704057
0.30891243 -0.15476716 0.97170681
0.30637729 -0.15768984 0.97382218
0.30388016 -0.16068757 0.97671568
0.30190882 -0.16317047 0.97985774
0.31375143 -0.14570768 0.9701525
0.31114784 -0.14861771 0.97087258
0.30751544 -0.15128279 0.97285485
0.3042621 -0.15420058 0.97543365
0.30164459 -0.1573699 0.97847742
0.29976898 -0.16056952 0.98185241
0.29856682 -0.16352342 0.98538858
0.29756138 -0.16520452 0.98893112
0.31350425 -0.14225014 0.97152108
0.30956531 -0.14454353 0.97291958
0.30640846 -0.14760064 0.97429454
0.30429584 -0.15012316 0.97560304
0.2992343 -0.15628262 0.98147607
0.29776424 -0.15793943 0.98434108
0.29647502 -0.16014779 0.98814565
0.29605687 -0.16317047 0.99177974
0.29551601 -0.16415018 0.99582231
0.31617948 -0.1367335 0.97316164
0.31270319 -0.13822144 0.97400135
0.30932418 -0.14011613 0.97503161
0.29489693 -0.15737391 0.99173009
0.29460314 -0.15973024 0.9951061
0.29479739 -0.16224273 0.99804777
0.31613451 -0.13288721 0.9761126
0.31204924 -0.13438269 0.97719181
0.29409647 -0.15514573 0.99475819
0.29384843 -0.15602016 0.99843377
0.29417127 -0.1591807 1.001426
0.31594115 -0.12960289 0.97960019
0.3120268 -0.13079667 0.9808858
0.30943522 -0.13068281 0.98333943
0.29404044 -0.14920446 1.0010238
0.29385895 -0.15246904 1.002048
0.29415113 -0.15567045 1.0049155
0.31602645 -0.12688066 0.98332691
0.31266463 -0.12770738 0.98482156
0.3092927 -0.12876683 0.98672229
0.2949051 -0.14588797 1.0035285
0.29463464 -0.14923304 1.0058459
0.29477355 -0.15239084 1.008113
0.31367156 -0.12524669 0.98887044
0.30951142 -0.12681673 0.9911238
0.3063879 -0.12820023 0.99435651
0.30416751 -0.12967347 0.9970423
0.2993685 -0.13540974 1.0025702
0.29785484 -0.1383836 1.0042521
0.29646829 -0.14236176 1.0063001
0.2960363 -0.14614347 1.0092605
0.29565078 -0.14972231 1.0104051
0.31372157 -0.12397405 0.99269748
0.31102622 -0.12488686 0.99533343
0.30753949 -0.12684795 0.99805915
0.3042559 -0.12953687 1.0007485
0.3015981 -0.13269988 1.0037475
0.2997815 -0.13613062 1.0070422
0.29853234 -0.13983455 1.0098782
0.29752636 -0.14338721 1.0113772
0.30903867 -0.12574081 1.0013865
0.30631298 -0.12807417 1.0043451
0.30382732 -0.13102348 1.0071563
0.30191541 -0.13420831 1.0096457
0.31324735 -0.1598504 0.96985662
0.31039971 -0.16275434 0.97214717
0.30799252 -0.16566612 0.9749496
0.30605507 -0.16839974 0.97816831
0.31771398 -0.15085182 0.96772563
0.31481785 -0.15375882 0.96865559
0.31156963 -0.15679908 0.97029889
0.30838862 -0.16021343 0.97278053
0.30568209 -0.16330339 0.97588408
0.30358186 -0.1662275 0.9794988
0.30208859 -0.16874015 0.98335356
0.30116698 -0.17075834 0.98700768
0.32016203 -0.14477488 0.968243
0.31702659 -0.14717214 0.96857524
0.31360728 -0.14988686 0.96938515
0.29962423 -0.16683638 0.98579997
0.29893288 -0.16869512 0.98965925
0.29869214 -0.17032562 0.99328816
0.32311806 -0.13855937 0.97015202
0.31976628 -0.14075847 0.96985823
0.31645775 -0.14284593 0.96998596
0.29678187 -0.16616368 0.99290174
0.29704148 -0.1680124 0.99629009
0.2973038 -0.16915981 1.0002137
0.32278594 -0.1354647 0.97206467
0.31958207 -0.13646914 0.97217542
0.29561093 -0.16500567 0.99974155
0.29643512 -0.16693452 1.0025977
0.32260048 -0.13164905 0.97507131
0.31940794 -0.13240878 0.9752323
0.29484704 -0.16166237 1.0036824
0.2957966 -0.16382904 1.0060165
0.32266802 -0.12839328 0.97842109
0.31926617 -0.12881111 0.97897315
0.29483771 -0.15808219 1.0073721
0.29581752 -0.16044378 1.009583
0.32278755 -0.12574843 0.98199409
0.31940347 -0.12576403 0.98328537
0.29560405 -0.15422557 1.0108904
0.2964254 -0.15719107 1.0127137
0.31985256 -0.12357565 0.98749781
0.31648472 -0.12374228 0.9896521
0.2967909 -0.14728801 1.01227
0.29699945 -0.15090299 1.013953
0.29731068 -0.1547908 1.0150692
0.32033718 -0.12206899 0.99148804
0.31698737 -0.12250333 0.99392605
0.31362632 -0.12335452 0.99666959
0.29957941 -0.14001992 1.0128021
0.29898155 -0.14403468 1.0148935
0.29868391 -0.14794229 1.0164506
0.31792113 -0.12166917 0.99772453
0.31471792 -0.12278265 1.0003742
0.31148255 -0.12452288 1.0035715
0.30841637 -0.12700169 1.0067773
0.30569473 -0.13023835 1.0099061
0.30353016 -0.13397689 1.012669
0.30209482 -0.13792923 1.0152031
0.30113089 -0.14161395 1.0170029
0.31533158 -0.12279506 1.0045018
0.31327799 -0.12410847 1.0066218
0.31037849 -0.12649721 1.0094157
0.30796528 -0.12940875 1.0122975
0.30608726 -0.13272654 1.0150638
0.30493218 -0.13520052 1.0166315
0.3149392 -0.16857979 0.97215277
0.31346712 -0.17056155 0.97404516
0.32220632 -0.15627328 0.96661752
0.31912264 -0.15858881 0.96755832
0.31619677 -0.16223839 0.96922916
0.31360114 -0.16575447 0.97152197
0.31093419 -0.16885963 0.97457683
0.30856919 -0.17150119 0.97818696
0.30658409 -0.17350802 0.98203844
0.30590737 -0.17556231 0.98544097
0.3242768 -0.14967628 0.96656579
0.32141268 -0.15240087 0.96678001
0.31812248 -0.15551527 0.96749574
0.30412945 -0.17224818 0.98376435
0.30324122 -0.17403391 0.98781556
0.30275935 -0.17541701 0.99161369
0.32688898 -0.14328544 0.967866
0.32398921 -0.14577015 0.96739328
0.32087603 -0.14841183 0.96724051
0.30079392 -0.1724375 0.99052411
0.30067855 -0.17371818 0.99463362
0.30100325 -0.17487329 0.99829829
0.32636341 -0.13983645 0.96930993
0.3234635 -0.14162387 0.96873504
0.29864174 -0.17136754 0.99755669
0.29924741 -0.17238213 1.0007458
0.32671005 -0.13566484 0.97160995
0.29812351 -0.16977993 1.0047915
0.32991844 -0.13083601 0.97542721
0.32702419 -0.13165824 0.9746356
0.29756457 -0.16667964 1.0088328
0.29891291 -0.1679427 1.0112525
0.32984462 -0.12884969 0.97746539
0.32702494 -0.12808226 0.97831309
0.29761016 -0.16321592 1.0124966
0.29891187 -0.16596912 1.0133185
0.32669988 -0.12518428 0.98239249
0.29811242 -0.15936017 1.0155219
0.32642069 -0.12300009 0.98663193
0.32359824 -0.12249215 0.98836553
0.29860523 -0.1523051 1.017295
0.29926008 -0.15546444 1.0182772
0.3271392 -0.12162575 0.99022371
0.32403639 -0.12125668 0.99259359
0.32081771 -0.12120131 0.9951914
0.30071881 -0.14508249 1.0184824
0.30064839 -0.14908792 1.0196882
0.30092907 -0.15284133 1.0207231
0.32436883 -0.12054387 0.99646521
0.32137296 -0.12084045 0.99928987
0.31807572 -0.12164588 1.002246
0.30404571 -0.13831338 1.01846
0.30328983 -0.14251268 1.0203665
0.30277562 -0.14626035 1.0215619
0.32215327 -0.12078441 1.003067
0.31911853 -0.12179439 1.0054377
0.31632841 -0.12351069 1.009002
0.31365576 -0.12596519 1.0125502
0.31092981 -0.12911348 1.0155225
0.30851707 -0.13272828 1.0179077
0.30657843 -0.13678764 1.0199962
0.30605146 -0.14002752 1.0219458
0.31493372 -0.12669489 1.0153347
0.31389531 -0.12798323 1.0166122
0.32375491 -0.16455096 0.96804488
0.32099885 -0.16662012 0.96931189
0.31795019 -0.16955325 0.97156245
0.315483 -0.17266205 0.97453403
0.31355399 -0.17546086 0.97794908
0.31282264 -0.17761061 0.98074985
0.32581151 -0.15739864 0.96640217
0.3231149 -0.16137098 0.96730244
0.31976557 -0.1642354 0.96868813
0.3171114 -0.16648594 0.97028357
0.31126529 -0.17439702 0.97848433
0.31005561 -0.17693564 0.98242325
0.30825529 -0.17833421 0.98673266
0.33171389 -0.14881936 0.96679282
0.32838207 -0.15123917 0.96632457
0.32561287 -0.15414074 0.96619695
0.30590487 -0.1774658 0.98886281
0.3054772 -0.17848858 0.99280834
0.33055532 -0.14518365 0.96749926
0.32818359 -0.14731534 0.96681672
0.30319366 -0.17704755 0.99580413
0.3034718 -0.17761512 0.9990617
0.33387387 -0.1388824 0.97037756
0.33129987 -0.14055745 0.96921259
0.30192152 -0.17567164 1.0033388
0.30279168 -0.17604354 1.006487
0.3330965 -0.13576485 0.97207934
0.33063307 -0.13646707 0.97121954
0.3000688 -0.17240824 1.0067662
0.3015359 -0.17358725 1.0087942
0.33283305 -0.13189587 0.97500485
0.33015627 -0.13349645 0.97317153
0.30066514 -0.17027721 1.0121889
0.33282876 -0.12841292 0.97858804
0.33010492 -0.12689909 0.97988063
0.30061364 -0.16667898 1.0157934
0.33308169 -0.12575233 0.98231858
0.33063018 -0.12487876 0.98311454
0.30022532 -0.16109997 1.0184661
0.30142686 -0.16350608 1.0190554
0.33387464 -0.12404095 0.9856528
0.33116165 -0.12289524 0.98739535
0.30186436 -0.15802151 1.0214133
0.30279014 -0.16118875 1.0217578
0.33056641 -0.12134874 0.99202263
0.32821029 -0.12074576 0.99408138
0.30323935 -0.15049845 1.0231118
0.30349287 -0.15381193 1.0235722
0.32830763 -0.12034278 0.99814349
0.32548311 -0.12030715 1.0009614
0.30594206 -0.14380965 1.0237979
0.30550101 -0.14762567 1.0246204
0.32581767 -0.12059962 1.0042703
0.32315087 -0.12160578 1.0082135
0.31958279 -0.12317167 1.0111449
0.31711483 -0.12477371 1.0133197
0.31215855 -0.13058004 1.0188239
0.31115499 -0.13338524 1.0210531
0.31003046 -0.13720752 1.0233471
0.30823576 -0.14159483 1.0246414
0.32374224 -0.12242985 1.0113127
0.32110351 -0.12371917 1.0133271
0.31786373 -0.1260958 1.0162026
0.31537589 -0.12917092 1.0192298
0.31366879 -0.13256975 1.0219783
0.31289649 -0.13546176 1.0240633
0.32743108 -0.16544348 0.96819216
0.32484427 -0.16881081 0.96974969
0.32223883 -0.17249399 0.97222722
0.31966269 -0.17554696 0.97520965
0.31708562 -0.17812619 0.97881162
0.31511003 -0.17995167 0.98232454
0.33215263 -0.15658893 0.96659195
0.33002698 -0.15983956 0.96681809
0.32753265 -0.16285539 0.96734834
0.31305835 -0.18005422 0.98408943
0.3119958 -0.18132123 0.98776746
0.31092024 -0.18216227 0.99157298
0.33475095 -0.15010802 0.96718287
0.33276975 -0.15305147 0.96662897
0.3088626 -0.18150043 0.99430078
0.30812675 -0.18151441 0.99771857
0.3352026 -0.14634831 0.96799994
0.30677351 -0.18051933 1.001072
0.33713624 -0.14071752 0.97044283
0.33554944 -0.14244968 0.96923703
0.30523309 -0.17890751 1.0045177
0.30550465 -0.17846701 1.0072346
0.33742175 -0.13672878 0.97270775
0.30457291 -0.17609902 1.0109009
0.33787331 -0.1328122 0.97581244
0.30414742 -0.1730953 1.0149137
0.33788568 -0.12936255 0.97936773
0.30410999 -0.16957159 1.018497
0.3374331 -0.12626785 0.98350757
0.30452895 -0.16561455 1.0216447
0.33707297 -0.12419239 0.98735207
0.33554029 -0.12298723 0.98929578
0.30503908 -0.15937619 1.0244907
0.30543867 -0.16202924 1.0240887
0.33526409 -0.12190376 0.9931587
0.30672777 -0.1560832 1.0263399
0.33451796 -0.12113462 0.99686408
0.33269742 -0.1206933 0.99985665
0.30890304 -0.14921671 1.0275964
0.30831227 -0.1527743 1.0276183
0.33209443 -0.12074485 1.0033622
0.32997578 -0.12106995 1.0066373
0.3276442 -0.12171479 1.0097369
0.31319982 -0.13901219 1.0265278
0.31186974 -0.14260636 1.0274916
0.31078231 -0.14631192 1.0281773
0.32742715 -0.12261043 1.0122379
0.32483947 -0.12428479 1.0156035
0.32223904 -0.1268912 1.0192404
0.31966394 -0.12988411 1.0221199
0.31712648 -0.1335527 1.0246114
0.31526712 -0.137059 1.0263715
0.33430827 -0.16518955 0.96881318
0.33178511 -0.1670448 0.96913922
0.329133 -0.17125276 0.97101456
0.32658303 -0.1748611 0.97346926
0.32403502 -0.17791568 0.97643775
0.32140011 -0.18046668 0.97998333
0.31874603 -0.18244122 0.98412967
0.31848577 -0.18379341 0.98690867
0.33617398 -0.15809867 0.96758461
0.3343541 -0.16210261 0.96793246
0.33129904 -0.16401067 0.96788996
0.31553215 -0.18211816 0.9855783
0.316219 -0.18382108 0.98906916
0.31445572 -0.18431176 0.99306399
0.33885777 -0.15195598 0.96822411
0.33734807 -0.15493567 0.9676773
0.31293392 -0.18416114 0.99621701
0.31195372 -0.1838945 0.99934316
0.34191656 -0.14568616 0.97054213
0.33994964 -0.14778118 0.96922177
0.3105638 -0.18290105 1.0033529
0.31084606 -0.18257439 1.0065286
0.34130466 -0.142563 0.97136688
0.33913144 -0.14431618 0.96972245
0.30802447 -0.18100195 1.0054318
0.30917227 -0.18088013 1.0086019
0.34210914 -0.13818295 0.9739781
0.30842102 -0.17839441 1.0131446
0.34249851 -0.13413543 0.97718018
0.30806094 -0.17543896 1.0171387
0.34257549 -0.1306958 0.98077869
0.30811253 -0.17191884 1.0208261
0.34214437 -0.12769803 0.98474932
0.30849922 -0.16795507 1.023962
0.34133583 -0.12517171 0.98925442
0.33905846 -0.1235294 0.99105018
0.30828634 -0.16034585 1.0269165
0.30924058 -0.16339704 1.0265994
0.34154406 -0.12429483 0.99218345
0.33991626 -0.12313659 0.99453652
0.31057799 -0.15822834 1.028717
0.31079486 -0.16137974 1.0282729
0.33881536 -0.12225237 0.99875373
0.33742112 -0.12182514 1.0017754
0.31296408 -0.15100069 1.0301665
0.31200713 -0.15433308 1.0298377
0.33632803 -0.12184103 1.0049248
0.33431014 -0.12222469 1.0088148
0.31588626 -0.14050089 1.0285883
0.31606725 -0.1439613 1.0299572
0.31447905 -0.14797227 1.0304067
0.33417323 -0.12316775 1.0119117
0.33161768 -0.12360957 1.0138723
0.32910421 -0.12555452 1.0179085
0.32664886 -0.12816992 1.0215333
0.32399622 -0.13119242 1.0244596
0.32150108 -0.13480669 1.0269425
0.3190001 -0.13900588 1.0288472
0.31845614 -0.14178063 1.0300344
0.33693922 -0.16639954 0.96998996
0.33597627 -0.16896366 0.97094995
0.33349073 -0.17305614 0.97279626
0.33087146 -0.17671303 0.97527039
0.32843027 -0.17975335 0.9782328
0.32569981 -0.18227264 0.98170823
0.32309908 -0.18428005 0.98586434
0.32084823 -0.18481334 0.98792988
0.34051159 -0.15998508 0.9693982
0.33863327 -0.1640166 0.96974421
0.33927652 -0.1676164 0.97137338
0.32393906 -0.18569012 0.98892796
0.32056466 -0.18566833 0.99084216
0.31854975 -0.18607873 0.99482471
0.34303388 -0.15370515 0.96999449
0.34172264 -0.15679111 0.96948057
0.31744394 -0.18608636 0.99793106
0.31610993 -0.18568392 1.0010564
0.34435856 -0.14668025 0.97160757
0.34426069 -0.14969501 0.97100979
0.31490541 -0.18475838 1.0052153
0.31279716 -0.18343286 1.0073242
0.34553397 -0.14432156 0.97315091
0.34686291 -0.14770046 0.97299767
0.31622028 -0.18444099 1.009038
0.31349218 -0.18274838 1.0104216
0.34643558 -0.13995987 0.97583866
0.31270376 -0.18023384 1.0149437
0.34681085 -0.13602088 0.97895426
0.31237566 -0.17718029 1.0190814
0.34675339 -0.13243508 0.98259985
0.31237018 -0.17374136 1.022599
0.3464407 -0.12954879 0.98654461
0.31263891 -0.16976961 1.025679
0.34564131 -0.12704518 0.99099278
0.34684411 -0.12691388 0.99432421
0.3162674 -0.16370238 1.0301927
0.31349972 -0.16531076 1.0283571
0.34438136 -0.12552597 0.99335808
0.34437197 -0.12505729 0.99635661
0.31494293 -0.16015857 1.03053
0.31281981 -0.16221707 1.0291395
0.34289119 -0.12401111 1.0003577
0.34183693 -0.12372363 1.0036671
0.31746888 -0.15301047 1.0320499
0.31608543 -0.15593882 1.0315479
0.34045121 -0.12362218 1.0066878
0.3386113 -0.12410749 1.0107539
0.32383218 -0.14401172 1.0319207
0.32054982 -0.14586399 1.0318328
0.31855735 -0.14975601 1.0321165
0.33634442 -0.12412554 1.0128736
0.33598125 -0.12540953 1.0155743
0.33351091 -0.12741098 1.0196972
0.33093283 -0.13003036 1.0233264
0.32823503 -0.13316715 1.0263667
0.32575256 -0.13670015 1.0287519
0.32321101 -0.14084645 1.0306101
0.32081881 -0.14291385 1.0310496
0.33963579 -0.17078827 0.97334778
0.33775258 -0.1743965 0.97516936
0.33515647 -0.17799588 0.97757024
0.33258447 -0.18112078 0.98062748
0.3299917 -0.18363987 0.98415625
0.32753569 -0.18526879 0.98740816
0.34405518 -0.16167435 0.97156912
0.34295413 -0.16536632 0.97225577
0.34175339 -0.16905317 0.9733392
0.32735908 -0.18620951 0.99004054
0.32482716 -0.18684474 0.99313956
0.32261544 -0.18715993 0.99646783
0.34652653 -0.15519667 0.97211415
0.3458983 -0.15874617 0.97211534
0.32211623 -0.18721698 0.99982518
0.32007611 -0.18675183 1.0025958
0.34817919 -0.15198764 0.97342205
0.31962514 -0.1860189 1.0065638
0.34940034 -0.14596228 0.97560418
0.34978884 -0.14865625 0.97519529
0.31934333 -0.18491706 1.0105002
0.31779379 -0.18376198 1.0122991
0.35031804 -0.14226852 0.97809213
0.31747356 -0.18160747 1.0163264
0.35073656 -0.13832688 0.98123646
0.31704751 -0.17862712 1.0203241
0.35070381 -0.13482715 0.98479742
0.31710431 -0.17515175 1.0239292
0.35030785 -0.1318057 0.98888397
0.31736401 -0.17106819 1.0270848
0.34937027 -0.12942713 0.99262822
0.34970328 -0.12906177 0.99524474
0.31929669 -0.16534774 1.0305488
0.31780079 -0.16728202 1.0292896
0.34817871 -0.12747151 0.99852109
0.31963831 -0.16149892 1.0317488
0.34673905 -0.12639849 1.0019766
0.34603614 -0.1264232 1.0053638
0.32216898 -0.15486275 1.0331284
0.32023823 -0.15772653 1.0325978
0.3441464 -0.12594576 1.008397
0.34282231 -0.12658753 1.0120385
0.34166345 -0.1277665 1.0156317
0.32717964 -0.14505084 1.0323855
0.32486621 -0.14827338 1.0329628
0.32267606 -0.1514681 1.0331577
0.33965516 -0.12793331 1.0174497
0.33783495 -0.12986875 1.0209969
0.33514097 -0.13242564 1.0246023
0.33258548 -0.13543278 1.0275309
0.33005244 -0.13903394 1.0299574
0.3275027 -0.14247397 1.0315537
0.34196123 -0.17242679 0.97565526
0.34128773 -0.17534423 0.97782183
0.33944365 -0.17876318 0.98050267
0.33691049 -0.18178551 0.98343176
0.33395773 -0.18413936 0.9863736
0.33107325 -0.18546161 0.98835474
0.34669167 -0.16634528 0.97516429
0.34485346 -0.17060213 0.97633606
0.34371457 -0.17449264 0.97865272
0.33761364 -0.18334162 0.98676056
0.33520976 -0.18478699 0.98864257
0.33179241 -0.18629761 0.99151772
0.32912278 -0.18731767 0.99552435
0.32575691 -0.18758032 0.99748939
0.34937847 -0.16024551 0.97512227
0.34896544 -0.16430143 0.97606742
0.32928124 -0.18761203 0.99874711
0.32666853 -0.18756661 1.0017083
0.35142496 -0.15411015 0.97623032
0.3517352 -0.15746664 0.9767496
0.32655928 -0.18717544 1.0056305
0.32426062 -0.18655643 1.0077446
0.35222998 -0.14666727 0.97817928
0.35295019 -0.14993079 0.97825885
0.32353458 -0.1850037 1.0123351
0.32108316 -0.1838015 1.0142804
0.35339755 -0.14437245 0.98065114
0.35463935 -0.14680225 0.98128325
0.3242617 -0.18302271 1.0166661
0.32180151 -0.18219122 1.0173934
0.35418636 -0.14115876 0.98390675
0.35558873 -0.14453584 0.98382604
0.32211086 -0.17950216 1.021174
0.35419095 -0.13761784 0.98756266
0.35560519 -0.13774043 0.99079764
0.32469735 -0.17455702 1.0264655
0.32213366 -0.17605281 1.0247375
0.35330352 -0.13429621 0.99093831
0.35461405 -0.13518155 0.99312228
0.32417363 -0.17148536 1.0284884
0.32187548 -0.17220956 1.0276507
0.35202706 -0.13181528 0.99327976
0.35299638 -0.13229361 0.99645239
0.32360339 -0.16741507 1.0305098
0.32108501 -0.16910963 1.0293483
0.3514277 -0.1303249 1.000671
0.35157904 -0.13078478 1.004015
0.32660824 -0.16064695 1.0329138
0.32419512 -0.16282423 1.0322096
0.34919694 -0.12835866 1.003039
0.34941226 -0.12942672 1.0068942
0.34895396 -0.13035628 1.0106877
0.32936653 -0.15391581 1.033543
0.32657748 -0.15658472 1.0334305
0.34661129 -0.12787697 1.0094142
0.34671378 -0.12953834 1.0127815
0.34481925 -0.13093814 1.0172545
0.34369284 -0.1333411 1.0210319
0.33765152 -0.14161012 1.0295727
0.33511972 -0.14362152 1.0310339
0.33174154 -0.14659625 1.0324575
0.32909024 -0.15055054 1.0333458
0.34202865 -0.13034016 1.0190527
0.34124529 -0.13242313 1.0218045
0.3394601 -0.13532691 1.0252289
0.33680856 -0.13836427 1.0282179
0.33376732 -0.14135399 1.0304725
0.33110294 -0.14347264 1.0317363
0.34102359 -0.17980981 0.98299718
0.33937952 -0.18181401 0.98503768
0.34900224 -0.16780017 0.97792286
0.34830302 -0.17116183 0.97979224
0.3463158 -0.17518829 0.98180586
0.3439225 -0.17877623 0.98417342
0.34129226 -0.18192819 0.98722655
0.33859408 -0.18439493 0.99077237
0.33580744 -0.18608651 0.99417281
0.33274391 -0.1871212 0.99664718
0.35200396 -0.16157733 0.9780606
0.35161567 -0.16541111 0.97943372
0.35082263 -0.16957237 0.98126435
0.33676332 -0.18626797 0.9974007
0.33341551 -0.18708459 1.0004599
0.33057383 -0.18736805 1.003268
0.3539882 -0.15503936 0.97908163
0.35423639 -0.15876162 0.98006868
0.35425207 -0.16273752 0.98137069
0.33410332 -0.18670408 1.004545
0.33083704 -0.18666393 1.0071176
0.32778561 -0.18627438 1.0095686
0.35562497 -0.15249944 0.98148704
0.35629806 -0.15546662 0.98249853
0.33130816 -0.18535298 1.0115507
0.32851097 -0.18494141 1.0130424
0.35675275 -0.14860368 0.98420203
0.32818612 -0.18273662 1.0173389
0.35591471 -0.14212631 0.98619604
0.35724172 -0.14463595 0.98727006
0.3278054 -0.17984506 1.0214117
0.32490051 -0.17924456 1.0220693
0.35591987 -0.14015131 0.98819828
0.3572849 -0.14120063 0.99090528
0.32800356 -0.17628968 1.0250762
0.32498619 -0.17728712 1.0241245
0.35672432 -0.13811956 0.99489129
0.32819778 -0.17225361 1.0281324
0.35563186 -0.13555282 0.9988758
0.35623366 -0.13654314 1.0020572
0.33127391 -0.16651714 1.0309306
0.3284466 -0.16794612 1.0304976
0.35403997 -0.13326451 1.0014108
0.35420808 -0.13423897 1.005168
0.35408384 -0.13550344 1.0092374
0.33422244 -0.15971601 1.03242
0.33085033 -0.16216639 1.0323471
0.32781211 -0.16453539 1.0319109
0.35212296 -0.13250938 1.0081184
0.35159755 -0.13386691 1.0119727
0.35077822 -0.1356688 1.0159228
0.33670926 -0.15241863 1.0322559
0.33351943 -0.15554392 1.0329545
0.33060676 -0.15810761 1.033195
0.34900799 -0.13236007 1.0142444
0.3482798 -0.13429211 1.0175725
0.34630099 -0.13643217 1.0215694
0.34381038 -0.1389211 1.0251727
0.34121796 -0.14213784 1.0282365
0.33865815 -0.14572586 1.0305333
0.33578175 -0.14926189 1.0321677
0.33284041 -0.15171546 1.0331011
0.34148628 -0.13736166 1.0256585
0.33988583 -0.13912085 1.0275022
0.34992185 -0.17260101 0.98297012
0.3487415 -0.17536363 0.98489004
0.34687001 -0.17850637 0.98738825
0.34442344 -0.18144199 0.99027842
0.34174728 -0.18372987 0.99312377
0.33940333 -0.18513252 0.99498409
0.35375193 -0.16622666 0.98271918
0.35275561 -0.17001373 0.98454463
0.35123816 -0.17389965 0.98683435
0.34915075 -0.17765261 0.98973924
0.34651855 -0.18084593 0.99289221
0.34332979 -0.18341705 0.99615151
0.34016716 -0.18512502 0.99922872
0.33703595 -0.18621698 1.0020101
0.35614645 -0.16015612 0.9832949
0.35590953 -0.16371167 0.98477584
0.35521328 -0.16788775 0.98679107
0.34126732 -0.18454386 1.0030822
0.33773983 -0.18542349 1.0059983
0.33456641 -0.18584709 1.0082153
0.35771483 -0.15306912 0.98499757
0.35788864 -0.15710199 0.98586005
0.3580035 -0.16081104 0.98740029
0.33842266 -0.18412651 1.0101923
0.33503574 -0.18432876 1.0122598
0.35847297 -0.15067922 0.98711455
0.35925743 -0.15357082 0.98884392
0.33541167 -0.18210845 1.016553
0.33202955 -0.1821672 1.0177606
0.35905159 -0.14741617 0.99019134
0.36003774 -0.1498563 0.99239689
0.33559293 -0.17911384 1.0207621
0.33223143 -0.17948334 1.0213538
0.35906294 -0.14409362 0.9936797
0.36002672 -0.1462743 0.99605346
0.33554083 -0.17552748 1.0244684
0.33235759 -0.17612234 1.0247794
0.35841236 -0.14094242 0.99709409
0.3592332 -0.14285728 0.99983704
0.33539051 -0.17146052 1.0275288
0.33206367 -0.17255306 1.0276157
0.35761255 -0.13885565 0.99949825
0.35790578 -0.14007595 1.0034221
0.35799068 -0.14166385 1.0071005
0.33836564 -0.16513629 1.02975
0.33509451 -0.16720812 1.0298655
0.33177701 -0.16947144 1.029528
0.35608172 -0.13743216 1.0064713
0.35586917 -0.13914612 1.010168
0.35525164 -0.14126277 1.0140907
0.34125495 -0.15794691 1.0303723
0.33785415 -0.16094376 1.0311201
0.33459738 -0.16313975 1.0315248
0.35364532 -0.1370583 1.0127114
0.35277215 -0.13912582 1.0163548
0.35121289 -0.14159143 1.0202668
0.34909698 -0.14458451 1.0239272
0.34640706 -0.14771122 1.0270175
0.34332904 -0.15117258 1.0294377
0.34011239 -0.15420677 1.0310636
0.33704054 -0.15697315 1.0320629
0.35002768 -0.13737813 1.0186778
0.34880552 -0.13958576 1.0216374
0.34678915 -0.14221068 1.024845
0.34447914 -0.14516507 1.0275928
0.3418386 -0.14793603 1.0297612
0.33943951 -0.15005526 1.0311716
0.35412973 -0.17108944 0.9883486
0.35291138 -0.17368892 0.98994946
0.35096255 -0.17694677 0.99252141
0.34851766 -0.17986809 0.99537885
0.34580451 -0.18219358 0.99832356
0.3435756 -0.18358696 1.0005645
0.35727602 -0.16461162 0.98828059
0.35633901 -0.16801897 0.98980147
0.35504898 -0.17186195 0.99274319
0.35327345 -0.17518464 0.99587756
0.35058609 -0.17840239 0.99901986
0.34729418 -0.18108784 1.0016782
0.34381956 -0.18304038 1.0043983
0.34112421 -0.1839347 1.0071084
0.3588171 -0.16173206 0.99041814
0.35841668 -0.16551958 0.99348646
0.35705674 -0.16947825 0.99560016
0.35546002 -0.17254536 0.99704218
0.35078797 -0.17817262 1.002558
0.3485378 -0.17965992 1.0054196
0.34532559 -0.18113282 1.0085723
0.34131116 -0.18266293 1.0107416
0.33869246 -0.18272316 1.0134655
0.36010239 -0.15555091 0.99167043
0.36022788 -0.15865852 0.9938525
0.35998714 -0.16190806 0.99613976
0.34557247 -0.17913744 1.0130628
0.34219176 -0.18021116 1.0149299
0.33877325 -0.18101433 1.0164831
0.36071616 -0.15225339 0.99483144
0.36101159 -0.15549695 0.99773639
0.34539875 -0.17756918 1.0159577
0.34287608 -0.17714636 1.0187914
0.33883861 -0.17825067 1.0202669
0.36070451 -0.14886218 0.99807203
0.36101693 -0.15193461 1.0013839
0.36074325 -0.15255047 1.0051098
0.34301707 -0.17357118 1.0223848
0.33885324 -0.17498547 1.0236105
0.36010459 -0.14580457 1.0015941
0.36025405 -0.14814827 1.0046709
0.35996422 -0.15044856 1.0080117
0.34558511 -0.16761278 1.0247859
0.34222776 -0.16979596 1.0256404
0.33875689 -0.17125247 1.0265079
0.35932252 -0.14374739 1.0040948
0.35882252 -0.14469816 1.0078676
0.35845 -0.14793256 1.0115417
0.35696307 -0.15000667 1.0156522
0.35554081 -0.15180756 1.0184302
0.35096461 -0.15714279 1.0238551
0.34853286 -0.16016911 1.0254278
0.34549576 -0.16337173 1.0266978
0.34125665 -0.16571121 1.028252
0.35729885 -0.14271289 1.0108318
0.35630888 -0.14434899 1.0143168
0.35506091 -0.14724033 1.0179166
0.35327646 -0.15057793 1.0212044
0.35066152 -0.15369178 1.0242561
0.34731019 -0.15658003 1.0269269
0.34376323 -0.15935764 1.0288379
0.34103456 -0.16209078 1.0296626
0.35299736 -0.14459489 1.0197639
0.35105392 -0.14726686 1.0229661
0.34851828 -0.15013404 1.0258901
0.34583122 -0.15324508 1.0281179
0.34379593 -0.15549174 1.0293499
0.35377926 -0.17502695 0.99919999
0.35258678 -0.17644198 1.0004445
0.35886925 -0.16582429 0.99675858
0.35747805 -0.16912061 0.99814326
0.35547769 -0.17260525 1.0005463
0.35295534 -0.17563678 1.003508
0.350106 -0.17792945 1.0067273
0.34793907 -0.17906876 1.0092349
0.35986492 -0.16302457 0.9986943
0.35870105 -0.16639137 1.0014932
0.35680962 -0.16971019 1.0047145
0.35423532 -0.1727867 1.0077326
0.3510147 -0.1755524 1.0104805
0.34771714 -0.17755589 1.0128062
0.361056 -0.15674165 1.0004864
0.36061543 -0.15943596 1.0017241
0.35939074 -0.16312122 1.0052929
0.35749638 -0.16643605 1.008552
0.35487053 -0.16962157 1.0115557
0.35166064 -0.17238191 1.0143033
0.34775829 -0.17491347 1.0166731
0.34542367 -0.17557633 1.0184997
0.36107621 -0.15514968 1.0022092
0.36061007 -0.15598226 1.0053391
0.35938618 -0.15968527 1.0088745
0.35743868 -0.16304988 1.0121872
0.35483828 -0.16610321 1.0152458
0.3515901 -0.16892245 1.0179657
0.34769541 -0.17139934 1.0203606
0.34547082 -0.17336009 1.0207646
0.35986379 -0.15307656 1.0089859
0.35873625 -0.15586483 1.0121721
0.35674909 -0.15922499 1.0156082
0.35418904 -0.16240159 1.0185119
0.35090569 -0.16515052 1.0212816
0.34771153 -0.16759068 1.0230802
0.35880452 -0.15111575 1.0119734
0.35749382 -0.15262502 1.0150379
0.35541382 -0.15523466 1.0185858
0.35289833 -0.15830129 1.0214866
0.35008124 -0.16144574 1.0236745
0.34783134 -0.16435608 1.0246623
0.35401213 -0.15356784 1.0206406
0.35250488 -0.15536615 1.0224013
