# .PCD v0.7 - Point Cloud Data file format
VERSION 0.7
FIELDS x y z
SIZE 4 4 4
TYPE F F F
COUNT 1 1 1
WIDTH 1294
HEIGHT 1
VIEWPOINT 0 0 0 1 0 0 0
POINTS 1294
DATA ascii
0.04885925 -0.039998684 0.78237134
0.046280246 -0.039445143 0.78218019
0.041278057 -0.039436921 0.78216678
0.036291242 -0.039406791 0.78219265
0.031281188 -0.039448306 0.78236538
0.026286805 -0.039437436 0.78243446
0.021339074 -0.039458107 0.78251421
0.01613047 -0.039437536 0.78241092
0.011129279 -0.039477155 0.78265357
0.0061936788 -0.039477598 0.78256214
0.001399368 -0.039460167 0.78259003
-0.001864668 -0.039651252 0.78267658
0.04887544 -0.040801004 0.78749388
0.046272751 -0.040425409 0.78760725
0.041303355 -0.040410649 0.78753233
0.036397729 -0.040399287 0.78747463
0.03135087 -0.040423792 0.78759909
0.026282687 -0.040412657 0.78754252
0.021346601 -0.040373083 0.78734159
0.01628004 -0.040418401 0.78757167
0.011249054 -0.040447026 0.78771704
0.006312836 -0.04041148 0.78753656
0.0013650358 -0.040429644 0.78762877
-0.0018442683 -0.040696241 0.7873354
0.04888995 -0.041812573 0.79202712
0.046324831 -0.041359924 0.79235226
0.04144568 -0.041386891 0.79248923
0.036426727 -0.041371595 0.79241157
0.031292889 -0.041354857 0.79232651
0.02637076 -0.041362889 0.79236734
0.021513298 -0.041366991 0.7923882
0.016358752 -0.041377448 0.79244125
0.011375643 -0.041365683 0.79238153
0.0064442828 -0.041387893 0.7924943
0.0013118498 -0.041354582 0.7923252
-0.0018301755 -0.041653614 0.79255688
0.048905715 -0.042678796 0.79699767
0.046443578 -0.042297002 0.79711032
0.041505605 -0.042360861 0.79743451
0.03659007 -0.042350732 0.79738313
0.031304896 -0.042286545 0.79705721
0.026332589 -0.042357258 0.79741627
0.021492885 -0.042335682 0.79730672
0.016340353 -0.042331591 0.79728591
0.011408873 -0.042327654 0.79726595
0.0065440536 -0.042376008 0.79751146
0.0013264865 -0.042338964 0.79732341
-0.0019318424 -0.042641345 0.79730546
0.048922438 -0.043805681 0.80222946
0.046414781 -0.0432707 0.80205429
0.041253325 -0.043320298 0.80230612
0.036291141 -0.043313455 0.80227137
0.03146328 -0.04329516 0.8021785
0.026465416 -0.04332073 0.80230832
0.021581672 -0.043295398 0.80217969
0.016461898 -0.043280624 0.80210465
0.011649918 -0.043322638 0.80231804
0.0064232163 -0.04331205 0.80226421
0.0011719912 -0.043316446 0.80228657
-0.0018174686 -0.043518744 0.80246174
0.048936244 -0.044610925 0.80657458
0.046303045 -0.044254608 0.80705011
0.041390531 -0.044254769 0.80705088
0.036456294 -0.044284124 0.80719995
0.031338673 -0.044310354 0.80733311
0.026552521 -0.044290416 0.8072319
0.021535164 -0.044243813 0.80699527
0.016393226 -0.044292465 0.80724233
0.011353061 -0.044278353 0.80717063
0.0063913912 -0.044249848 0.80702591
0.0017075613 -0.044291891 0.80723941
-0.0016378574 -0.044536315 0.80754501
0.048952568 -0.045576833 0.81170774
0.046500359 -0.045197036 0.81183529
0.041595556 -0.045246821 0.81208807
0.036601391 -0.045238651 0.81204659
0.031475447 -0.045277718 0.81224495
0.026385205 -0.045209866 0.81190044
0.021515246 -0.045281623 0.8122648
0.016260643 -0.045261689 0.81216353
0.011266608 -0.045232832 0.81201702
0.0062863231 -0.045246154 0.81208467
0.0014561415 -0.045228269 0.81199384
-0.0018116236 -0.045482215 0.81236899
0.048969962 -0.046788916 0.81714267
0.046492677 -0.046170622 0.81677866
0.041323405 -0.046250641 0.81718498
0.036450624 -0.046233941 0.81710017
0.031440407 -0.046216406 0.81701118
0.026561959 -0.046203531 0.81694579
0.021406602 -0.046222519 0.81704217
0.016366377 -0.046222381 0.81704152
0.01142741 -0.046220884 0.81703389
0.0062849782 -0.046193622 0.81689548
0.0012728497 -0.046200562 0.81693071
-0.0018940158 -0.046533741 0.8168751
0.048985623 -0.047761764 0.82205862
0.0465324 -0.047175117 0.82187903
0.041492585 -0.047161892 0.82181185
0.036390763 -0.04714055 0.82170349
0.03141702 -0.047171693 0.82186162
0.026365301 -0.047166482 0.82183516
0.021451514 -0.047159776 0.82180113
0.016229007 -0.047175389 0.8218804
0.011370972 -0.047187813 0.82194352
0.0065037794 -0.047172166 0.82186407
0.0014784448 -0.047176186 0.82188445
-0.0017442666 -0.047395349 0.82194257
0.049001053 -0.048526678 0.82694072
0.046581306 -0.048116621 0.82665956
0.041505724 -0.048141822 0.82678747
0.03660696 -0.048136294 0.8267594
0.031491011 -0.048146933 0.82681346
0.026588166 -0.048099257 0.82657135
0.021553529 -0.048109222 0.82662195
0.01645625 -0.048136644 0.82676119
0.011557888 -0.048148863 0.82682323
0.0065530054 -0.048145443 0.82680583
0.0013388917 -0.048148859 0.82682323
-0.0018228255 -0.0484914 0.82699889
0.049016047 -0.049728513 0.83159333
0.046533182 -0.049079955 0.83155084
0.041539792 -0.04913215 0.8318159
0.036660098 -0.049116433 0.83173609
0.031632669 -0.049110178 0.83170432
0.026339635 -0.049079414 0.83154809
0.021585494 -0.049067132 0.83148575
0.016521771 -0.049153533 0.83192444
0.011531513 -0.049114943 0.83172852
0.0065502115 -0.049146835 0.83189046
0.0015548244 -0.049114015 0.83172381
-0.001747191 -0.049487613 0.83206302
0.049031775 -0.050801948 0.83651257
0.046791013 -0.05004824 0.83646733
0.041580655 -0.050092503 0.83669209
0.036786005 -0.050084744 0.8366527
0.031675585 -0.050097011 0.83671498
0.02647284 -0.050047442 0.83646327
0.021466723 -0.050091315 0.83668607
0.01646667 -0.050122559 0.83684468
0.01156209 -0.050067779 0.83656657
0.0065868795 -0.050084312 0.83665049
0.0015542656 -0.050074235 0.83659935
-0.0017211698 -0.050362241 0.83640671
0.049047992 -0.051566564 0.84165072
0.046698734 -0.050996237 0.84128082
0.041566625 -0.051027253 0.84143829
0.036463428 -0.051009849 0.84134996
0.031455476 -0.051040836 0.84150726
0.026468506 -0.051021621 0.84140968
0.021632394 -0.05100131 0.84130657
0.01659175 -0.051051501 0.84156144
0.01134444 -0.051076781 0.84168977
0.0065419935 -0.051021092 0.841407
0.0013766885 -0.051053956 0.84157389
-0.0016097911 -0.051270284 0.8414675
0.049062531 -0.052504562 0.84620756
0.046356983 -0.052002765 0.84639144
0.04136207 -0.051988393 0.84631848
0.036678724 -0.052023675 0.84649765
0.031732187 -0.052011926 0.84643799
0.026624424 -0.052011881 0.84643775
0.02148225 -0.052019808 0.84647799
0.016463026 -0.051988699 0.84632003
0.011462595 -0.052035332 0.84655684
0.0064433925 -0.05199828 0.84636873
0.0015831776 -0.052051403 0.84663844
-0.0016134791 -0.052234128 0.84624332
0.049078211 -0.053513724 0.85112262
0.046860956 -0.052941371 0.85115725
0.041689247 -0.052958794 0.85124576
0.036677711 -0.052980442 0.85135561
0.031551614 -0.052985363 0.85138065
0.026765544 -0.052962963 0.85126686
0.021649279 -0.052966144 0.85128307
0.016679797 -0.052988958 0.85139889
0.011669602 -0.05295983 0.85125101
0.0067021102 -0.052998379 0.85144675
0.0015348382 -0.053001188 0.85146099
-0.0016509108 -0.053273216 0.85155141
0.049094453 -0.054322906 0.85626113
0.046436992 -0.053901322 0.85603142
0.041586496 -0.053952023 0.85628885
0.036494408 -0.053943284 0.8562445
0.031580329 -0.053990237 0.85648292
0.026744461 -0.05389918 0.85602051
0.021778977 -0.053889543 0.85597163
0.016780015 -0.053952921 0.85629344
0.011484098 -0.053957939 0.85631889
0.0067024492 -0.05394841 0.85627055
0.0016494021 -0.054009028 0.85657829
-0.0016031601 -0.054105006 0.85615778
0.049109481 -0.055200219 0.86098981
0.046424352 -0.054889843 0.86105067
0.04166574 -0.054862652 0.86091262
0.036644563 -0.05492333 0.86122066
0.031604879 -0.054901313 0.8611089
0.026360357 -0.054877967 0.86099035
0.021420633 -0.054885805 0.86103016
0.016449921 -0.054920364 0.86120564
0.011555728 -0.054915294 0.86117989
0.0062602498 -0.054943889 0.86132509
0.0017628744 -0.054928921 0.86124909
-0.0015945956 -0.055125762 0.86101645
0.049123552 -0.05627887 0.8653658
0.046467666 -0.055856332 0.86595803
0.041517816 -0.055865142 0.86600274
0.036347494 -0.055869401 0.86602437
0.031491771 -0.055904493 0.86620253
0.026571181 -0.055905115 0.86620569
0.021330237 -0.055873811 0.86604673
0.016545579 -0.055900138 0.86618042
0.011758402 -0.055891879 0.86613852
0.0067210943 -0.055828534 0.86581689
0.0015384853 -0.055884741 0.86610228
-0.0015493743 -0.056109577 0.86594701
0.049141362 -0.057326652 0.87096822
0.04662367 -0.056827672 0.87089002
0.041640364 -0.056857094 0.87103939
0.036663592 -0.056793973 0.8707189
0.031641446 -0.05684986 0.87100267
0.026576448 -0.056816306 0.87083232
0.021633944 -0.056853432 0.87102079
0.016710974 -0.056845892 0.87098253
0.011629857 -0.056830555 0.87090468
0.0065495595 -0.056827515 0.87088919
0.0016766824 -0.056839176 0.87094843
-0.0017077141 -0.057054784 0.87058252
0.049156435 -0.058385935 0.8756755
0.046700999 -0.057764657 0.87564754
0.041818671 -0.05780191 0.87583673
0.036816981 -0.057772636 0.87568808
0.031570766 -0.057780266 0.87572682
0.026781267 -0.057812609 0.87589103
0.02162084 -0.057850048 0.87608117
0.016551051 -0.057806127 0.87585813
0.01175331 -0.057792537 0.87578911
0.0066270791 -0.057821095 0.87593412
0.001797121 -0.057831846 0.87598872
-0.0015216395 -0.058006354 0.8756839
0.049172182 -0.059357382 0.88061976
0.046691135 -0.058781277 0.88080949
0.04158438 -0.058750883 0.88065517
0.036487892 -0.058795847 0.88088346
0.031745709 -0.058729164 0.8805449
0.026403811 -0.058777429 0.88078994
0.021565836 -0.058800943 0.88090932
0.016516492 -0.058743529 0.8806178
0.011653807 -0.058778785 0.88079685
0.0065679848 -0.05878675 0.88083726
0.0017542057 -0.058793448 0.8808713
-0.0015690736 -0.05907584 0.88057452
0.04918785 -0.060325593 0.88554043
0.046542868 -0.059710894 0.88552964
0.041851282 -0.059739195 0.88567334
0.036672391 -0.059716515 0.88555819
0.031628773 -0.059714422 0.88554752
0.026610462 -0.059759472 0.88577628
0.02170183 -0.059738625 0.88567042
0.016752724 -0.059747852 0.88571727
0.011547029 -0.059759758 0.88577771
0.0067124404 -0.059796903 0.88596636
0.0016758256 -0.059744179 0.88569862
-0.0015676096 -0.059986085 0.88567233
0.049204525 -0.061266586 0.89079309
0.046724416 -0.060697794 0.8905406
0.041787129 -0.060711525 0.89061034
0.03696312 -0.060717352 0.8906399
0.03169648 -0.060719751 0.89065212
0.026765615 -0.060755767 0.89083499
0.021826854 -0.060734279 0.89072591
0.016763262 -0.060701184 0.89055783
0.011800196 -0.060743913 0.89077479
0.0067229867 -0.060722716 0.8906672
0.0016234331 -0.06069155 0.89050889
-0.0014996752 -0.060937956 0.89057386
0.04921769 -0.062155493 0.89491123
0.046733428 -0.061674677 0.89550078
0.041767735 -0.061645754 0.89535391
0.036863897 -0.061706476 0.89566219
0.031650171 -0.061647937 0.895365
0.026624463 -0.061702017 0.8956396
0.021658737 -0.061659489 0.89542365
0.01680246 -0.061683808 0.89554715
0.011742819 -0.061682519 0.89554054
0.0068293177 -0.061678581 0.89552057
0.001606483 -0.061674245 0.89549857
-0.0016150102 -0.061850205 0.89526749
0.049236871 -0.063196883 0.90096205
0.046505284 -0.062593222 0.90016466
0.04163646 -0.062605776 0.90022844
0.036831714 -0.062648401 0.90044487
0.031653523 -0.062619746 0.90029937
0.02669541 -0.062627114 0.90033674
0.021829527 -0.062655151 0.90047914
0.016793013 -0.062624097 0.90032142
0.011866134 -0.062678188 0.90059608
0.0066069141 -0.062679633 0.90060341
0.0019694939 -0.062665261 0.90053046
-0.0014350861 -0.062973261 0.90060306
0.049250804 -0.064089805 0.90533054
0.046599805 -0.063569002 0.90511924
0.041852534 -0.063599721 0.90527523
0.036698312 -0.06356521 0.90509999
0.031568438 -0.063580327 0.90517676
0.026516011 -0.063605167 0.90530288
0.021642536 -0.063630238 0.9054302
0.016678106 -0.06359642 0.90525848
0.011734258 -0.063637629 0.90546763
0.0067165196 -0.063603058 0.90529215
0.0015518069 -0.063617229 0.9053641
-0.0015373714 -0.063780293 0.90500957
0.049266141 -0.064860843 0.91018111
0.046642765 -0.064555526 0.91012836
0.041776106 -0.064573959 0.91022193
0.036687531 -0.064557686 0.91013932
0.031706318 -0.064590544 0.9103061
0.026667455 -0.064548746 0.9100939
0.021695601 -0.064602032 0.91036445
0.016578224 -0.064571045 0.91020715
0.011735093 -0.064560764 0.91015494
0.0068043955 -0.064606972 0.91038954
0.0017260611 -0.06455408 0.91012102
-0.0015337206 -0.064970449 0.9106276
0.049281858 -0.066038489 0.91507506
0.046913769 -0.065555349 0.91520494
0.041688748 -0.065507829 0.91496366
0.036784872 -0.065544955 0.91515219
0.031747688 -0.065560944 0.91523337
0.026815414 -0.065521821 0.91503471
0.021765238 -0.065527275 0.91506243
0.016796306 -0.065542705 0.91514075
0.011621132 -0.065575466 0.9153071
0.0066859014 -0.065578297 0.91532147
0.0018843561 -0.065584563 0.9153533
-0.0014700368 -0.065702543 0.91489619
0.049296308 -0.066909462 0.9196164
0.046700116 -0.066509724 0.9200508
0.041518919 -0.06650766 0.92004031
0.036746502 -0.066508852 0.92004633
0.031877507 -0.066496253 0.91998243
0.026818117 -0.066512711 0.920066
0.021918964 -0.066465452 0.91982603
0.016811036 -0.066489451 0.91994786
0.011807054 -0.066523328 0.92011988
0.006714873 -0.066529229 0.9201498
0.0018816665 -0.066507153 0.92003775
-0.0013864413 -0.066690229 0.91975152
0.049311142 -0.067611307 0.92431664
0.046498474 -0.067453325 0.924842
0.041905969 -0.06742914 0.92471915
0.036983099 -0.067434624 0.92474699
0.032032143 -0.067447841 0.92481411
0.026886724 -0.067458011 0.92486572
0.021812435 -0.067451321 0.92483175
0.016901162 -0.067473575 0.92494476
0.011973191 -0.067473784 0.92494583
0.0068409517 -0.067483254 0.92499393
0.0017060637 -0.067478567 0.92497015
-0.001489576 -0.067872077 0.92527366
0.049326651 -0.068800524 0.92914057
0.0468008 -0.068474531 0.92997229
0.041852809 -0.068378538 0.92953974
0.036716837 -0.068440661 0.92985511
0.031705618 -0.068415314 0.92972648
0.026630837 -0.068411931 0.92970932
0.021781595 -0.068451002 0.92990762
0.016890876 -0.068402037 0.92965907
0.011813864 -0.068416074 0.9297303
0.0068110675 -0.068416983 0.92973489
0.0019024536 -0.068477556 0.9299047
-0.0013583079 -0.068582535 0.9296459
0.047372658 -0.069339953 0.93211991
0.04158292 -0.069492087 0.93210834
0.036883522 -0.069403701 0.93214071
0.03178728 -0.069373474 0.93216294
0.026772134 -0.069578052 0.93213862
0.022094341 -0.069422849 0.9321841
0.016892273 -0.069360167 0.93221301
0.012141097 -0.069488585 0.93220282
0.0067045875 -0.069580741 0.93220198
0.0023757853 -0.069393881 0.93225259
-0.0010333322 -0.06900429 0.93234015
0.048859447 -0.04299257 0.78184599
0.046372458 -0.042292599 0.77947176
0.041405097 -0.042529013 0.779441
0.036403492 -0.04238636 0.77948505
0.031368244 -0.042463828 0.77948582
0.026343837 -0.042132515 0.77956706
0.021280594 -0.042255577 0.77955896
0.016143616 -0.042557329 0.77951586
0.011514977 -0.042390283 0.77956355
0.0063907318 -0.042595953 0.77953935
0.001282189 -0.042452939 0.77958375
-0.0021225214 -0.042863615 0.78196687
0.048874758 -0.04377114 0.78668588
-0.0021239147 -0.043985602 0.78717732
0.048890848 -0.044794898 0.79173249
-0.00210917 -0.044780545 0.79182374
0.048906423 -0.045757852 0.79662174
-0.0020936131 -0.045905333 0.79667276
0.048922244 -0.046632357 0.80161059
-0.0020780824 -0.046662472 0.80158901
0.048937216 -0.047870122 0.80624902
-0.0020616911 -0.047812514 0.80671614
0.048954088 -0.048835453 0.81156254
-0.0020462051 -0.048598267 0.81160325
0.048968531 -0.049637921 0.8161149
-0.0020315833 -0.049711205 0.81615603
0.048984461 -0.050373111 0.82116526
-0.0020152889 -0.05078515 0.82125503
0.049000479 -0.051462766 0.82617497
-0.0020002238 -0.051771671 0.82596838
0.049016174 -0.052789282 0.83103287
-0.0019842796 -0.052720997 0.83097917
0.049031015 -0.053574771 0.83571851
-0.001967743 -0.053693306 0.83618021
0.049047112 -0.054567128 0.84077293
-0.0019530356 -0.054532919 0.84081244
0.049062591 -0.055570308 0.84562409
-0.0019376278 -0.055347357 0.84567708
0.049078371 -0.056414567 0.85060394
-0.0019219629 -0.056240253 0.85061002
0.049094137 -0.057271685 0.8555764
-0.0019066483 -0.057227857 0.85541052
0.049109749 -0.058379374 0.86045134
-0.0018904805 -0.058282208 0.86047602
0.049125519 -0.059347853 0.86540282
-0.0018748939 -0.059298024 0.8653596
0.049140848 -0.060465939 0.87018257
-0.001858823 -0.06021373 0.8704204
0.049156245 -0.061273821 0.87504542
-0.0018430501 -0.061245218 0.87536144
0.049172226 -0.06215319 0.88008362
-0.001827728 -0.062400185 0.88013166
0.049187683 -0.063397616 0.88488048
-0.0018122531 -0.06313169 0.88503397
0.049203482 -0.064157128 0.88988346
-0.0017963722 -0.063979857 0.8900466
0.049218696 -0.065250799 0.89462966
-0.001780767 -0.065178335 0.89489973
0.049233742 -0.066108361 0.899369
-0.0017651096 -0.066110574 0.89982349
0.049250286 -0.067121014 0.90456498
-0.0017492957 -0.066904947 0.90482444
0.049265917 -0.067886159 0.90951186
-0.0017337129 -0.068192743 0.9096536
0.049281571 -0.068750478 0.91444796
-0.0017184615 -0.06896846 0.91447467
0.049296636 -0.069912367 0.91913229
-0.0017028712 -0.069933884 0.9193691
0.049311981 -0.070716448 0.92397869
-0.0016869195 -0.071089 0.9243443
0.049328245 -0.071967222 0.92903614
0.043275952 -0.070689127 0.93186724
0.024993209 -0.073646054 0.93134308
0.019828631 -0.073301241 0.93142748
0.011186577 -0.071235232 0.93186188
0.0077165216 -0.070431903 0.93203115
0.0021855533 -0.073622458 0.93142039
-0.0016707219 -0.071727797 0.92950177
0.046854619 -0.072162986 0.93156558
0.041770648 -0.072620049 0.93149173
0.03654927 -0.072498113 0.93153238
0.031711258 -0.072296932 0.9315874
0.027137443 -0.072421044 0.93157756
0.022087982 -0.072342776 0.93160903
0.016998712 -0.072610855 0.93157244
0.011821717 -0.072348721 0.93164057
0.006879881 -0.072631009 0.93160069
0.0015723072 -0.072225124 0.93169755
-0.0012540594 -0.072400227 0.9316721
0.048859507 -0.047703177 0.78093797
0.046220411 -0.046983961 0.7785483
0.041352589 -0.047336604 0.7784943
0.036341544 -0.04732541 0.77851248
0.031337313 -0.047159433 0.77856112
0.026222439 -0.047369391 0.77853608
0.0210621 -0.047307 0.77856475
0.016324922 -0.04727558 0.77858603
0.011161953 -0.047350638 0.7785877
0.0063601583 -0.047623675 0.77854925
0.0012991726 -0.047354661 0.77861834
-0.0021089725 -0.047723532 0.78099668
0.048875116 -0.048848666 0.78580236
-0.0021247379 -0.048535518 0.78600222
0.048890643 -0.04947257 0.79074436
-0.0021093115 -0.04970175 0.79081041
0.048907015 -0.050842628 0.79581368
-0.0020933598 -0.050591569 0.79583079
0.04892249 -0.05172009 0.80068779
-0.0020776317 -0.051483527 0.80078638
0.048937667 -0.052863356 0.80541325
-0.0020628162 -0.052653775 0.80539119
0.048953224 -0.053699706 0.81032228
-0.0020469204 -0.053426832 0.81041646
0.048969194 -0.054653496 0.81534356
-0.0020312779 -0.054565214 0.81529975
0.048984531 -0.055386722 0.82020032
-0.0020158924 -0.055696107 0.82008922
0.04899941 -0.056329869 0.82486749
-0.002000086 -0.056516629 0.82508427
0.049015019 -0.057696871 0.82968867
-0.0019847751 -0.057606112 0.82986045
0.049031291 -0.058483262 0.83484203
-0.0019686967 -0.058449324 0.83493543
0.049047131 -0.059458446 0.83981574
-0.0019527189 -0.059492286 0.8399387
0.049062025 -0.060295042 0.84450835
-0.0019376017 -0.060310215 0.84470814
0.049078394 -0.061370526 0.84963477
-0.001921773 -0.061456352 0.84964424
0.049093798 -0.062249735 0.85448658
-0.0019059591 -0.062344879 0.85462761
0.049109664 -0.063097261 0.85949397
-0.0018903576 -0.063284844 0.85952997
0.049124766 -0.064141311 0.86421376
-0.0018748939 -0.064082302 0.8644163
0.049140286 -0.06535691 0.86903542
-0.001858905 -0.065333448 0.86938536
0.04915636 -0.066170789 0.8741188
-0.0018433593 -0.066104971 0.87430394
0.04917118 -0.066976711 0.87879324
-0.0018271096 -0.066982731 0.87943071
0.049187493 -0.068253301 0.88386184
-0.001812011 -0.068131857 0.88412786
0.049203113 -0.068993449 0.88880998
-0.0017964467 -0.069106378 0.88901234
0.049218681 -0.070192777 0.89365214
-0.0017810464 -0.070222363 0.89381546
0.049234413 -0.071060374 0.89861214
-0.0017649084 -0.070987806 0.89892781
0.049249675 -0.072023235 0.90339947
-0.001749292 -0.071876988 0.90384638
0.049265649 -0.073037148 0.90841067
-0.0017341785 -0.072760925 0.9086014
0.049281601 -0.073874809 0.91344827
-0.0017181747 -0.07396315 0.91358465
0.049297649 -0.074847117 0.91849047
-0.001702778 -0.074932136 0.91841507
0.049312748 -0.075994685 0.92318916
-0.0016865842 -0.075883307 0.92350972
0.049328677 -0.076724231 0.92824006
0.023428144 -0.07747484 0.93059403
0.015672203 -0.077695109 0.93057537
0.012045741 -0.077890739 0.93054837
0.0069880448 -0.075415537 0.93105197
0.00204226 -0.075359955 0.93107867
-0.0016712323 -0.076737627 0.92834747
0.046473376 -0.077282064 0.93055856
0.041458394 -0.077347033 0.93056178
0.036658071 -0.077189222 0.93060815
0.031964369 -0.077440053 0.9305737
0.026812831 -0.077349938 0.93060786
0.021577341 -0.077144966 0.9306649
0.016973119 -0.077154517 0.93067765
0.011837553 -0.077095814 0.93070555
0.0068041869 -0.077421769 0.93065739
0.0018940233 -0.077659972 0.93062615
-0.0011145733 -0.076957881 0.93077403
0.048859276 -0.052805968 0.77985758
0.046118919 -0.052120037 0.77753705
0.041478902 -0.05221194 0.77753371
0.036294378 -0.052167624 0.77755898
0.031377278 -0.05220915 0.77756649
0.026469249 -0.052310865 0.77756208
0.021417653 -0.052504104 0.77754009
0.016470537 -0.052418113 0.77757281
0.011410341 -0.052319922 0.77760822
0.0064767376 -0.052206669 0.77764624
0.0013129339 -0.052213244 0.77766138
-0.0021106973 -0.052545287 0.78006238
0.048874941 -0.053736635 0.7847833
-0.0021245554 -0.053350903 0.78510976
0.048890777 -0.054450996 0.78980708
-0.0021086335 -0.05454335 0.79006892
0.048906211 -0.055714998 0.79459178
-0.0020934567 -0.05538936 0.79485184
0.048921809 -0.056688372 0.79948771
-0.0020779781 -0.05628185 0.79972512
0.048937887 -0.057708908 0.8045305
-0.0020623133 -0.057286978 0.80463529
0.048953641 -0.058547962 0.80950391
-0.0020463578 -0.058321245 0.80963594
0.048968848 -0.059719708 0.81423199
-0.0020309091 -0.059201285 0.8145014
0.048984684 -0.060455408 0.81925237
-0.0020152219 -0.060083888 0.8194443
0.048999742 -0.061352789 0.82398623
-0.001999855 -0.061020177 0.82427233
0.049015779 -0.062601998 0.82897055
-0.001984518 -0.062146813 0.82905203
0.049031522 -0.063351735 0.83395815
-0.0019683726 -0.063153394 0.834117
0.049046807 -0.064330146 0.83875048
-0.0019530766 -0.064224243 0.83889127
0.049062725 -0.065356083 0.84373969
-0.0019370988 -0.065199867 0.84391081
0.049077801 -0.066190414 0.84849268
-0.0019219927 -0.066362977 0.84860659
0.049094364 -0.06709297 0.85371721
-0.0019064695 -0.067132384 0.85351789
0.04911029 -0.068337694 0.85866535
-0.0018905662 -0.068117306 0.85851038
0.049125083 -0.069282137 0.86330479
-0.0018745586 -0.069099188 0.86353827
0.049141247 -0.07013616 0.86840802
-0.001859162 -0.070074946 0.86836767
0.049156155 -0.070945211 0.87311119
-0.001843337 -0.071040973 0.8733381
0.049172319 -0.072224766 0.87813091
-0.0018282682 -0.071961582 0.87807244
0.049187407 -0.072956122 0.88290823
-0.0018125325 -0.072893701 0.8830207
0.049202763 -0.074009448 0.88770849
-0.0017967559 -0.074141026 0.8879199
0.049218901 -0.07491494 0.89279395
-0.0017807446 -0.074920483 0.89298886
0.049234647 -0.075999103 0.89771515
-0.0017657727 -0.07570602 0.89771742
0.049250562 -0.07693518 0.90272164
-0.0017498545 -0.076877132 0.90267825
0.049265899 -0.077884123 0.9075371
-0.0017343387 -0.077917486 0.90753424
0.049281627 -0.078674883 0.91251069
-0.0017185211 -0.078791238 0.91252112
0.049297247 -0.079728268 0.9173981
-0.0017030016 -0.079806805 0.91738278
0.049313113 -0.080865659 0.92234915
-0.0016871989 -0.08078485 0.92234308
0.049328774 -0.081927262 0.92724794
0.024424089 -0.081414074 0.92981505
0.022140801 -0.081841096 0.92973816
0.0061188489 -0.082818314 0.92959678
0.00027189031 -0.083650112 0.92945158
-0.0016669892 -0.081634872 0.9271934
0.046732351 -0.082161069 0.9295969
0.04209365 -0.08208786 0.92962605
0.036831249 -0.082128242 0.92963493
0.031887401 -0.082307518 0.92961526
0.026986616 -0.082407884 0.92961115
0.021713687 -0.081848256 0.92973816
0.016728356 -0.082181528 0.92968839
0.011849843 -0.082174651 0.92970526
0.0070497803 -0.082196683 0.92971623
0.0019591972 -0.08211413 0.92974871
-0.0010581538 -0.082089953 0.92976308
0.048859764 -0.057892125 0.77901495
0.04637906 -0.057053842 0.77656454
0.041254751 -0.057047382 0.77658212
0.036223151 -0.057113588 0.7765851
0.031173559 -0.057211287 0.77658194
0.026370294 -0.057166863 0.77660602
0.021249782 -0.057292968 0.7765975
0.016310025 -0.05724854 0.77662194
0.011294894 -0.057240847 0.77663946
0.0062400959 -0.057352073 0.77663362
0.0012437478 -0.057116009 0.77669603
-0.0020264909 -0.057551719 0.77865893
0.048875369 -0.058649633 0.78395462
-0.002124995 -0.05848591 0.78394914
0.0488903 -0.059430167 0.78867126
-0.0021091029 -0.059605274 0.78891218
0.048906237 -0.060539156 0.79365075
-0.0020934567 -0.060323518 0.79387414
0.048921764 -0.061544057 0.79851687
-0.0020776056 -0.061402157 0.79883134
0.048937324 -0.062510476 0.80340183
-0.0020621605 -0.062242158 0.80370313
0.048953328 -0.063574202 0.808411
-0.0020458587 -0.063243791 0.80882227
0.048968803 -0.06450972 0.81327367
-0.0020306222 -0.064112738 0.81362063
0.048984721 -0.065441586 0.81828296
-0.0020154715 -0.065340593 0.81832063
0.04900004 -0.066481024 0.82307398
-0.0019998811 -0.066122442 0.82325053
0.049015194 -0.067415453 0.82783288
-0.0019835718 -0.06707941 0.82838207
0.049030829 -0.067993179 0.83281755
-0.0019679889 -0.068176337 0.83324826
0.049047161 -0.069079116 0.83793032
-0.0019527711 -0.069173895 0.83801413
0.049062416 -0.070278622 0.84267014
-0.0019372143 -0.070187226 0.84288907
0.049078409 -0.071201816 0.84770364
-0.0019214526 -0.071020372 0.84786546
0.049094014 -0.07206399 0.85262364
-0.0019061193 -0.071990587 0.85267538
0.049109794 -0.072818704 0.85762107
-0.0018905066 -0.072942078 0.85758054
0.049125608 -0.074091211 0.86252856
-0.0018751398 -0.073926657 0.86239791
0.049141198 -0.075017408 0.86743075
-0.0018589944 -0.075037815 0.86744475
0.049157202 -0.075714491 0.87251353
-0.001843635 -0.075880811 0.87228817
0.049172409 -0.076974779 0.8772245
-0.001827579 -0.076975204 0.87730914
0.049187578 -0.07795877 0.88197839
-0.001811903 -0.077847168 0.88225073
0.049203511 -0.078892618 0.88699079
-0.0017971508 -0.078764386 0.88688052
0.049219381 -0.079857662 0.89197707
-0.0017810911 -0.080010653 0.89187318
0.04923458 -0.080853909 0.89673805
-0.0017655194 -0.080923587 0.89677221
0.049249943 -0.081608534 0.90159953
-0.0017493777 -0.081762888 0.90187097
0.049265876 -0.082722485 0.90657681
-0.0017345101 -0.082991883 0.90647888
0.049281534 -0.083787106 0.91147411
-0.0017190203 -0.083673306 0.91139567
0.049297068 -0.084607221 0.91637826
-0.0017032921 -0.08445406 0.91637206
0.049312674 -0.085688695 0.92125601
-0.0016882196 -0.085648276 0.92105228
0.049328305 -0.086628966 0.92616856
0.034817614 -0.088472888 0.9283917
0.029991997 -0.086460099 0.9288035
0.027055463 -0.087710828 0.92856652
0.012308568 -0.087805681 0.92859483
0.0068399273 -0.086204611 0.92892754
0.0010456406 -0.086758815 0.92883682
-0.0016377829 -0.086625993 0.92635387
0.04656323 -0.087117806 0.92862117
0.04180897 -0.087107629 0.92863834
0.03694161 -0.086947024 0.92868549
0.031997062 -0.087235034 0.92864448
0.027017042 -0.087042816 0.92869818
0.021815045 -0.086874798 0.92874789
0.016846299 -0.087130912 0.92871326
0.011810504 -0.087194279 0.92871678
0.0067240037 -0.087088063 0.92875391
0.0020455532 -0.087191612 0.92874843
-0.0011138581 -0.087097816 0.92877698
0.048859663 -0.062612362 0.77805185
0.046371561 -0.061995231 0.77559137
0.041166272 -0.06196389 0.77561414
0.036323696 -0.062059183 0.7756108
0.031368569 -0.062150437 0.7756086
0.026502462 -0.062052995 0.77564329
0.021270365 -0.061836183 0.77570266
0.016244311 -0.062160842 0.77565473
0.01140511 -0.062165834 0.77566916
0.0061799176 -0.062412377 0.77563721
0.0013921969 -0.062422425 0.7756505
-0.0019837394 -0.062306169 0.77736241
0.048874926 -0.063428387 0.78286958
-0.0021251068 -0.063481793 0.78292924
0.048890438 -0.064278953 0.78776163
-0.002108857 -0.0645689 0.78801453
0.048906334 -0.065441206 0.7927168
-0.0020936504 -0.065310024 0.79282796
0.048921924 -0.066390865 0.79761451
-0.0020774342 -0.066454142 0.79789203
0.048937906 -0.067552768 0.80259794
-0.0020618811 -0.067450665 0.80276757
0.04895312 -0.068441153 0.80738473
-0.0020463988 -0.068251781 0.80765939
0.048968215 -0.069166571 0.81216472
-0.0020310059 -0.069023617 0.81252807
0.048984755 -0.070327088 0.81733125
-0.0020156913 -0.070363164 0.81725961
0.049000368 -0.071335159 0.82222492
-0.0019997545 -0.070921868 0.82234734
0.049015753 -0.072351545 0.82704294
-0.0019840077 -0.071939088 0.82728297
0.049031284 -0.072954699 0.83198881
-0.0019687042 -0.073009163 0.83206272
0.049047079 -0.074016981 0.83693087
-0.0019526444 -0.074016631 0.83710253
0.049062569 -0.074996077 0.84178984
-0.0019371994 -0.075017624 0.84194291
0.049077816 -0.07578896 0.84660703
-0.0019217581 -0.07604558 0.84677637
0.049093913 -0.076952606 0.8516283
-0.0019059293 -0.076952197 0.85176063
0.049109202 -0.077767715 0.85645425
-0.0018901117 -0.078152478 0.85668236
0.04912547 -0.078846328 0.86154717
-0.0018743686 -0.078941703 0.86166191
0.049140997 -0.079655461 0.86645216
-0.0018588901 -0.079839103 0.8665331
0.049156789 -0.080849312 0.87136698
-0.001843065 -0.080853753 0.87149489
0.049171969 -0.081824936 0.87612581
-0.0018273294 -0.08186917 0.87642741
0.049187526 -0.082849368 0.88099808
-0.0018116906 -0.082795262 0.88134533
0.049202312 -0.083604068 0.88567138
-0.001796402 -0.08369828 0.886154
0.049219105 -0.084785052 0.89091617
-0.0017807148 -0.084833905 0.89104599
0.049234666 -0.085744679 0.89580262
-0.0017646812 -0.085647106 0.89611578
0.049250435 -0.086768761 0.90074337
-0.0017497912 -0.086686701 0.90076661
0.049265988 -0.087719157 0.9056294
-0.001733683 -0.087783054 0.90580451
0.049281769 -0.088535734 0.91061556
-0.00171832 -0.088723347 0.91063064
0.049297154 -0.089541495 0.91543531
-0.0017025284 -0.089361437 0.91565531
0.049312532 -0.090524986 0.92025697
-0.0016875044 -0.090409212 0.92034805
0.049328055 -0.091466606 0.92513442
0.043986112 -0.094133377 0.9272477
0.036987115 -0.091308579 0.92782629
0.031569481 -0.089530133 0.92819381
0.0068848021 -0.093558356 0.92747909
0.0032301769 -0.092700318 0.92765975
-0.001671508 -0.091501191 0.92534995
0.046805859 -0.09204407 0.92765021
0.0416582 -0.092091449 0.92765725
0.036748882 -0.092256725 0.92764032
0.031763066 -0.092249796 0.9276576
0.026932858 -0.091932759 0.92773545
0.021944845 -0.091954559 0.92774701
0.016871262 -0.092060536 0.9277423
0.011806212 -0.092021286 0.92776614
0.0066169836 -0.091814734 0.92782342
0.0016495101 -0.092035405 0.92779577
-0.0010743104 -0.091753095 0.92786002
0.048858922 -0.067210384 0.7769044
0.046244349 -0.066944614 0.77461702
0.041245408 -0.067031823 0.77461576
0.036232732 -0.066716492 0.77469385
0.031203516 -0.066908121 0.77467209
0.026201494 -0.066988647 0.77467215
0.021346634 -0.066821925 0.77472049
0.016271878 -0.066968426 0.77470779
0.011208847 -0.066815041 0.77475411
0.0065288618 -0.067035362 0.77472562
0.0014298037 -0.067060493 0.77473694
-0.001982417 -0.067149647 0.77647048
0.048874985 -0.068494923 0.78189111
-0.0021243691 -0.068451576 0.7821911
0.048890278 -0.069243416 0.78673112
-0.0021086931 -0.069235675 0.78714889
0.048906427 -0.070370436 0.79177672
-0.0020933263 -0.07030347 0.7919504
0.048922021 -0.071181953 0.79670268
-0.002078142 -0.07136555 0.79669392
0.048937537 -0.072196521 0.80156261
-0.0020623207 -0.072099887 0.8017087
0.048953388 -0.073272042 0.80652136
-0.0020460188 -0.07319352 0.80681014
0.048969328 -0.074093617 0.81155807
-0.0020303354 -0.073912703 0.81178433
0.048984509 -0.074975267 0.81633562
-0.0020156875 -0.075271279 0.81629384
0.048999678 -0.076061986 0.82106853
-0.0020003989 -0.076117657 0.82111317
0.049015328 -0.07692118 0.82600433
-0.0019843765 -0.077067383 0.82615215
0.04903169 -0.077982292 0.83113122
-0.0019679777 -0.077875257 0.83134079
0.049046669 -0.078983165 0.83581901
-0.0019526444 -0.079211757 0.83607852
0.049062524 -0.079832107 0.84082341
-0.0019372702 -0.079903618 0.84095752
0.049078338 -0.080853984 0.8457793
-0.0019213371 -0.080927283 0.84595263
0.049094114 -0.081707507 0.85075676
-0.001906082 -0.08196684 0.85072303
0.04910953 -0.082569964 0.85561478
-0.0018906407 -0.082827091 0.85558981
0.049125675 -0.083970219 0.86060548
-0.00187454 -0.083937556 0.86062163
0.049140491 -0.08467187 0.86529911
-0.0018593036 -0.084782869 0.86542439
0.049156182 -0.085859731 0.87018222
-0.0018434227 -0.08574371 0.87041479
0.049172372 -0.086985454 0.87524092
-0.0018273443 -0.086823016 0.87544572
0.049187239 -0.087668553 0.87995493
-0.0018127449 -0.087507494 0.88007367
0.049203612 -0.088713273 0.88508976
-0.0017967485 -0.08873219 0.88504934
0.049219586 -0.0897104 0.89010364
-0.0017813332 -0.08959879 0.88990617
0.049235001 -0.090744078 0.89492756
-0.0017655753 -0.090373501 0.89489281
0.049250383 -0.091562673 0.89978302
-0.001749672 -0.091452643 0.89986706
0.049265888 -0.092557952 0.90464365
-0.0017338917 -0.092606217 0.90478665
0.04928137 -0.093597673 0.90948856
-0.0017180555 -0.093549736 0.9097662
0.04929699 -0.094355844 0.91443282
-0.0017029159 -0.094373606 0.91454083
0.049313072 -0.095399797 0.91947258
-0.0016870163 -0.095346361 0.9195357
0.049328715 -0.096567146 0.92434472
0.047406621 -0.097635046 0.92654717
0.042460106 -0.096624136 0.92676198
0.0073381476 -0.098822683 0.92644089
0.002274882 -0.094843373 0.92724073
-0.0016716756 -0.09647081 0.92431724
0.046729065 -0.096704677 0.92673254
0.041683033 -0.096824244 0.92672509
0.03703687 -0.096842788 0.92673624
0.031988129 -0.096923947 0.92673635
0.026888968 -0.097009398 0.92673576
0.021938251 -0.096995413 0.9267543
0.016826838 -0.096982226 0.92677319
0.011990853 -0.096819952 0.92682052
0.0068010427 -0.096931681 0.92681509
0.0017702729 -0.097165883 0.92678499
-0.0010734759 -0.097066864 0.92681348
0.048859488 -0.072286613 0.7760902
0.046255462 -0.074030489 0.77508211
0.041340869 -0.074060708 0.77510464
0.036297873 -0.0739168 0.7750116
0.031425864 -0.073846079 0.77510613
0.026213842 -0.073762067 0.77499455
0.021223838 -0.073709197 0.77497184
0.016395386 -0.073674552 0.77492362
0.011453439 -0.07330855 0.77475524
0.0063199848 -0.073325202 0.7747227
0.0013393424 -0.073268518 0.77480167
-0.0018188395 -0.072856851 0.77537763
0.048875455 -0.073452353 0.78106791
0.046231311 -0.07572107 0.7805196
0.041401517 -0.075713076 0.78047901
0.036388464 -0.075708523 0.78045589
0.031363398 -0.075730622 0.78056812
0.026377138 -0.075710006 0.78046346
0.021406299 -0.075743325 0.78063262
0.016224939 -0.075736523 0.78059804
0.011367526 -0.075771615 0.78077626
0.0063616969 -0.0757531 0.78068227
0.0011938363 -0.075756565 0.78069985
-0.0019473098 -0.074073419 0.78096306
0.048890628 -0.074209675 0.78586674
0.046207059 -0.076677382 0.7853753
0.041330133 -0.076702677 0.78550375
0.036513314 -0.076693818 0.78545874
0.031369239 -0.076683179 0.78540474
0.026516017 -0.076665431 0.78531468
0.02134658 -0.07670936 0.78553766
0.016354531 -0.076694988 0.7854647
0.011317831 -0.076761857 0.78580427
0.0063539445 -0.076705828 0.78551978
0.0012514293 -0.07671877 0.78558546
-0.0019489154 -0.075121813 0.78594834
0.048905909 -0.075115196 0.79067308
0.046291988 -0.077683091 0.79048181
0.041696329 -0.077640012 0.79026306
0.036511436 -0.077672593 0.79042852
0.031400733 -0.077668466 0.79040754
0.026274653 -0.077658802 0.79035848
0.021382488 -0.077676006 0.7904458
0.016253952 -0.077622384 0.79017359
0.011411346 -0.077674747 0.79043943
0.0063590035 -0.077670462 0.79041767
0.0013967976 -0.077679411 0.79046315
-0.0018755049 -0.076264016 0.79079998
0.04892239 -0.076159 0.79584241
0.046623901 -0.078632109 0.79530048
0.041633736 -0.078590848 0.79509097
0.036450732 -0.078634508 0.79531264
0.031416461 -0.078634426 0.79531223
0.026398297 -0.078637451 0.7953276
0.021354206 -0.078634903 0.79531467
0.016394708 -0.07858526 0.7950626
0.011331871 -0.078596577 0.79512006
0.0063129477 -0.078656957 0.79542667
0.0014563464 -0.078667708 0.7954812
-0.0018519163 -0.077278517 0.79555237
0.048937667 -0.077114366 0.80063659
0.046618596 -0.079564795 0.80003619
0.041598968 -0.079565831 0.80004144
0.036616407 -0.079585478 0.80014122
0.031667829 -0.079610318 0.80026734
0.026460446 -0.079612672 0.80027926
0.021395715 -0.079574764 0.8000868
0.016208109 -0.079609349 0.80026245
0.011256095 -0.079602115 0.80022568
0.0063204952 -0.079662025 0.8005299
0.0014096498 -0.079608187 0.80025655
-0.0018683672 -0.07830444 0.8005833
0.048953503 -0.077939123 0.8056398
0.046576593 -0.080560088 0.80508983
0.041485954 -0.080515407 0.80486292
0.036554128 -0.080546573 0.80502123
0.031512558 -0.080570258 0.80514145
0.026234673 -0.080578238 0.80518198
0.021379206 -0.080553532 0.80505657
0.01629905 -0.08055938 0.8050862
0.011390701 -0.080579109 0.80518639
0.0062889047 -0.080612317 0.80535501
0.0016169138 -0.080590494 0.80524421
-0.0018193573 -0.07917127 0.80561197
0.048968635 -0.079047009 0.81035691
0.046585418 -0.081531443 0.81002188
0.041463438 -0.081482634 0.80977404
0.036510896 -0.081517108 0.8099491
0.031581096 -0.081513785 0.80993223
0.026394326 -0.081513479 0.80993068
0.021339728 -0.081523903 0.80998361
0.016327549 -0.081524491 0.80998659
0.01132955 -0.081507966 0.80990267
0.0063646734 -0.081552453 0.81012857
0.0014229156 -0.081523709 0.8099826
-0.0018318072 -0.080024436 0.81039816
0.048984677 -0.079724163 0.8154546
0.046680108 -0.082469158 0.81478316
0.04154646 -0.082459703 0.81473511
0.036596708 -0.082496203 0.81492043
0.031342324 -0.082508013 0.81498045
0.026469316 -0.082523346 0.81505829
0.021525662 -0.082473762 0.81480652
0.016192146 -0.082544982 0.81516814
0.011373989 -0.082489096 0.81488436
0.0063718259 -0.082516089 0.81502146
0.0014098398 -0.082517095 0.81502652
-0.001832217 -0.081009358 0.81540763
0.049000133 -0.080726705 0.82029814
0.04652166 -0.083432026 0.81967211
0.041524015 -0.083458342 0.81980574
0.036453046 -0.083401248 0.81951582
0.031490579 -0.083484977 0.81994098
0.026518492 -0.083476916 0.81990004
0.021236006 -0.083448969 0.81975818
0.016260322 -0.083467551 0.81985247
0.01149537 -0.083483294 0.8199324
0.006579265 -0.083471045 0.81987023
0.0013976172 -0.083473444 0.81988245
-0.0017718598 -0.082170807 0.820117
0.049015362 -0.081900455 0.82503366
0.046567611 -0.084409028 0.82463288
0.041442368 -0.084407292 0.82462406
0.036491048 -0.084384635 0.82450902
0.031457879 -0.084432662 0.82475287
0.026539015 -0.084416568 0.82467115
0.021378851 -0.084463418 0.82490903
0.016289089 -0.08444979 0.82483983
0.01140919 -0.084432647 0.82475281
0.0065679252 -0.084413104 0.82465357
0.0014341883 -0.084416173 0.82466912
-0.0017891824 -0.082847223 0.82526928
0.049031034 -0.082939252 0.82994074
0.046414677 -0.085365824 0.82949102
0.041493427 -0.085407853 0.8297044
0.036494829 -0.085381806 0.82957214
0.031436563 -0.085419007 0.82976103
0.026436929 -0.085413851 0.82973486
0.021533541 -0.085412875 0.82972991
0.016632844 -0.085398331 0.82965606
0.011595186 -0.085415743 0.82974446
0.0066132918 -0.085414425 0.82973778
0.0015568063 -0.085443288 0.82988435
-0.0017732084 -0.083890557 0.82980353
0.049046922 -0.083977602 0.83491814
0.046425205 -0.086344227 0.83445889
0.041421413 -0.086322293 0.83434749
0.036558695 -0.086336635 0.83442032
0.03157052 -0.086337782 0.83442616
0.026396131 -0.086368293 0.83458108
0.02134664 -0.086365499 0.83456689
0.016642801 -0.086341843 0.83444673
0.011444446 -0.086382493 0.8346532
0.0066941045 -0.08635442 0.83451062
0.0015567802 -0.086341903 0.83444709
-0.0017385371 -0.084803402 0.8350783
0.049062755 -0.084821835 0.83991545
0.046359818 -0.087357186 0.83960217
0.041774403 -0.087299623 0.83930993
0.036720153 -0.087332845 0.83947855
0.031644344 -0.087296881 0.83929598
0.026437914 -0.087311879 0.83937216
0.021512665 -0.087336212 0.83949572
0.016405527 -0.08732529 0.83944023
0.011751391 -0.087332845 0.83947861
0.0064631104 -0.087332532 0.839477
0.0014229566 -0.087370194 0.83966827
-0.0017590523 -0.085993335 0.83993036
0.049078446 -0.085694343 0.84486175
0.046779983 -0.088290758 0.84434241
0.041612528 -0.08828973 0.84433717
0.036662817 -0.088308163 0.8444308
0.03163892 -0.08827427 0.84425867
0.026511714 -0.088323332 0.84450781
0.021494014 -0.088317573 0.84447855
0.016594395 -0.088283151 0.84430379
0.011610262 -0.088305466 0.8444171
0.0064765066 -0.088331968 0.84455168
0.001459498 -0.08831346 0.84445769
-0.0017448887 -0.086714335 0.84478134
0.04909417 -0.086683385 0.84979475
0.046482384 -0.089236811 0.84914601
0.041485243 -0.089253172 0.8492291
0.036420502 -0.089243777 0.84918135
0.031486578 -0.089263268 0.84928036
0.026499864 -0.089250453 0.84921527
0.021491665 -0.089250401 0.84921503
0.016604282 -0.089306161 0.84949815
0.011557639 -0.08929386 0.84943569
0.0065097734 -0.089261182 0.84926975
0.0014656559 -0.089304529 0.84948981
-0.0016452149 -0.08805193 0.84956414
0.049109254 -0.087862074 0.85448253
0.046437073 -0.09018451 0.85395801
0.041620664 -0.090190634 0.85398906
0.036458265 -0.090224147 0.85415924
0.031417616 -0.090237349 0.85422629
0.026433308 -0.090219207 0.85413414
0.0215516 -0.09022449 0.85416096
0.016554337 -0.090206444 0.85406929
0.0116896 -0.09028513 0.85446888
0.0064663962 -0.090248115 0.85428089
0.0015074946 -0.090248533 0.85428303
-0.0016190186 -0.088914603 0.8544358
0.049124405 -0.088700473 0.85925859
0.046641011 -0.091188185 0.85905415
0.04165595 -0.091211691 0.85917354
0.036593631 -0.091183037 0.85902798
0.031441435 -0.091172442 0.85897422
0.026547953 -0.091193788 0.85908258
0.02150278 -0.091186382 0.85904497
0.016586844 -0.091203757 0.85913318
0.011508506 -0.091203652 0.85913265
0.0066636205 -0.091217682 0.85920393
0.0015070252 -0.091189876 0.85906273
-0.0016491078 -0.089748904 0.85939795
0.049140289 -0.08953096 0.86427611
0.046602 -0.092154473 0.8639605
0.041522011 -0.092170179 0.86404026
0.036422715 -0.092180975 0.86409503
0.031538516 -0.092179306 0.86408657
0.026562773 -0.092159376 0.86398536
0.021408778 -0.092126861 0.86382025
0.016582631 -0.092153244 0.86395425
0.011526149 -0.09216769 0.86402762
0.0066384897 -0.092208229 0.86423343
0.0016036294 -0.092175148 0.86406547
-0.0016111545 -0.090673372 0.86440134
0.049156178 -0.090533301 0.86926049
0.046615385 -0.093183435 0.86918509
0.041536514 -0.09310919 0.86880809
0.036565091 -0.093131639 0.86892205
0.031582035 -0.093130216 0.86891484
0.026611339 -0.093128636 0.8689068
0.021619465 -0.093145698 0.86899346
0.016501527 -0.09312927 0.86891001
0.011592876 -0.093121886 0.86887252
0.0065247416 -0.093140043 0.86896473
0.0016454794 -0.093123421 0.86888033
-0.0016178116 -0.091715768 0.8695243
0.049171764 -0.091692425 0.87411541
0.046615791 -0.094105035 0.87386447
0.041776907 -0.094103068 0.87385446
0.036593869 -0.09409532 0.87381518
0.031713627 -0.094099209 0.87383491
0.026641393 -0.09409792 0.87382835
0.021592993 -0.09408997 0.873788
0.016596604 -0.094077438 0.8737244
0.011830389 -0.094076894 0.8737216
0.0065367073 -0.09412393 0.87396044
0.0017064624 -0.094113365 0.87390679
-0.0016105995 -0.092602611 0.87425888
0.049187146 -0.092474513 0.87897921
0.046654116 -0.095057957 0.87870294
0.04179547 -0.095059343 0.87870997
0.036923964 -0.095059395 0.87871027
0.031766329 -0.095064424 0.87873578
0.026427625 -0.095059402 0.87871033
0.021584628 -0.095044427 0.87863427
0.016490862 -0.095047645 0.87865061
0.01154612 -0.095078915 0.87880939
0.0065603778 -0.095092252 0.8788771
0.0015764683 -0.095065996 0.87874383
-0.0016299076 -0.093468674 0.87932318
0.04920321 -0.093793586 0.88395822
0.046566829 -0.09604995 0.88373983
0.041676059 -0.096027501 0.88362586
0.036663547 -0.096025951 0.883618
0.031798869 -0.096032858 0.88365304
0.026736539 -0.096028283 0.88362986
0.021757517 -0.09604542 0.88371682
0.016523123 -0.096047103 0.8837254
0.011755887 -0.096075997 0.88387209
0.0066928826 -0.096047468 0.88372719
0.0016016178 -0.096028984 0.88363338
-0.0015464798 -0.094571829 0.88401574
0.049218528 -0.094429009 0.88882923
0.046806019 -0.097005881 0.88859361
0.041895006 -0.097007237 0.88860047
0.036916487 -0.096979499 0.88845962
0.031975664 -0.096972592 0.88842452
0.026718859 -0.097007357 0.88860106
0.021612488 -0.097001992 0.88857383
0.016524818 -0.097004212 0.88858509
0.011573724 -0.097006835 0.88859844
0.0066722482 -0.097018234 0.88865632
0.0019474253 -0.096986443 0.88849485
-0.0015562847 -0.095686078 0.88897997
0.049234319 -0.095411003 0.89378583
0.046853799 -0.097970918 0.89349359
0.041767128 -0.097946472 0.89336944
0.036822069 -0.097973183 0.8935051
0.031817101 -0.097942352 0.89334852
0.026695553 -0.097989157 0.89358616
0.02168045 -0.097966723 0.89347225
0.016638074 -0.097970776 0.89349288
0.01159494 -0.097958066 0.89342833
0.0064537786 -0.097980827 0.8935439
0.0017035082 -0.097960353 0.89343995
-0.0016069412 -0.096226551 0.89400798
0.049249832 -0.096365191 0.89865655
0.04649321 -0.098916568 0.89829516
0.041681796 -0.098903358 0.89822805
0.036620442 -0.098907962 0.89825141
0.031668991 -0.098887414 0.89814711
0.026848439 -0.098921582 0.89832062
0.021689679 -0.098915286 0.89828861
0.016616281 -0.098894335 0.89818227
0.011824828 -0.098936617 0.89839697
0.0068217926 -0.09894415 0.89843518
0.0017377287 -0.098960891 0.89852017
-0.0015422776 -0.097491495 0.89867032
0.049265504 -0.097292393 0.90358639
0.046615478 -0.099900961 0.90329337
0.041800693 -0.099868558 0.90312886
0.036803752 -0.099873431 0.9031536
0.031735636 -0.099917695 0.90337837
0.026691332 -0.099871717 0.90314496
0.021808708 -0.099864371 0.90310764
0.0166783 -0.099930704 0.90344441
0.011757065 -0.099873126 0.90315205
0.0067828111 -0.099897638 0.9032765
0.0018572435 -0.09990111 0.90329415
-0.0015016645 -0.098289371 0.90366775
0.049281977 -0.098593906 0.90870178
0.046632655 -0.10085785 0.90815198
0.041701075 -0.1008154 0.90793645
0.036712255 -0.10082968 0.90800899
0.031857114 -0.10086951 0.90821123
0.026769213 -0.1008596 0.90816092
0.021845203 -0.10085343 0.90812957
0.016787983 -0.10085386 0.90813178
0.011764154 -0.1008503 0.90811366
0.006703198 -0.10084221 0.90807259
0.0018746294 -0.10086265 0.90817642
-0.001489196 -0.099512085 0.90861815
0.049297553 -0.099222139 0.91365838
0.046650812 -0.10180134 0.91294259
0.041779663 -0.10180147 0.91294324
0.036834825 -0.10181651 0.9130196
0.031781189 -0.10184268 0.91315252
0.026834378 -0.10183601 0.9131186
0.02171218 -0.1018294 0.9130851
0.016661491 -0.10182703 0.913073
0.011693761 -0.10184032 0.91314054
0.0065885 -0.10185942 0.91323751
0.001869224 -0.10183682 0.91312271
-0.0014999621 -0.1002635 0.91341311
0.049312796 -0.10023592 0.91842991
0.046749983 -0.10277976 0.91791058
0.041831303 -0.10277081 0.9178651
0.036880832 -0.10282923 0.91816169
0.031700678 -0.10278572 0.9179408
0.026913114 -0.10281063 0.91806728
0.021616094 -0.10279496 0.9179877
0.016659353 -0.10282326 0.91813147
0.011909552 -0.10279578 0.91799188
0.0068487003 -0.10286121 0.91832411
0.0019320324 -0.10282616 0.91814613
-0.0015087314 -0.10141592 0.91823733
0.049328607 -0.10144943 0.92334753
0.046836995 -0.10362399 0.92293829
0.0418946 -0.10358922 0.92287087
0.036972445 -0.10376419 0.92290902
0.03193365 -0.10373681 0.92277002
0.026527904 -0.10374737 0.92282361
0.021879762 -0.10376307 0.92290336
0.016756389 -0.10373081 0.92273951
0.011785515 -0.10374971 0.92283553
0.0069126673 -0.10373954 0.92311299
0.0018141121 -0.10371169 0.92302418
-0.0014717467 -0.10210833 0.92335856
0.046682894 -0.10180958 0.92572731
0.041840341 -0.10158442 0.92578709
0.036902733 -0.10179372 0.92576158
0.031633556 -0.10205034 0.92572784
0.0267056 -0.10189345 0.9257744
0.021721877 -0.10191426 0.92578626
0.016616512 -0.10181245 0.92582256
0.011643998 -0.10175783 0.9258492
0.0067061633 -0.10178739 0.92585909
0.0017655492 -0.10186894 0.92585868
-0.0012666434 -0.10246022 0.92575186
