# .PCD v0.7 - Point Cloud Data file format
VERSION 0.7
FIELDS x y z
SIZE 4 4 4
TYPE F F F
COUNT 1 1 1
WIDTH 1190
HEIGHT 1
VIEWPOINT 0 0 0 1 0 0 0
POINTS 1190
DATA ascii
0.12962648 -0.041936874 0.58178878
0.12955712 -0.027489193 0.55165505
0.12487739 -0.045494214 0.59015882
0.1243206 -0.044937655 0.58922935
0.12768757 -0.042046048 0.58215469
0.12746952 -0.026949063 0.55087042
0.12486176 -0.023510166 0.54457217
0.12479119 -0.02311004 0.54341573
0.11995865 -0.043384239 0.58618551
0.11956577 -0.041775137 0.58336592
0.11967698 -0.039825343 0.57840365
0.11960141 -0.02838479 0.55483806
0.11937661 -0.025455825 0.54923022
0.12091031 -0.024420582 0.54676294
0.1237265 -0.023195706 0.54378432
0.11832356 -0.043172337 0.58608961
0.11849136 -0.041351229 0.58271712
0.11788409 -0.039750755 0.57889634
0.11792183 -0.028180748 0.55468655
0.11815231 -0.02593255 0.55076587
0.11816424 -0.024683505 0.54764867
0.14964932 -0.038790107 0.5821296
0.14979744 -0.037776016 0.57911015
0.14959414 -0.026539303 0.55612397
0.14947096 -0.025160223 0.55381823
0.14644754 -0.04074996 0.5826208
0.14719833 -0.038902648 0.57824916
0.14590982 -0.036308244 0.57610041
0.14594221 -0.02788534 0.55938327
0.14721058 -0.027920894 0.55623937
0.14655556 -0.025844291 0.5519352
0.13999261 -0.040373087 0.58624148
0.14162631 -0.041170515 0.5838387
0.14114127 -0.038652577 0.5781455
0.14236374 -0.036080897 0.57655394
0.14325774 -0.027474493 0.55950552
0.14161317 -0.027966306 0.5562616
0.14164808 -0.025226317 0.55076921
0.13952763 -0.022593521 0.55008578
0.1372074 -0.041011088 0.58652711
0.13647279 -0.041447289 0.58274245
0.13678522 -0.037109613 0.57847947
0.1370313 -0.026768558 0.55696023
0.13690661 -0.026101865 0.55108106
0.13664359 -0.023065433 0.5492925
0.13138986 -0.0418735 0.58746278
0.13174127 -0.042061038 0.58279061
0.13146031 -0.036857717 0.57784754
0.13147269 -0.027014002 0.55747139
0.13187754 -0.026634097 0.55078179
0.13158402 -0.022836559 0.54835629
0.12569784 -0.04347942 0.5914048
0.12572886 -0.042220451 0.5884403
0.12540522 -0.041377328 0.58297318
0.126965 -0.037040189 0.5778417
0.12696786 -0.027242117 0.55738711
0.12600398 -0.026045203 0.55011475
0.12608576 -0.022136152 0.54704678
0.12552544 -0.020912528 0.54428566
0.12365569 -0.044002645 0.59090292
0.12170149 -0.041488759 0.58849454
0.12176729 -0.039058819 0.58363187
0.12132587 -0.036592782 0.57887328
0.12121683 -0.026157886 0.55721349
0.12165955 -0.024221763 0.552513
0.12207171 -0.021851063 0.54755455
0.12350486 -0.021490172 0.54426646
0.1177004 -0.041567095 0.58753008
0.11803979 -0.039327867 0.58308542
0.11716118 -0.037414849 0.57969844
0.11709177 -0.025952719 0.55603451
0.11792306 -0.024438687 0.55238366
0.11746603 -0.022631146 0.54818797
0.15002395 -0.036211148 0.58354127
0.15032688 -0.034850635 0.58057475
0.15003781 -0.023689158 0.55747902
0.1498837 -0.022988051 0.55475837
0.14735933 -0.036637932 0.58524352
0.14932972 -0.033113137 0.57879114
0.14676464 -0.033269867 0.57718569
0.14657149 -0.025416464 0.56076378
0.14914429 -0.023837201 0.55991518
0.14760436 -0.021304131 0.55381864
0.13983491 -0.038940139 0.58683813
0.14222641 -0.037016846 0.58673817
0.14017889 -0.032519683 0.57897091
0.14239955 -0.032909818 0.57778049
0.14294297 -0.024688832 0.56092787
0.14062136 -0.024153478 0.56036186
0.14213544 -0.020359278 0.5524348
0.13952172 -0.021758027 0.55060172
0.13673604 -0.037382051 0.58810091
0.13708597 -0.035768025 0.58731645
0.13665976 -0.033486113 0.5794245
0.13670163 -0.023781866 0.55935186
0.13748032 -0.019517027 0.55233854
0.13638505 -0.019870512 0.55112427
0.13187295 -0.038147293 0.58894914
0.13209149 -0.034714423 0.58607274
0.13218975 -0.033664681 0.58088249
0.13250509 -0.022827119 0.55840957
0.13209918 -0.019453764 0.55449057
0.13217968 -0.019447736 0.55025709
0.12738323 -0.038702279 0.58923972
0.1268851 -0.035842106 0.58572388
0.12675899 -0.033977203 0.58132237
0.12691303 -0.022638656 0.55780017
0.12694398 -0.020464599 0.55376911
0.12761296 -0.019644536 0.54949009
0.12272388 -0.038114868 0.58826089
0.12369378 -0.036694206 0.58642763
0.12279056 -0.034440398 0.58129615
0.12271478 -0.022999428 0.55743605
0.123324 -0.020748727 0.55299807
0.12278221 -0.019959867 0.55070859
0.14989786 -0.033353977 0.58410549
0.15008783 -0.032636151 0.58247447
0.14686701 -0.032365561 0.58717036
0.1482141 -0.029531218 0.58236748
0.14586331 -0.029659145 0.57966983
0.14558806 -0.021576256 0.5621177
0.14792542 -0.019372508 0.56061578
0.14690796 -0.017210178 0.55612636
0.14219545 -0.03199295 0.58783829
0.14084616 -0.028622657 0.58249521
0.14309356 -0.028249823 0.57991725
0.14296128 -0.020302042 0.56317317
0.14088742 -0.018219158 0.56164843
0.14244251 -0.016437776 0.55536652
0.13796394 -0.032475166 0.58644629
0.13872889 -0.030233413 0.58307284
0.13843502 -0.019019306 0.5596962
0.13798848 -0.017777063 0.5559603
0.14636825 -0.027501822 0.58772409
0.14743394 -0.025753565 0.5850094
0.14719474 -0.014674246 0.56205142
0.14625576 -0.014315687 0.55881578
0.14331555 -0.027172171 0.58823681
0.1425783 -0.025169186 0.58438718
0.1434958 -0.025769025 0.58178204
0.1435257 -0.017395161 0.56404614
0.14251158 -0.015060522 0.56299156
0.14328606 -0.013154961 0.55894899
0.14047033 -0.024142794 0.58752489
0.14035864 -0.012460619 0.56227434
0.14024276 -0.011360824 0.5611347
0.14592028 -0.022834882 0.58912057
0.14689092 -0.021456629 0.58740741
0.1468101 -0.010220751 0.56389326
0.14346637 -0.022305518 0.59081846
0.14379127 -0.019994952 0.58622152
0.14382394 -0.010180198 0.56584984
0.14367178 -0.0081206337 0.56126022
0.13958707 -0.021735661 0.59091884
0.13945821 -0.020387039 0.58790362
0.13911152 -0.0088981837 0.56505537
0.13948053 -0.0077424869 0.56150907
0.14664148 -0.017310932 0.58927131
0.14649773 -0.0066821724 0.56595612
0.14383732 -0.018042885 0.5934009
0.14500335 -0.015759841 0.58880132
0.14291354 -0.014034949 0.58703411
0.14293592 -0.0057592914 0.57020789
0.1451641 -0.0053820014 0.56719464
0.14379582 -0.0032881349 0.56306356
0.13865881 -0.017892383 0.59383273
0.13812833 -0.016121328 0.58857816
0.14002748 -0.013699926 0.58712566
0.13960494 -0.0056653395 0.57028258
0.13781518 -0.0061458275 0.56731468
0.1388312 -0.0029269382 0.56258708
0.13586023 -0.015656941 0.59375924
0.13584775 -0.014399238 0.5907957
0.13561454 -0.0032728761 0.56768191
0.13578203 -0.0020524636 0.5644002
0.1442834 -0.013891332 0.59596968
0.14607492 -0.011791646 0.59125507
0.14374663 -0.0099657103 0.58834571
0.14362621 -0.0024884045 0.57242924
0.14584835 -0.0011495799 0.56911653
0.14421894 0.0013228208 0.56475472
0.1390653 -0.014162593 0.59746861
0.13966943 -0.0096005052 0.587888
0.13953507 -0.0026137531 0.57304561
0.1390319 0.002238825 0.56336731
0.13447478 -0.012663849 0.59615189
0.13368337 -0.010971718 0.59203082
0.13501903 -0.0084523186 0.58921385
0.13508838 -0.0013068393 0.57272261
0.13343827 -9.4719231e-05 0.56901586
0.13441557 0.002201587 0.5652169
0.13150302 -0.0097474009 0.59538138
0.13167681 -0.009234935 0.59435803
0.13205072 0.0011104941 0.57300115
0.13151194 0.0024039373 0.56968802
0.13170022 0.0036508515 0.56719828
0.14428946 -0.0092750713 0.59764946
0.14537711 -0.007256113 0.59343415
0.14356363 -0.0057958513 0.59037346
0.14357722 0.0017821193 0.57427442
0.1451146 0.0033510849 0.57125533
0.14407702 0.0053692833 0.56719506
0.13967086 -0.010020144 0.6000073
0.1398904 -0.0046349689 0.58985257
0.13987483 0.0020574555 0.57573175
0.13979565 0.0071579814 0.56536222
0.13466789 -0.0092744827 0.59984201
0.13205306 -0.0083485916 0.59296238
0.1352272 -0.0044177994 0.59023321
0.1351279 0.0024538785 0.57569957
0.13445044 0.0069359317 0.56563723
0.13013668 -0.0078300983 0.59813994
0.12938192 -0.0058224425 0.59427071
0.13119367 -0.0041337758 0.59167689
0.13103437 0.0037135482 0.57488769
0.12920003 0.0048297346 0.57214332
0.13011731 0.0070020035 0.56776047
0.12644735 -0.0056203008 0.59821415
0.12618707 -0.0047650263 0.59604353
0.12618083 0.0067345425 0.57171911
0.12646826 0.0082592294 0.56938106
0.14315806 -0.005748257 0.59840393
0.14355378 -0.0040955469 0.59523702
0.14271329 -0.0030590221 0.592399
0.14327624 0.0067473203 0.57264835
0.14318877 0.0078483969 0.56946361
0.1398173 -0.0047708899 0.6000824
0.14048529 -0.0016066656 0.59624493
0.13981207 -0.0015736371 0.59242111
0.1400231 0.0059162006 0.5763163
0.14037874 0.0090887994 0.57368267
0.13994452 0.0098791718 0.56909508
0.13551593 -0.0043021813 0.60151726
0.13720393 7.327646e-05 0.59673452
0.13535354 -0.00058273971 0.59255677
0.13542247 0.0069679469 0.57722014
0.13688082 0.010809708 0.5744186
0.13546115 0.011482663 0.56877142
0.12994078 -0.0042550042 0.6016041
0.12885208 -0.0017679781 0.59402966
0.13041475 0.00027983636 0.59389126
0.1300579 0.008252494 0.57694274
0.12907754 0.0068290532 0.57518345
0.13011596 0.011698075 0.56848884
0.12539653 -0.0028873011 0.60055357
0.12442328 -0.0012455434 0.59649432
0.12679105 0.00091816485 0.59456569
0.12669578 0.0090707093 0.57698774
0.1243961 0.0090980828 0.5742355
0.1255023 0.011704925 0.57016653
0.12280235 0.00013294816 0.59892327
0.12261956 0.011710163 0.57345843
0.1227504 0.012257226 0.57236326
0.13426426 0.00071608275 0.60173583
0.13481542 0.0020692423 0.59833193
0.13423795 0.0038849115 0.59549373
0.13437712 0.012104295 0.57884914
0.13470465 0.013023816 0.57551241
0.13405064 0.014780056 0.57240331
0.13022289 0.00049457699 0.60357463
0.13300467 0.0018340498 0.59914482
0.13054581 0.0042443871 0.59524989
0.13062513 0.011855774 0.57933557
0.13292283 0.013531767 0.57507038
0.13059869 0.016074385 0.57111913
0.12570262 0.0012538731 0.60246593
0.12432064 0.0034508556 0.59837663
0.12701282 0.004507795 0.59578282
0.12666389 0.012402967 0.57906252
0.12416512 0.014369834 0.57660186
0.12585187 0.01583736 0.57219738
0.12288974 0.0012932122 0.59941304
0.12280671 0.013049304 0.57505178
0.12300515 0.013715334 0.57262826
0.15422064 0.0076793879 0.59867346
0.15502274 0.008695744 0.5957098
0.15546496 0.010922555 0.59127796
0.15548144 0.012776162 0.58684307
0.15430215 0.014986478 0.58242422
0.1539716 0.017308943 0.58050835
0.15118548 0.00756675 0.60091585
0.15306261 0.015767444 0.58126616
0.15110615 0.017642181 0.578107
0.14908339 0.01974754 0.5758158
0.14834394 0.0072254688 0.6029911
0.14822881 0.019492127 0.57674032
0.14735368 0.020436868 0.5754379
0.1393892 0.0070717707 0.6036973
0.14022262 0.0069896579 0.60090989
0.13990758 0.0094226375 0.59691155
0.13960816 0.01645634 0.58190924
0.14023563 0.018470924 0.57783747
0.13919605 0.020356175 0.57617784
0.13592701 0.0054435059 0.60409224
0.13780315 0.0051958188 0.59992802
0.1360939 0.0095356591 0.59545767
0.13588063 0.015361089 0.58345288
0.13769744 0.016533636 0.57691699
0.13570087 0.019675381 0.57464033
0.13085143 0.005166918 0.60540789
0.13093391 0.0093172267 0.59615213
0.13122535 0.015996195 0.58305979
0.13101187 0.020644903 0.57363462
0.12767075 0.0055925399 0.6039356
0.12682274 0.0075712502 0.600905
0.12765984 0.0094336122 0.59795684
0.12737869 0.017120309 0.58157724
0.12654439 0.018418364 0.57817519
0.12760091 0.01984584 0.57464784
0.15497246 0.010700412 0.60146934
0.15628412 0.01191546 0.59746659
0.15689997 0.014208615 0.59283888
0.15630135 0.016065426 0.58850414
0.15596382 0.018637285 0.58391476
0.1549152 0.020609945 0.58163202
0.14947405 0.0091243908 0.60455781
0.15190634 0.0097606108 0.60223156
0.15262508 0.012593806 0.59882081
0.15348595 0.015669234 0.59336787
0.1533974 0.017578844 0.58911216
0.15134782 0.019126408 0.58419591
0.1519447 0.020667478 0.57935786
0.14955173 0.022923119 0.57709289
0.14660393 0.0085891783 0.60510695
0.14618818 0.010984559 0.60219234
0.14555798 0.013800144 0.59863794
0.14510342 0.016255494 0.59652799
0.1458496 0.020755608 0.58445269
0.14620759 0.021252077 0.58014482
0.14656653 0.023194663 0.57599074
0.14118779 0.0096903928 0.60626864
0.14297794 0.0094876289 0.60250109
0.14215462 0.012131609 0.59705794
0.14087437 0.015115745 0.59535772
0.14103219 0.018829819 0.5875386
0.14210522 0.018426515 0.58431578
0.14289854 0.021312028 0.57852256
0.14094409 0.023850959 0.57598388
0.13711627 0.0099290162 0.6073041
0.13512264 0.014334988 0.59646869
0.13758886 0.014669962 0.59557927
0.13751931 0.018934064 0.58721972
0.13507509 0.019316394 0.58649957
0.13684018 0.025047727 0.5759877
0.13135375 0.0099281073 0.60650641
0.12997577 0.012634579 0.6038323
0.13140053 0.013802454 0.59855855
0.13156126 0.02050877 0.58490801
0.12987867 0.024094015 0.58041561
0.13122183 0.024347886 0.57650048
0.12816873 0.01137143 0.6016978
0.12839918 0.01185564 0.59935844
0.12837619 0.02077803 0.58279985
0.12803067 0.021633353 0.58061016
0.12866186 0.022622064 0.57693428
0.15556018 0.014738686 0.60354406
0.15788172 0.016443864 0.59970254
0.15865327 0.018700756 0.59512341
0.15818565 0.020449203 0.59070992
0.15748458 0.022659637 0.58613056
0.15542804 0.024949864 0.58253479
0.15139641 0.013845935 0.60748649
0.15341426 0.013816759 0.60577041
0.15090999 0.016974371 0.59937072
0.15218775 0.019509345 0.59594399
0.15217325 0.0212176 0.59078127
0.15016711 0.023388542 0.58779132
0.15293983 0.025987349 0.5804165
0.15070476 0.02748514 0.57892567
0.14680141 0.013850566 0.60879397
0.14870681 0.01401535 0.60117751
0.14811945 0.016465273 0.59881222
0.14605311 0.018866498 0.5966239
0.14581768 0.022173245 0.58970988
0.14802584 0.022451866 0.5861876
0.14734939 0.028147105 0.57792312
0.14171994 0.013157062 0.60946828
0.14215177 0.01883734 0.59633571
0.1417909 0.022194859 0.58991933
0.14206916 0.029233031 0.57711625
0.13637857 0.012996711 0.60942197
0.13621086 0.01916258 0.5989908
0.13613856 0.020334721 0.59664059
0.13616931 0.022736531 0.59170443
0.13602407 0.024228357 0.58830035
0.13690114 0.029235505 0.57724595
0.13240571 0.01424564 0.60847557
0.13163394 0.016245216 0.60508376
0.13225341 0.017814256 0.60021561
0.13232134 0.020133682 0.59570235
0.13316736 0.022389844 0.59123075
0.13193326 0.024956513 0.5864979
0.13135132 0.027369849 0.58226591
0.13312382 0.028162949 0.57848102
0.16004193 0.023281809 0.59661984
0.1601254 0.026197176 0.59394819
0.15617245 0.019410979 0.60563087
0.15858394 0.021172289 0.60184383
0.15932125 0.022801083 0.59765679
0.15914151 0.024522685 0.59272212
0.15863986 0.028188694 0.58792317
0.15638621 0.02965226 0.5841381
0.15151641 0.017995201 0.60930765
0.15372318 0.018667426 0.60808641
0.15061912 0.020713441 0.59915066
0.15080547 0.0238754 0.59749895
0.15069388 0.025684267 0.59317046
0.15402481 0.030560013 0.58211911
0.1517624 0.032049622 0.58103931
0.1476173 0.017630983 0.61022699
0.14727364 0.023895659 0.59805012
0.14762616 0.026592772 0.59283859
0.14750133 0.032766476 0.57980043
0.14222474 0.01829106 0.61108595
0.14250354 0.024332587 0.59933233
0.14263454 0.027315982 0.59211993
0.14048412 0.029666729 0.59200722
0.14205433 0.033317525 0.57918125
0.13759513 0.018223599 0.61078238
0.13554357 0.021696463 0.60842532
0.13809161 0.022999331 0.60113978
0.13727337 0.025137264 0.59759164
0.13648058 0.027069442 0.5933854
0.138127 0.028106287 0.59044051
0.13616511 0.033605825 0.58333856
0.13763016 0.033110119 0.58014011
0.13414347 0.018202405 0.60893553
0.13402891 0.020033207 0.60650426
0.13402705 0.022551313 0.602189
0.13423656 0.024313703 0.59845591
0.13462149 0.026478693 0.59359753
0.13357377 0.029102921 0.58894485
0.13421722 0.031045333 0.58487844
0.1339554 0.031112816 0.58135045
0.1609109 0.028128378 0.60310858
0.16069141 0.028124593 0.59943759
0.16064708 0.029766761 0.59616071
0.16056676 0.032710314 0.59298259
0.1569362 0.024243765 0.6076321
0.15883043 0.025052208 0.60421765
0.15992269 0.027577274 0.59940046
0.15993905 0.030857578 0.59408504
0.15920633 0.031906921 0.59026027
0.15680391 0.034060992 0.58630913
0.15124036 0.0227088 0.61138994
0.15369497 0.023380488 0.61016732
0.15439408 0.035650436 0.58448178
0.15180558 0.036050227 0.58325744
0.14766735 0.02277815 0.61187017
0.14714523 0.028287504 0.59873134
0.14698647 0.029723626 0.595671
0.14770351 0.036956251 0.58262783
0.14301944 0.023300834 0.61205882
0.14059079 0.025295474 0.61169767
0.14263237 0.028315671 0.59988868
0.14287616 0.030618567 0.59508795
0.1426408 0.037579186 0.58293498
0.13886051 0.022500589 0.61127776
0.13744634 0.024977982 0.60953671
0.13594462 0.027185772 0.60492051
0.13627771 0.029719193 0.59997535
0.13564001 0.031811144 0.59585816
0.13618192 0.034937061 0.59140193
0.13734964 0.036413386 0.58676648
0.13865736 0.036657743 0.58320093
0.13483179 0.026277356 0.60477298
0.13490438 0.028489597 0.6008057
0.13518652 0.032400683 0.59534729
0.13476652 0.032840155 0.59080207
0.13510007 0.033725936 0.58773392
0.16110767 0.028914854 0.60922027
0.16193353 0.029910047 0.60598582
0.16272938 0.031792115 0.6015355
0.16238485 0.03392408 0.59690762
0.16183607 0.036279518 0.59268594
0.16112423 0.037697889 0.58973581
0.1582666 0.027720496 0.61064774
0.16025311 0.028206091 0.60723066
0.16040155 0.032427125 0.59523672
0.15999246 0.035235073 0.59077209
0.15822336 0.038638044 0.58781832
0.15260482 0.027107205 0.61371171
0.15379658 0.026869297 0.61235088
0.15379535 0.038193177 0.58596575
0.15289022 0.040874321 0.58561367
0.1481445 0.027327526 0.61382198
0.14795706 0.040791929 0.58516914
0.14471291 0.027532872 0.61353379
0.14237888 0.028896172 0.61259723
0.14214146 0.041084513 0.58775651
0.1443011 0.040736549 0.58549428
0.13930774 0.030017339 0.61031538
0.13751003 0.031681698 0.60702854
0.13635907 0.033172067 0.60264868
0.13631769 0.035495665 0.59724987
0.13743013 0.03856875 0.59313357
0.13927418 0.039555859 0.58943152
0.13551033 0.035557155 0.60243279
0.13548279 0.037011214 0.59841967
0.13576981 0.038783941 0.59571457
0.16194433 0.033554159 0.6072306
0.16242656 0.036375549 0.60356987
0.16266723 0.038430817 0.59923416
0.16187131 0.039621651 0.59482396
0.15747814 0.032141954 0.61203223
0.15972939 0.0346651 0.60916352
0.16105527 0.037406351 0.60610735
0.16108246 0.041205905 0.59830791
0.16004084 0.04169355 0.59448737
0.15767485 0.042709913 0.59097642
0.15622923 0.042604841 0.58715713
0.15305644 0.030357163 0.61493611
0.1538666 0.032862414 0.61341321
0.1542442 0.044669446 0.59077805
0.15302551 0.04387302 0.58717746
0.14833426 0.030444968 0.61485839
0.1488134 0.033799648 0.61434919
0.14856777 0.045595974 0.59061241
0.14925142 0.04418005 0.58740634
0.14549857 0.03093648 0.61497205
0.14369541 0.033578016 0.61363459
0.14206821 0.036680155 0.610394
0.14204654 0.044255119 0.59500313
0.14377384 0.045248441 0.59083611
0.14491087 0.043695334 0.58719146
0.13996632 0.033726081 0.6120767
0.1385918 0.035718951 0.60863012
0.13838653 0.038162645 0.60448134
0.1384262 0.04049556 0.59973955
0.13850017 0.042300727 0.59545028
0.13990682 0.043962538 0.59162301
0.13564476 0.036515366 0.6040383
0.13569115 0.038728561 0.59925592
0.1359774 0.040197369 0.5960117
0.08720018 0.044711944 0.60687578
0.087241806 0.046099968 0.60330367
0.083776765 0.044741713 0.60661787
0.083965428 0.046137575 0.60327578
0.080916576 0.045535326 0.60593468
0.080844834 0.046185926 0.60418904
0.16241309 0.041432526 0.60462493
0.16247083 0.042225316 0.60218787
0.15675816 0.036221154 0.61241597
0.15875767 0.038984265 0.61050832
0.1608576 0.040443942 0.60716128
0.16091174 0.044204697 0.6002481
0.15908545 0.045375019 0.59717661
0.15686436 0.046155017 0.5941295
0.15375456 0.037068192 0.61341774
0.15466684 0.040070534 0.6131438
0.15469018 0.048340671 0.59583282
0.15376945 0.046861958 0.59358716
0.14912634 0.036875647 0.61351156
0.14870225 0.040347677 0.6124469
0.1486865 0.047910579 0.59648359
0.14925639 0.046777744 0.59342474
0.14555186 0.036709726 0.61285877
0.14415322 0.04006597 0.61069691
0.1423489 0.044127993 0.60701269
0.14229169 0.046204682 0.60283279
0.14426543 0.046485789 0.59750921
0.14511113 0.045964073 0.59372181
0.14100556 0.039610211 0.60864556
0.14061506 0.041825585 0.60606265
0.14075103 0.044021916 0.60212034
0.14103182 0.044544343 0.59805071
0.1220671 0.040285826 0.62029541
0.12229781 0.040873412 0.61946422
0.12232338 0.053809449 0.5927707
0.12226518 0.054081567 0.59169209
0.11966918 0.040132847 0.62039387
0.1189466 0.041522853 0.61771911
0.11724913 0.051999535 0.59719461
0.11906134 0.05288054 0.5941534
0.11966789 0.054075222 0.5915044
0.11594592 0.04099948 0.61997682
0.11448021 0.042093512 0.61701512
0.11383976 0.043581314 0.61424452
0.11386225 0.051416382 0.59795547
0.11446235 0.052695133 0.59504116
0.11609781 0.054279223 0.59237564
0.11032112 0.043002419 0.61638874
0.10920742 0.044456806 0.61296153
0.10746862 0.04611402 0.61080021
0.10791817 0.050621323 0.60225266
0.10919979 0.050956048 0.59935188
0.1102545 0.052662428 0.59610742
0.10517654 0.045612685 0.61160839
0.10397378 0.046365783 0.60912138
0.10394092 0.049282607 0.60333246
0.10544361 0.050850481 0.60064119
0.099037282 0.046704546 0.61146474
0.09945868 0.047035344 0.60835767
0.099789143 0.049318202 0.6042285
0.099390402 0.051257003 0.60199553
0.09668985 0.047151953 0.61148751
0.094239496 0.046836816 0.60872167
0.093998164 0.049306564 0.60431099
0.096475661 0.051335931 0.60217577
0.0890356 0.046988834 0.60789025
0.08911255 0.048760317 0.60453379
0.084592342 0.045824856 0.60718697
0.084469631 0.047226377 0.60405385
0.081016608 0.046248414 0.60665643
0.081030421 0.047041185 0.604491
0.16254488 0.0461253 0.60696316
0.16263109 0.046954073 0.60473925
0.15822579 0.043882445 0.61202288
0.1607296 0.045127347 0.60894477
0.16059913 0.048455782 0.6026023
0.15845203 0.049432881 0.59977889
0.15294707 0.044261206 0.61642575
0.154935 0.043597367 0.61416453
0.15495667 0.051064894 0.59800732
0.15293352 0.053252518 0.59742576
0.14944497 0.043991502 0.61671495
0.14900509 0.042975664 0.61363071
0.14903615 0.050590336 0.5979861
0.14944328 0.053520624 0.59695321
0.14670348 0.044467859 0.61615396
0.14485289 0.045054734 0.61282611
0.14272389 0.045211375 0.6094017
0.14270748 0.048637837 0.60203308
0.14474849 0.05117321 0.60011351
0.14679348 0.053468291 0.5976283
0.14175355 0.047169764 0.6128518
0.14093442 0.04736457 0.6087299
0.14101805 0.049290296 0.60422504
0.14167307 0.052448563 0.60184824
0.1238381 0.042425107 0.62271315
0.12289838 0.043175265 0.6195128
0.12300417 0.055307172 0.59455603
0.1239403 0.057299409 0.59179437
0.11936092 0.041816428 0.62337041
0.12055565 0.044369474 0.61753738
0.11857173 0.046566632 0.6153751
0.1187862 0.054175422 0.5994404
0.12080689 0.054447893 0.59637946
0.11954547 0.057471517 0.59094578
0.11468832 0.043523747 0.62245041
0.11273006 0.04283059 0.61974633
0.11481183 0.047023188 0.61357415
0.11476582 0.052989345 0.60134459
0.11295764 0.055364382 0.59377676
0.11476699 0.057892378 0.59277892
0.11196113 0.045500971 0.62187088
0.1095982 0.045514643 0.61918044
0.11077085 0.047020964 0.61246914
0.10886501 0.048788562 0.61140811
0.10914539 0.052452825 0.60380542
0.11085535 0.051698878 0.60166508
0.10973771 0.056397162 0.59606129
0.11213077 0.058416255 0.59447259
0.10697155 0.047356755 0.6175037
0.1044493 0.047851108 0.61443508
0.10459515 0.050352681 0.60914677
0.10483156 0.051580705 0.60626256
0.10429579 0.054409321 0.60073078
0.10682362 0.05602254 0.59849882
0.099550635 0.048948124 0.61347574
0.10043225 0.051877983 0.60830212
0.099996455 0.052109987 0.60807538
0.099610202 0.054286584 0.602198
0.094795875 0.049700439 0.61378366
0.0942619 0.050877728 0.60951585
0.094144002 0.052445441 0.60683256
0.0949101 0.054836683 0.60279167
0.090061396 0.050466374 0.61396039
0.089429155 0.050503355 0.60976273
0.089571573 0.052731894 0.60686237
0.08978235 0.055261154 0.60332489
0.08692731 0.051336743 0.61352485
0.084513091 0.052036289 0.61068976
0.084415197 0.053651609 0.60644954
0.086467177 0.055629719 0.60381138
0.079849079 0.052549511 0.61054379
0.079796739 0.053653441 0.60682738
0.075878493 0.052984893 0.61067605
0.075764567 0.054059055 0.60687971
0.16315559 0.050590783 0.60924935
0.16307774 0.051688336 0.60659462
0.15821414 0.048177898 0.61818415
0.15921569 0.048479855 0.61415672
0.16093084 0.049016908 0.61127824
0.16105857 0.052295454 0.60437298
0.15915094 0.054415893 0.60183024
0.15806672 0.057063278 0.59909564
0.15492754 0.047014717 0.6185894
0.1566028 0.046110593 0.6153149
0.15674911 0.053661928 0.59954965
0.15502256 0.056801215 0.5981546
0.14960715 0.046545729 0.61882383
0.14730066 0.045796562 0.6163606
0.14753544 0.054503046 0.59847379
0.14975809 0.056995384 0.59758425
0.14549986 0.048099745 0.61872548
0.14383002 0.047640365 0.61620015
0.14378476 0.055423908 0.60005563
0.14561324 0.057674982 0.59887964
0.14085628 0.049903948 0.61549431
0.1392342 0.051278658 0.61098218
0.13926418 0.053494193 0.60607433
0.14098997 0.056156352 0.60202408
0.13752046 0.053875372 0.61198461
0.13764414 0.055471458 0.60775071
0.12821671 0.046913326 0.6288259
0.12879045 0.047063805 0.62607938
0.12810686 0.062092222 0.59681123
0.12871097 0.06270805 0.59372383
0.12833565 0.064722344 0.59185636
0.12504974 0.046408549 0.62898064
0.12577702 0.045561679 0.62561786
0.12431598 0.048660576 0.62120789
0.12474084 0.060124643 0.5976156
0.12576304 0.061558302 0.5925529
0.12520537 0.064600982 0.59114003
0.12179876 0.045962229 0.62811452
0.11936387 0.046745174 0.62547672
0.11973265 0.049559236 0.62057734
0.11844844 0.049475204 0.61741585
0.11848448 0.057565469 0.60078484
0.11983402 0.060219605 0.59863937
0.119487 0.062157221 0.59323853
0.1220011 0.063921832 0.59127367
0.11488812 0.046616346 0.62430811
0.11566886 0.050142825 0.6213873
0.11476412 0.050810874 0.61646265
0.11441684 0.057566736 0.60254979
0.11566114 0.061133549 0.5986079
0.11497682 0.061185788 0.59397906
0.11223228 0.047090717 0.62282223
0.11036967 0.049177222 0.62054884
0.10997653 0.051628608 0.61667949
0.10826047 0.051660649 0.61298382
0.10903217 0.055555239 0.60484505
0.11006599 0.058234788 0.60287756
0.11039548 0.059860766 0.59829956
0.11230637 0.060020819 0.59504658
0.10524051 0.051519044 0.61523062
0.10432322 0.053651169 0.61259955
0.10441752 0.056235589 0.60687959
0.10472669 0.057205781 0.60366517
0.10701467 0.05796079 0.59990728
0.10010828 0.053416498 0.61556751
0.10102849 0.055327881 0.61059606
0.10095678 0.055891544 0.60935932
0.10013025 0.059065621 0.6043312
0.095087856 0.053792894 0.61570144
0.09459237 0.056041215 0.61096627
0.094833627 0.056731481 0.60946894
0.095198035 0.059334341 0.60437077
0.091407031 0.054222267 0.61532044
0.089710921 0.055058986 0.61354554
0.090196252 0.057357859 0.61015189
0.090483002 0.059234679 0.60495645
0.086406097 0.056045771 0.61256087
0.086176589 0.058439374 0.60807604
0.087292172 0.0608183 0.60650837
0.1635098 0.054705746 0.61196196
0.1636762 0.056412142 0.60840189
0.15862675 0.051385079 0.61951643
0.16055782 0.05245927 0.61712158
0.16227435 0.052957632 0.61389565
0.16240747 0.05704641 0.60573131
0.16052 0.05919534 0.60325027
0.15847099 0.060321502 0.60084218
0.15569113 0.051022872 0.6209138
0.1576636 0.058434833 0.60053778
0.1557024 0.061071172 0.5997771
0.15044893 0.050506126 0.62258273
0.15086688 0.062376663 0.59852517
0.14582923 0.052073326 0.6253022
0.1447334 0.050943241 0.62231666
0.1449234 0.062339231 0.5987289
0.14519259 0.065325506 0.59789956
0.14097075 0.05319434 0.62140214
0.139293 0.052614313 0.61787981
0.13951774 0.059764601 0.60265744
0.14109118 0.062766172 0.60110074
0.1335512 0.050532676 0.63054198
0.13388512 0.050733976 0.62792432
0.13794117 0.055082388 0.62109083
0.13590199 0.055031613 0.61820471
0.13528574 0.05691478 0.61293298
0.13531688 0.058685083 0.60881555
0.13591203 0.061550211 0.60451168
0.13564563 0.06488286 0.60087615
0.13383038 0.066584721 0.59578413
0.13330702 0.068527296 0.59395069
0.12992449 0.048629366 0.63090372
0.13111168 0.049138166 0.62670344
0.12995711 0.052973777 0.62382156
0.13311195 0.057620957 0.61716521
0.13295612 0.062699363 0.60697585
0.12996455 0.064494483 0.5996086
0.13144208 0.064893477 0.59454733
0.12996776 0.067437343 0.59197479
0.12594479 0.048615791 0.63082743
0.12374516 0.051585041 0.62881905
0.12552835 0.053099185 0.62196594
0.12579319 0.063411437 0.60084355
0.12397683 0.06786678 0.59515965
0.12605566 0.067323804 0.59171492
0.12242227 0.04815672 0.62912506
0.12115431 0.051174242 0.62636662
0.1212909 0.052927002 0.62306774
0.12131391 0.064332739 0.59972703
0.12100172 0.065306917 0.59619462
0.12247461 0.065758429 0.59221953
0.09969449 0.057634313 0.61723411
0.10110444 0.059585642 0.61453754
0.10083911 0.061580438 0.61044466
0.099640444 0.06273137 0.60652918
0.09752474 0.058405139 0.61700666
0.094707929 0.059606608 0.61528105
0.094160244 0.061899394 0.61114174
0.09572015 0.063195288 0.60727209
0.090831324 0.057241581 0.61637598
0.090898871 0.060464792 0.61516881
0.09105216 0.062189497 0.6104508
0.090606153 0.062710807 0.60693312
0.085589707 0.060627125 0.61501396
0.08512792 0.062391393 0.61030161
0.085959658 0.062891491 0.60735863
0.080906965 0.06189128 0.61521375
0.080545984 0.063337967 0.6107884
0.076454535 0.062778175 0.61559719
0.076232068 0.064447321 0.61138755
0.16429602 0.058794141 0.6138708
0.16448066 0.060627215 0.60999918
0.15843891 0.055231795 0.62113816
0.16060464 0.056852274 0.61927086
0.16254963 0.05835636 0.61599696
0.162697 0.062241711 0.60858279
0.16061327 0.063605621 0.60548013
0.15843469 0.065112181 0.60355186
0.1541594 0.054961573 0.62733918
0.1559452 0.055464257 0.62339085
0.15853593 0.066719018 0.60453701
0.15598947 0.06581264 0.60174161
0.15419459 0.06876424 0.59890175
0.15078373 0.054241385 0.62833238
0.15165889 0.053203806 0.62481517
0.15148298 0.06559363 0.59905624
0.1509918 0.06899751 0.59772325
0.14584683 0.054152131 0.62776673
0.14609368 0.068467766 0.59793669
0.1388585 0.054633919 0.63310683
0.14035106 0.056166701 0.62856537
0.14039332 0.056515358 0.62457198
0.14045064 0.067672148 0.60160321
0.14065522 0.070511587 0.59880626
0.13917147 0.072944038 0.59523755
0.13544755 0.053030103 0.63341665
0.13651788 0.053684626 0.62829781
0.13605216 0.057363991 0.6245048
0.13538298 0.056802541 0.6210621
0.13370354 0.061540801 0.61357933
0.13385922 0.062432881 0.61282563
0.13540626 0.065266907 0.60404408
0.13605884 0.067907713 0.60224748
0.13666913 0.069109768 0.59687549
0.13562758 0.072177283 0.59368354
0.13092241 0.052972071 0.63315809
0.13107873 0.057307951 0.62505251
0.13240694 0.059644207 0.62026745
0.1328385 0.061860152 0.61598182
0.13273345 0.064109251 0.61099631
0.13232836 0.065966859 0.60618305
0.13112669 0.068185009 0.60221851
0.1310818 0.07174129 0.59368348
0.12753455 0.054016009 0.63212997
0.1258848 0.055576682 0.62937099
0.12576249 0.057257317 0.62529159
0.12593697 0.068761669 0.60192949
0.12594433 0.070546351 0.59770942
0.127856 0.071770564 0.59492928
0.12285323 0.054429978 0.62682921
0.12285094 0.055646252 0.62532991
0.11914471 0.064683415 0.61609674
0.11902456 0.065673389 0.6138503
0.12303101 0.067786537 0.60060596
0.12292304 0.068084501 0.59851551
0.11494394 0.063390121 0.61708689
0.11491249 0.065509871 0.6128366
0.11250842 0.064016432 0.61663353
0.1127452 0.065807059 0.61324179
0.098891854 0.060919851 0.61833733
0.099445224 0.063412495 0.6170069
0.099346384 0.065476015 0.61182356
0.098802969 0.06573876 0.60915995
0.097859412 0.061524089 0.61845952
0.095869489 0.064648136 0.61677086
0.09577471 0.066711411 0.61272359
0.096735246 0.066081583 0.60918736
0.093072906 0.066906698 0.61645371
0.093054414 0.06788405 0.61310887
0.080074072 0.063953586 0.61656862
0.078433849 0.065924503 0.61159611
0.076546051 0.064878978 0.61665934
0.076197758 0.066099286 0.61225176
0.16435939 0.062482201 0.61453599
0.16441242 0.063604318 0.6123504
0.16012423 0.060956039 0.62053698
0.16156794 0.063485131 0.61698055
0.16185516 0.066039421 0.61213434
0.16003832 0.067188784 0.60775244
0.15424259 0.056975182 0.62777627
0.15589043 0.059571665 0.62594706
0.15792751 0.061980195 0.62277263
0.15779133 0.069482587 0.60693949
0.15588991 0.070395634 0.60334194
0.15457489 0.07003279 0.60012579
0.15068632 0.058138344 0.62960923
0.15234588 0.060442492 0.62837118
0.15238677 0.072781406 0.60240692
0.15072979 0.072330482 0.59985179
0.1447801 0.059352063 0.63423276
0.14684239 0.058143519 0.63213599
0.14683118 0.074309446 0.59826171
0.14465949 0.076555453 0.59781212
0.14041606 0.057447575 0.63507098
0.14185929 0.057355501 0.6311332
0.1389983 0.059049405 0.62548703
0.13895589 0.069757707 0.60327363
0.1420389 0.072945431 0.59834194
0.14081474 0.076137938 0.59597868
0.13616301 0.056546628 0.63650256
0.13648814 0.060263615 0.62556934
0.13393137 0.067921139 0.61545038
0.13640139 0.07069315 0.60411561
0.13638967 0.076726869 0.59418237
0.13134837 0.057336908 0.6359964
0.13099971 0.061564464 0.62562454
0.1319447 0.064056776 0.62254691
0.13243099 0.066082895 0.61761713
0.13228562 0.068131864 0.61336124
0.13170728 0.070731901 0.60886294
0.13131292 0.071403615 0.60504544
0.13125181 0.076840118 0.59507692
0.12802583 0.058072507 0.63433427
0.12714998 0.059733789 0.63170576
0.12771934 0.061041631 0.62794977
0.12446517 0.068572372 0.618339
0.12454478 0.069802329 0.61536825
0.12774342 0.072908185 0.60298812
0.12730183 0.075107671 0.59971851
0.12820518 0.076168917 0.59680909
0.11999753 0.066191092 0.62134886
0.12195893 0.066889659 0.6184333
0.12154868 0.069080383 0.61373806
0.1198155 0.071892075 0.6121034
0.11643092 0.065583862 0.62179673
0.11589672 0.064622872 0.61949348
0.11628239 0.068725087 0.61199313
0.1164142 0.071931086 0.61108249
0.11103733 0.066205598 0.62344956
0.11060752 0.06679289 0.61873597
0.11075507 0.069222488 0.61374122
0.11125842 0.072359487 0.6102587
0.10889165 0.068215452 0.62270534
0.10799643 0.069191255 0.61842924
0.10830022 0.071086586 0.61496103
0.10887374 0.072645925 0.61181861
0.09535291 0.068362013 0.61805868
0.095380455 0.070161186 0.61449623
0.091641925 0.069813296 0.61861521
0.091451228 0.071146592 0.61512494
0.088561445 0.071338393 0.61861652
0.088292792 0.072646849 0.61550665
0.15979025 0.06775479 0.61750174
0.16015244 0.069270365 0.61479074
0.15525666 0.064123452 0.62679571
0.15640928 0.066270478 0.62381071
0.15806542 0.068799056 0.61977297
0.15822485 0.071909688 0.61405009
0.15646999 0.072911993 0.60996753
0.15525112 0.073904201 0.60645133
0.14962471 0.062126614 0.63050997
0.15186845 0.064476512 0.62877929
0.15384965 0.067882918 0.62604517
0.15378067 0.075682186 0.60977244
0.15186042 0.075749144 0.60550231
0.14970748 0.075496823 0.60248458
0.14475261 0.060692225 0.63509399
0.1470366 0.062586576 0.63313001
0.14916848 0.065477178 0.63075298
0.14899413 0.077859923 0.60457051
0.14717193 0.077903837 0.60118306
0.14477202 0.078527041 0.59836537
0.14160067 0.060858056 0.63590312
0.141507 0.06417577 0.63454646
0.14153716 0.080155008 0.6014539
0.14186484 0.0790883 0.59786665
0.13644111 0.061731894 0.63724506
0.13838556 0.06527321 0.6344521
0.1349856 0.067843348 0.62945223
0.13586229 0.069053397 0.62407404
0.13481042 0.06993477 0.62224615
0.13444704 0.074165277 0.61341918
0.13558863 0.07517983 0.6117667
0.13497312 0.078719772 0.60714489
0.13824832 0.080867022 0.60202712
0.13650282 0.080763891 0.59781814
0.1320011 0.062114283 0.63679272
0.13094081 0.065360926 0.63420051
0.13162985 0.066662818 0.62917995
0.13301128 0.06675601 0.62394392
0.13166983 0.069670901 0.62032807
0.13125537 0.072551981 0.61460406
0.1331249 0.073593996 0.61035514
0.13160492 0.077594459 0.60658139
0.13106373 0.080557428 0.60239834
0.13226236 0.080711506 0.59831274
0.12879647 0.060839605 0.63498038
0.12867391 0.063179567 0.6329816
0.12863606 0.06435734 0.62999731
0.12530638 0.071265966 0.62371457
0.12677686 0.070897877 0.6202119
0.1269391 0.073114678 0.61566412
0.12528019 0.075861625 0.61392391
0.12878381 0.0765156 0.60442215
0.12882558 0.078321166 0.60145152
0.1216592 0.069850363 0.62412155
0.12350403 0.069504857 0.62136567
0.12330083 0.072989285 0.61420834
0.1215627 0.075489707 0.61275834
0.11677391 0.069129005 0.62580425
0.11670066 0.075933181 0.61150557
0.11216548 0.067737117 0.62692386
0.11204599 0.068747506 0.62647694
0.11171008 0.076021254 0.61117309
0.10831039 0.070746243 0.62449074
0.10610002 0.072510011 0.62094361
0.10643674 0.07482332 0.61637461
0.10852315 0.075624801 0.61316395
0.090906806 0.072899349 0.61961317
0.090571806 0.074132316 0.61697155
0.088784941 0.073584653 0.62000459
0.088442385 0.074888229 0.61677074
0.15454538 0.069699667 0.62301075
0.15677182 0.071587376 0.61938119
0.1570394 0.073081836 0.61638451
0.1550643 0.074313439 0.61326194
0.15081446 0.06783513 0.62880182
0.15180567 0.070157133 0.62558264
0.15224011 0.073649406 0.6211251
0.15218739 0.075904824 0.61702782
0.15180318 0.076739132 0.6116696
0.15063776 0.077940017 0.60821062
0.14571801 0.066797622 0.6333676
0.14702666 0.068903781 0.63054812
0.14714341 0.072303995 0.62655842
0.14749205 0.075276047 0.62222344
0.14747833 0.077520318 0.61794376
0.14713284 0.078810126 0.61273926
0.14701936 0.079826303 0.60784936
0.14571173 0.080851912 0.60415274
0.14270857 0.067107826 0.63355768
0.14238141 0.070322156 0.63085961
0.14270224 0.073271602 0.62813151
0.14382999 0.077240989 0.62081027
0.14488792 0.077589318 0.61981136
0.14290179 0.080626927 0.61290449
0.14241773 0.081077456 0.60834491
0.14266549 0.081228912 0.60410035
0.13502058 0.064965323 0.63698214
0.13665636 0.066411301 0.6342442
0.13713768 0.06935665 0.63068801
0.13658094 0.072601758 0.62628073
0.13595949 0.075863056 0.62503207
0.13577417 0.079789765 0.6168679
0.13667953 0.079270475 0.61296678
0.13705018 0.080385461 0.60798341
0.13686885 0.08113911 0.60372835
0.13499545 0.082420319 0.60058212
0.13367949 0.06492614 0.63698232
0.13311741 0.066239037 0.63526559
0.13376977 0.073455289 0.62449461
0.13197203 0.07490468 0.62405914
0.13219556 0.078807205 0.61688077
0.13371165 0.07822144 0.61481965
0.13331237 0.081929408 0.60222793
0.12689558 0.074502096 0.62530071
0.12858105 0.074022122 0.62409371
0.12796855 0.077419832 0.61533797
0.12707417 0.07947886 0.6152637
0.12139919 0.073460348 0.62776363
0.12147596 0.080180265 0.61306041
0.11807813 0.07408914 0.62843913
0.11805887 0.081085555 0.61309534
0.11248415 0.07432618 0.62774271
0.11234805 0.080724984 0.61407453
0.10775765 0.075044595 0.62685275
0.10527775 0.076735154 0.62389845
0.10551269 0.079703718 0.61768633
0.10786241 0.080939002 0.61508328
0.10476503 0.078208685 0.62234783
0.10476101 0.079073176 0.61995065
0.14535779 0.07628563 0.62290072
0.14529538 0.078546658 0.61813295
0.14231339 0.075017162 0.62630546
0.14247787 0.076576941 0.62335414
0.14245775 0.079065502 0.61816114
0.14203183 0.080441386 0.61502635
0.13934599 0.075356372 0.62622088
0.13756925 0.077274613 0.62280953
0.13763407 0.079066932 0.61905062
0.1393147 0.080530688 0.61544144
0.13238148 0.078045681 0.62331116
0.1321187 0.080014259 0.61953217
0.12681009 0.078059539 0.62708813
0.1288553 0.079842046 0.62510395
0.12900901 0.082248487 0.6194728
0.12672374 0.08297421 0.61685026
0.12044733 0.078465372 0.63221979
0.12173153 0.077591717 0.62981749
0.12194179 0.084496543 0.6149134
0.12047432 0.086084053 0.61341101
0.11989331 0.077813976 0.63186532
0.11821855 0.077793352 0.63002706
0.11816941 0.084952243 0.61474276
0.11981887 0.08603397 0.61330092
0.11271045 0.079069957 0.62920958
0.11280644 0.084965199 0.61636537
0.10830677 0.079604663 0.62864298
0.1060205 0.081537165 0.62543708
0.10613592 0.083924927 0.62056559
0.1085069 0.085197106 0.61736697
0.10504831 0.079862863 0.62358552
0.1050522 0.081018463 0.62141585
0.1265929 0.083587073 0.62566859
0.12657285 0.085272431 0.62195694
0.1222332 0.082698822 0.62979537
0.12368526 0.085588582 0.62746972
0.12378371 0.087920934 0.62224394
0.12235256 0.087918103 0.61871791
0.11818554 0.083173133 0.63097453
0.12084061 0.090137407 0.62172109
0.11810888 0.08926037 0.61815673
0.1133893 0.083689146 0.63041168
0.11151679 0.086407542 0.6297524
0.11120559 0.090219736 0.62153113
0.1132737 0.089183889 0.61900127
0.10960817 0.083259754 0.6293847
0.10851686 0.085828997 0.62741661
0.10844387 0.087982327 0.62291336
0.1098881 0.088168867 0.61948395
0.12162162 0.088284537 0.62698781
0.12194704 0.089131266 0.62474263
0.11847349 0.086380318 0.63070315
0.11744948 0.090471849 0.62862039
0.11743557 0.092127249 0.62561458
0.11756457 0.091484398 0.62126529
0.11546466 0.086807884 0.63090634
0.11374779 0.091000967 0.62875998
0.11338042 0.092640951 0.62556595
0.11476917 0.091569722 0.62136018
0.11043438 0.088934258 0.62731832
0.1106355 0.090252817 0.62495786
0.1331425 0.097671837 0.62632489
0.13340755 0.09850619 0.62503886
0.13128595 0.097717583 0.62680459
0.11665019 0.094242632 0.62906325
0.11669587 0.095027439 0.62815654
0.11432241 0.094712459 0.6299541
0.11414766 0.095792152 0.62758017
0.11122759 0.094718069 0.62901455
0.11131693 0.0951479 0.62820554
0.13775662 0.099262454 0.62648153
0.13785121 0.099903606 0.62542194
0.1342006 0.099415787 0.6278199
0.13448 0.10000536 0.62518656
0.12866458 0.099378765 0.63171756
0.12948833 0.099742405 0.62838775
0.13110396 0.10059274 0.62575686
0.12538445 0.1004158 0.63292122
0.12606211 0.10122871 0.62989938
0.11886758 0.099818088 0.63295472
0.11820099 0.10065991 0.6309284
0.11475576 0.099291816 0.63275379
0.11484955 0.10024613 0.63024676
0.12828909 0.10211013 0.63320559
0.12909025 0.10306293 0.63079214
0.12472157 0.1028975 0.63467938
0.12497099 0.10409346 0.63161993
0.11980629 0.103611 0.63521647
0.11996083 0.10355159 0.63236135
0.11627769 0.10300589 0.63414246
0.11662014 0.10309955 0.63241506
