# .PCD v0.7 - Point Cloud Data file format
VERSION 0.7
FIELDS x y z
SIZE 4 4 4
TYPE F F F
COUNT 1 1 1
WIDTH 837
HEIGHT 1
VIEWPOINT 0 0 0 1 0 0 0
POINTS 837
DATA ascii
0.18639934 -0.12304176 0.92420977
0.18491937 -0.12471829 0.92587101
0.19093254 -0.11431866 0.92203707
0.18869683 -0.1170198 0.92308444
0.1858961 -0.12032355 0.92521244
0.18335913 -0.12332797 0.92814946
0.18129462 -0.12596212 0.93166131
0.17990726 -0.12737834 0.9349004
0.19100834 -0.11108252 0.92363662
0.18771908 -0.11340313 0.92561907
0.18456592 -0.11623809 0.92820048
0.18196137 -0.119289 0.9312591
0.18007743 -0.12265166 0.9344601
0.17888302 -0.12547639 0.93781543
0.19336978 -0.1056988 0.92546785
0.19100475 -0.10717165 0.92643446
0.18714684 -0.10962014 0.92882794
0.18395239 -0.11240537 0.93149161
0.18131548 -0.1154979 0.93458897
0.1793965 -0.11881404 0.93785083
0.1781587 -0.12251579 0.9414252
0.17770177 -0.12370367 0.94427907
0.19327518 -0.10327545 0.92797035
0.19102472 -0.1036282 0.93006384
0.18714848 -0.10617121 0.93237418
0.18389079 -0.10892806 0.93520576
0.18131188 -0.11201996 0.93818802
0.17939894 -0.1153977 0.94136333
0.17816886 -0.11903059 0.94493014
0.17770781 -0.12191452 0.94606918
0.19097194 -0.10103962 0.93398726
0.1877607 -0.102904 0.93646693
0.18455586 -0.10575162 0.93896782
0.1819526 -0.10888265 0.94192296
0.18002765 -0.11225323 0.9453184
0.17890845 -0.11548163 0.94798547
0.19083935 -0.099544063 0.93733203
0.1886424 -0.10061911 0.94012582
0.1858138 -0.10292951 0.94317013
0.18332468 -0.10590893 0.94603968
0.18128595 -0.10944915 0.94863826
0.17998014 -0.11255085 0.95011359
0.18629719 -0.10200025 0.9460839
0.18486147 -0.10370217 0.94778037
0.19494 -0.12317736 0.91740572
0.19281098 -0.12540995 0.91870683
0.19027586 -0.12833263 0.9208222
0.18777873 -0.13133036 0.92371571
0.18580738 -0.13381326 0.92685777
0.19764999 -0.11635049 0.91715252
0.19504638 -0.11926051 0.91787261
0.19141401 -0.12192559 0.91985488
0.18816067 -0.12484337 0.92243367
0.18554315 -0.1280127 0.92547745
0.18366754 -0.13121231 0.92885244
0.18246537 -0.13416621 0.9323886
0.18145992 -0.13584733 0.93593115
0.19740279 -0.11289293 0.91852111
0.19346388 -0.11518633 0.91991961
0.19030701 -0.11824343 0.92129457
0.18819439 -0.12076595 0.92260307
0.18313286 -0.12692541 0.9284761
0.1816628 -0.12858224 0.93134111
0.18037358 -0.13079058 0.93514568
0.17995542 -0.13381326 0.93877977
0.17941457 -0.13479298 0.94282234
0.20007803 -0.10737631 0.92016166
0.19660173 -0.10886423 0.92100137
0.19322273 -0.11075893 0.92203164
0.17879549 -0.12801671 0.93873012
0.1785017 -0.13037303 0.94210613
0.17869595 -0.13288553 0.9450478
0.20003308 -0.10353002 0.92311263
0.1959478 -0.10502549 0.92419183
0.17799503 -0.12578852 0.94175822
0.17774698 -0.12666295 0.9454338
0.17806982 -0.12982349 0.94842607
0.19983973 -0.1002457 0.92660022
0.19592537 -0.10143948 0.92788583
0.19333377 -0.10132561 0.93033946
0.177939 -0.11984727 0.94802386
0.1777575 -0.12311184 0.94904804
0.17804968 -0.12631325 0.9519155
0.19992501 -0.097523466 0.93032694
0.19656318 -0.098350175 0.93182158
0.19319126 -0.099409632 0.93372232
0.17880365 -0.11653077 0.9505285
0.1785332 -0.11987585 0.95284587
0.17867209 -0.12303363 0.95511305
0.19757012 -0.095889479 0.93587047
0.19340996 -0.097459532 0.93812382
0.19028644 -0.098843031 0.94135654
0.18806607 -0.10031627 0.94404233
0.18326706 -0.10605255 0.94957012
0.1817534 -0.1090264 0.95125216
0.18036684 -0.11300456 0.95330018
0.17993486 -0.11678626 0.95626056
0.17954935 -0.12036511 0.95740509
0.19762012 -0.094616845 0.9396975
0.19492479 -0.095529661 0.94233346
0.19143805 -0.097490758 0.94505918
0.18815446 -0.10017967 0.94774854
0.18549666 -0.10334267 0.95074743
0.18368006 -0.10677341 0.9540422
0.18243089 -0.11047735 0.95687819
0.1814249 -0.11403001 0.9583773
0.19293723 -0.096383609 0.94838655
0.19021153 -0.098716959 0.95134515
0.18772587 -0.10166628 0.95415628
0.18581395 -0.1048511 0.95664567
0.19714591 -0.13049319 0.91685665
0.19429827 -0.13339713 0.91914719
0.19189107 -0.13630891 0.92194963
0.18995363 -0.13904253 0.92516834
0.20161252 -0.12149462 0.91472566
0.19871639 -0.12440163 0.91565561
0.19546819 -0.12744188 0.91729891
0.19228718 -0.13085622 0.91978055
0.18958065 -0.13394618 0.92288411
0.18748043 -0.13687029 0.92649883
0.18598713 -0.13938294 0.93035358
0.18506552 -0.14140114 0.9340077
0.2040606 -0.11541768 0.91524303
0.20092514 -0.11781494 0.91557527
0.19750583 -0.12052966 0.91638517
0.18352279 -0.13747917 0.93279999
0.18283144 -0.13933793 0.93665928
0.18259068 -0.14096843 0.94028819
0.20701662 -0.10920217 0.91715205
0.20366484 -0.11140127 0.91685826
0.20035632 -0.11348872 0.91698599
0.18068042 -0.13680649 0.93990177
0.18094003 -0.1386552 0.94329011
0.18120237 -0.1398026 0.94721383
0.20668449 -0.1061075 0.9190647
0.20348065 -0.10711195 0.91917545
0.17950949 -0.13564847 0.94674158
0.18033366 -0.13757733 0.94959778
0.20649906 -0.10229184 0.92207134
0.20330648 -0.10305158 0.92223233
0.1787456 -0.13230516 0.95068246
0.17969517 -0.13447185 0.95301652
0.20656657 -0.099036068 0.92542112
0.20316473 -0.099453911 0.92597318
0.17873627 -0.12872498 0.95437217
0.17971608 -0.13108659 0.95658302
0.20668611 -0.096391223 0.92899412
0.20330204 -0.096406832 0.93028539
0.17950259 -0.12486836 0.95789039
0.18032394 -0.12783386 0.95971376
0.20375113 -0.094218448 0.93449783
0.20038328 -0.094385087 0.93665212
0.18068944 -0.11793081 0.95927006
0.18089801 -0.12154578 0.960953
0.18120924 -0.12543361 0.96206921
0.20423573 -0.092711791 0.93848807
0.20088592 -0.09314613 0.94092607
0.19752486 -0.093997315 0.94366962
0.18347795 -0.11066272 0.95980215
0.1828801 -0.11467748 0.9618935
0.18258247 -0.11858509 0.96345067
0.20181969 -0.092311978 0.94472456
0.19861647 -0.093425445 0.94737422
0.19538112 -0.095165677 0.95057154
0.19231492 -0.097644478 0.95377737
0.18959327 -0.10088114 0.95690608
0.18742873 -0.1046197 0.95966893
0.18599337 -0.10857204 0.9622032
0.18502945 -0.11225674 0.96400297
0.19923015 -0.09343785 0.95150179
0.19717655 -0.094751269 0.9536218
0.19427705 -0.097140014 0.95641583
0.19186385 -0.10005154 0.95929748
0.18998581 -0.10336933 0.96206385
0.18883073 -0.10584331 0.96363157
0.19883777 -0.13922258 0.9191528
0.19736567 -0.14120434 0.92104518
0.20610487 -0.12691608 0.91361755
0.2030212 -0.1292316 0.91455835
0.20009533 -0.13288119 0.91622919
0.19749968 -0.13639726 0.918522
0.19483273 -0.13950244 0.92157686
0.19246775 -0.14214399 0.92518699
0.19048263 -0.14415081 0.92903847
0.18980592 -0.1462051 0.932441
0.20817535 -0.12031908 0.91356581
0.20531124 -0.12304366 0.91378003
0.20202102 -0.12615806 0.91449577
0.18802801 -0.14289097 0.93076438
0.18713978 -0.14467672 0.93481559
0.18665789 -0.1460598 0.93861371
0.21078755 -0.11392823 0.91486603
0.20788777 -0.11641294 0.91439331
0.2047746 -0.11905463 0.91424054
0.18469247 -0.14308029 0.93752414
0.18457711 -0.14436097 0.94163364
0.18490182 -0.14551608 0.94529831
0.21026197 -0.11047924 0.91630995
0.20736204 -0.11226667 0.91573507
0.18254031 -0.14201033 0.94455671
0.18314596 -0.14302494 0.94774586
0.2106086 -0.10630763 0.91860998
0.18202206 -0.14042273 0.95179152
0.21381702 -0.1014788 0.92242724
0.21092275 -0.10230105 0.92163563
0.18146311 -0.13732243 0.95583284
0.18281145 -0.13858551 0.95825249
0.21374317 -0.099492483 0.92446542
0.21092349 -0.098725051 0.92531312
0.18150873 -0.13385871 0.95949656
0.18281043 -0.13661191 0.96031862
0.21059844 -0.09582708 0.92939252
0.18201099 -0.13000296 0.96252191
0.21031925 -0.09364289 0.93363196
0.20749679 -0.093134947 0.93536556
0.18250379 -0.12294789 0.96429497
0.18315862 -0.12610725 0.96527714
0.21103774 -0.092268549 0.93722373
0.20793495 -0.091899477 0.93959361
0.20471628 -0.091844097 0.94219142
0.18461737 -0.11572529 0.96548247
0.18454696 -0.11973072 0.96668833
0.18482763 -0.12348412 0.96772307
0.20826738 -0.091186658 0.94346523
0.2052715 -0.09148325 0.9462899
0.20197429 -0.092288673 0.94924599
0.18794425 -0.10895617 0.96546
0.18718837 -0.11315547 0.96736664
0.18667416 -0.11690316 0.96856189
0.20605184 -0.091427207 0.95006698
0.2030171 -0.092437185 0.95243776
0.20022696 -0.094153486 0.95600206
0.19755433 -0.096607998 0.95955026
0.19482836 -0.099756271 0.96252251
0.19241562 -0.10337108 0.96490777
0.19047698 -0.10743043 0.96699619
0.18995002 -0.11067033 0.96894592
0.19883227 -0.097337686 0.96233469
0.19779386 -0.098626018 0.9636122
0.20765348 -0.13519377 0.9150449
0.2048974 -0.13726291 0.91631192
0.20184875 -0.14019604 0.91856247
0.19938155 -0.14330485 0.92153406
0.19745255 -0.14610365 0.92494911
0.1967212 -0.14825341 0.92774987
0.20971006 -0.12804143 0.9134022
0.20701344 -0.13201378 0.91430247
0.20366414 -0.1348782 0.91568816
0.20100997 -0.13712873 0.91728359
0.19516385 -0.14503983 0.92548436
0.19395417 -0.14757843 0.92942327
0.19215384 -0.14897701 0.93373269
0.21561246 -0.11946216 0.91379285
0.21228063 -0.12188198 0.91332459
0.20951144 -0.12478354 0.91319698
0.18980344 -0.1481086 0.93586284
0.18937574 -0.14913139 0.93980837
0.21445386 -0.11582644 0.91449928
0.21208216 -0.11795814 0.91381675
0.18709221 -0.14769034 0.94280416
0.18737036 -0.14825791 0.94606173
0.21777242 -0.1095252 0.91737759
0.21519843 -0.11120025 0.91621262
0.18582007 -0.14631443 0.95033878
0.18669026 -0.14668633 0.95348698
0.21699508 -0.10640765 0.91907936
0.21453163 -0.10710986 0.91821957
0.18396735 -0.14305104 0.95376623
0.18543448 -0.14423004 0.95579422
0.21673161 -0.10253866 0.92200488
0.21405482 -0.10413925 0.92017156
0.18456368 -0.14092 0.959189
0.21672732 -0.099055715 0.92558807
0.21400347 -0.097541891 0.92688066
0.1845122 -0.13732179 0.96279347
0.21698025 -0.096395135 0.92931861
0.21452875 -0.095521554 0.93011457
0.18412386 -0.13174278 0.9654662
0.18532541 -0.13414887 0.96605539
0.2177732 -0.094683751 0.93265283
0.21506022 -0.093538038 0.93439537
0.18576293 -0.12866431 0.96841329
0.18668869 -0.13183156 0.96875793
0.21446495 -0.091991536 0.93902266
0.21210884 -0.091388553 0.9410814
0.1871379 -0.12114125 0.97011185
0.18739143 -0.12445474 0.97057217
0.21220618 -0.090985581 0.94514352
0.20938167 -0.090949953 0.94796151
0.18984063 -0.11445244 0.97079796
0.18939957 -0.11826846 0.97162044
0.20971622 -0.091242418 0.95127028
0.20704943 -0.092248574 0.95521355
0.20348136 -0.09381447 0.95814496
0.20101337 -0.095416501 0.9603197
0.19605711 -0.10122283 0.96582395
0.19505353 -0.10402805 0.96805304
0.19392902 -0.10785032 0.97034717
0.19213431 -0.11223762 0.97164142
0.20764081 -0.093072645 0.95831281
0.20500205 -0.094361968 0.96032709
0.2017623 -0.096738592 0.9632026
0.19927445 -0.099813715 0.96622986
0.19756733 -0.10321254 0.96897829
0.19679506 -0.10610455 0.97106338
0.21132964 -0.13608629 0.91519219
0.20874283 -0.1394536 0.91674972
0.20613739 -0.14313678 0.91922724
0.20356126 -0.14618975 0.92220968
0.20098418 -0.14876899 0.92581165
0.1990086 -0.15059447 0.92932457
0.21605119 -0.12723173 0.91359198
0.21392553 -0.13048235 0.91381812
0.21143122 -0.13349819 0.91434836
0.19695689 -0.15069701 0.93108946
0.19589436 -0.15196402 0.93476748
0.19481881 -0.15280506 0.938573
0.21864951 -0.12075082 0.9141829
0.21666831 -0.12369427 0.913629
0.19276114 -0.15214324 0.94130081
0.19202532 -0.15215722 0.9447186
0.21910118 -0.11699111 0.91499996
0.19067208 -0.15116212 0.94807208
0.2210348 -0.11136032 0.91744286
0.21944802 -0.11309247 0.91623706
0.18913165 -0.1495503 0.9515177
0.18940319 -0.14910981 0.95423466
0.22132029 -0.10737157 0.91970778
0.18847147 -0.14674181 0.95790088
0.22177187 -0.10345499 0.92281246
0.18804596 -0.14373811 0.9619137
0.22178423 -0.10000535 0.92636776
0.18800853 -0.1402144 0.96549708
0.22133166 -0.096910655 0.9305076
0.18842751 -0.13625735 0.96864474
0.22097154 -0.094835192 0.9343521
0.21943885 -0.093630031 0.93629581
0.18893763 -0.13001899 0.97149068
0.18933722 -0.13267204 0.97108883
0.21916264 -0.092546552 0.94015872
0.19062631 -0.126726 0.97333992
0.2184165 -0.091777422 0.94386411
0.21659599 -0.091336101 0.94685668
0.19280161 -0.1198595 0.97459638
0.19221082 -0.1234171 0.97461832
0.21599297 -0.091387652 0.95036221
0.21387434 -0.09171275 0.95363736
0.21154277 -0.092357583 0.95673692
0.19709837 -0.10965498 0.97352785
0.19576831 -0.11324915 0.97449166
0.19468087 -0.11695471 0.97517723
0.21132572 -0.093253233 0.95923793
0.20873803 -0.094927594 0.96260363
0.20613758 -0.097533986 0.96624041
0.2035625 -0.10052691 0.96911991
0.20102504 -0.10419551 0.97161132
0.19916566 -0.10770179 0.97337151
0.21820684 -0.13583235 0.91581321
0.21568365 -0.13768759 0.91613925
0.21303156 -0.14189555 0.91801459
0.21048158 -0.14550389 0.92046928
0.20793356 -0.14855848 0.92343777
0.20529868 -0.15110947 0.92698336
0.20264459 -0.15308401 0.93112969
0.20238432 -0.15443622 0.9339087
0.22007254 -0.12874146 0.91458464
0.21825266 -0.1327454 0.91493249
0.21519759 -0.13465348 0.91488999
0.1994307 -0.15276095 0.93257833
0.20011754 -0.15446387 0.93606919
0.19835426 -0.15495455 0.94006401
0.22275633 -0.12259878 0.91522413
0.22124664 -0.12557848 0.91467732
0.19683248 -0.15480395 0.94321704
0.19585229 -0.15453731 0.94634318
0.22581513 -0.11632896 0.91754216
0.22384819 -0.11842398 0.9162218
0.19446236 -0.15354386 0.95035285
0.1947446 -0.15321718 0.95352864
0.22520322 -0.11320581 0.91836691
0.22303 -0.11495899 0.91672248
0.19192302 -0.15164475 0.95243174
0.19307083 -0.15152293 0.95560193
0.22600769 -0.10882576 0.92097813
0.19231956 -0.14903721 0.96014458
0.22639707 -0.10477822 0.92418021
0.1919595 -0.14608176 0.96413869
0.22647405 -0.1013386 0.92777872
0.19201109 -0.14256163 0.96782619
0.22604293 -0.098340832 0.93174934
0.19239776 -0.13859788 0.97096211
0.2252344 -0.095814504 0.93625444
0.222957 -0.094172195 0.93805021
0.1921849 -0.13098866 0.97391653
0.19313912 -0.13403983 0.97359943
0.22544262 -0.09493763 0.93918347
0.2238148 -0.093779385 0.94153655
0.19447654 -0.12887114 0.97571701
0.19469342 -0.13202253 0.97527295
0.22271392 -0.092895165 0.94575375
0.22131969 -0.092467941 0.94877541
0.19686264 -0.12164348 0.97716653
0.19590567 -0.12497588 0.97683769
0.22022657 -0.092483833 0.9519248
0.2182087 -0.092867486 0.9558149
0.19978482 -0.11114369 0.97558832
0.1999658 -0.1146041 0.9769572
0.19837761 -0.11861507 0.97740668
0.21807177 -0.093810551 0.95891178
0.21551625 -0.094252378 0.96087235
0.21300277 -0.096197315 0.96490848
0.21054742 -0.098812722 0.96853334
0.20789476 -0.10183521 0.97145957
0.20539962 -0.10544949 0.97394252
0.20289865 -0.10964868 0.97584724
0.2023547 -0.11242343 0.97703445
0.22083777 -0.13704233 0.91698998
0.21987481 -0.13960645 0.91794997
0.21738927 -0.14369893 0.91979629
0.21477003 -0.14735584 0.92227042
0.21232882 -0.15039614 0.92523283
0.20959836 -0.15291545 0.92870826
0.20699763 -0.15492286 0.93286437
0.2047468 -0.15545614 0.93492991
0.22441013 -0.13062787 0.91639823
0.22253183 -0.13465941 0.91674423
0.22317508 -0.1382592 0.91837341
0.2078376 -0.15633291 0.93592799
0.2044632 -0.15631112 0.93784219
0.20244832 -0.15672153 0.94182473
0.22693244 -0.12434795 0.91699451
0.22562118 -0.12743391 0.9164806
0.20134248 -0.15672915 0.94493109
0.2000085 -0.15632671 0.9480564
0.22825712 -0.11732305 0.91860759
0.22815923 -0.1203378 0.91800982
0.19880396 -0.15540119 0.95221531
0.19669572 -0.15407567 0.95432419
0.22943252 -0.11496437 0.92015094
0.23076148 -0.11834326 0.91999769
0.20011884 -0.15508378 0.95603806
0.19739075 -0.15339118 0.95742172
0.23033413 -0.11060267 0.92283869
0.19660231 -0.15087664 0.96194375
0.23070942 -0.10666368 0.92595428
0.19627424 -0.14782308 0.96608138
0.23065194 -0.10307787 0.92959988
0.19626874 -0.14438415 0.96959907
0.23033927 -0.10019158 0.93354464
0.19653746 -0.14041241 0.97267902
0.22953987 -0.097687989 0.93799281
0.23074266 -0.097556666 0.94132423
0.20016594 -0.13434517 0.97719276
0.19739826 -0.13595355 0.97535717
0.22827992 -0.096168764 0.9403581
0.22827053 -0.095700085 0.94335663
0.1988415 -0.13080136 0.97752994
0.19671838 -0.13285987 0.97613955
0.22678976 -0.094653904 0.94735777
0.22573549 -0.094366431 0.95066714
0.20136744 -0.12365326 0.97904992
0.19998398 -0.12658161 0.97854793
0.22434978 -0.094264977 0.95368785
0.22250988 -0.094750285 0.9577539
0.20773076 -0.11465452 0.97892076
0.20444837 -0.11650679 0.97883284
0.20245591 -0.12039881 0.97911656
0.22024298 -0.094768338 0.95987362
0.21987979 -0.096052319 0.96257436
0.21740948 -0.098053768 0.96669728
0.21483138 -0.10067315 0.97032642
0.21213357 -0.10380994 0.9733668
0.20965111 -0.10734296 0.97575182
0.20710959 -0.11148925 0.97761011
0.20471738 -0.11355664 0.9780497
0.22353435 -0.14143108 0.92034781
0.22165114 -0.14503929 0.92216939
0.21905503 -0.14863868 0.92457026
0.21648303 -0.15176359 0.9276275
0.21389027 -0.15428266 0.93115628
0.21143425 -0.15591159 0.93440819
0.22795375 -0.13231714 0.91856915
0.22685269 -0.13600911 0.91925579
0.22565195 -0.13969597 0.92033923
0.21125764 -0.1568523 0.93704057
0.20872572 -0.15748754 0.94013959
0.20651399 -0.15780272 0.94346786
0.23042509 -0.12583947 0.91911417
0.22979686 -0.12938896 0.91911536
0.20601477 -0.15785977 0.94682521
0.20397466 -0.15739463 0.94959575
0.23207773 -0.12263044 0.92042208
0.2035237 -0.15666169 0.95356375
0.23329888 -0.11660507 0.9226042
0.23368742 -0.11929905 0.92219532
0.20324188 -0.15555987 0.95750028
0.20169233 -0.15440479 0.95929909
0.2342166 -0.11291131 0.92509216
0.20137212 -0.15225026 0.96332645
0.2346351 -0.10896967 0.92823648
0.20094608 -0.14926992 0.96732414
0.23460238 -0.10546995 0.93179744
0.20100287 -0.14579454 0.97092921
0.23420642 -0.1024485 0.935884
0.20126256 -0.14171098 0.97408485
0.23326884 -0.10006993 0.93962824
0.23360184 -0.099704564 0.94224477
0.20319524 -0.13599055 0.97754878
0.20169935 -0.13792482 0.97628957
0.23207729 -0.098114304 0.94552112
0.20353685 -0.13214172 0.9787488
0.23063761 -0.097041287 0.94897664
0.22993471 -0.097065993 0.95236391
0.20606752 -0.12550554 0.98012847
0.20413679 -0.12836932 0.97959787
0.22804494 -0.096588567 0.95539707
0.22672087 -0.097230315 0.95903856
0.22556201 -0.098409295 0.9626317
0.21107818 -0.11569364 0.9793855
0.20876476 -0.11891618 0.97996277
0.20657463 -0.1221109 0.98015773
0.22355373 -0.098576099 0.96444976
0.22173353 -0.10051154 0.96799695
0.21903951 -0.10306843 0.97160232
0.21648405 -0.10607558 0.97453099
0.21395098 -0.10967675 0.97695744
0.21140124 -0.11311677 0.97855371
0.22585979 -0.14306958 0.92265528
0.22518627 -0.14598702 0.92482185
0.22334221 -0.14940597 0.92750269
0.22080903 -0.15242831 0.93043178
0.21785629 -0.15478216 0.93337363
0.21497181 -0.1561044 0.93535477
0.23059021 -0.13698807 0.92216432
0.22875202 -0.14124492 0.92333609
0.22761311 -0.14513543 0.92565274
0.2215122 -0.15398443 0.93376058
0.21910831 -0.15542978 0.9356426
0.21569099 -0.15694042 0.93851775
0.21302135 -0.15796046 0.94252437
0.20965548 -0.15822312 0.94448942
0.23327704 -0.13088831 0.9221223
0.23286399 -0.13494423 0.92306745
0.2131798 -0.15825483 0.94574714
0.21056709 -0.1582094 0.94870824
0.23532353 -0.12475295 0.92323035
0.23563378 -0.12810944 0.92374963
0.21045785 -0.15781823 0.95263052
0.20815919 -0.15719923 0.95474464
0.23612854 -0.11731007 0.9251793
0.23684876 -0.12057359 0.92525887
0.20743313 -0.1556465 0.95933509
0.20498171 -0.15444429 0.96128041
0.2372961 -0.11501525 0.92765117
0.23853791 -0.11744505 0.92828327
0.20816025 -0.15366551 0.96366608
0.20570007 -0.15283401 0.96439344
0.2380849 -0.11180155 0.93090677
0.23948729 -0.11517864 0.93082607
0.20600943 -0.15014496 0.96817404
0.23808949 -0.10826065 0.93456268
0.23950373 -0.10838323 0.93779767
0.2085959 -0.14519982 0.97346556
0.2060322 -0.1466956 0.9717375
0.23720209 -0.10493901 0.93793833
0.23851259 -0.10582434 0.94012231
0.20807219 -0.14212815 0.97548842
0.20577404 -0.14285237 0.97465068
0.23592561 -0.10245808 0.94027978
0.23689494 -0.10293642 0.94345242
0.20750196 -0.13805787 0.97750986
0.20498358 -0.13975242 0.97634828
0.23532626 -0.10096771 0.947671
0.2354776 -0.10142758 0.95101506
0.2105068 -0.13128975 0.97991383
0.20809367 -0.13346703 0.97920972
0.2330955 -0.099001452 0.95003897
0.23331082 -0.10006952 0.95389432
0.2328525 -0.10099909 0.95768774
0.21326508 -0.12455861 0.98054302
0.21047604 -0.12722753 0.98043048
0.23050985 -0.098519772 0.95641422
0.23061234 -0.10018113 0.95978159
0.2287178 -0.10158093 0.96425456
0.2275914 -0.10398389 0.96803188
0.22155008 -0.11225292 0.97657275
0.21901828 -0.11426432 0.9780339
0.2156401 -0.11723905 0.9794575
0.21298881 -0.12119333 0.98034585
0.2259272 -0.10098295 0.96605271
0.22514383 -0.10306592 0.96880448
0.22335866 -0.1059697 0.97222888
0.22070712 -0.10900706 0.97521794
0.21766588 -0.11199678 0.97747254
0.21500149 -0.11411544 0.97873628
0.22492217 -0.1504526 0.92999721
0.22327808 -0.15245682 0.93203771
0.23290081 -0.13844296 0.92492288
0.23220158 -0.14180464 0.92679226
0.23021436 -0.14583109 0.92880589
0.22782107 -0.14941902 0.93117344
0.22519082 -0.15257099 0.93422657
0.22249262 -0.15503772 0.93777239
0.21970601 -0.1567293 0.94117284
0.21664248 -0.15776399 0.94364721
0.2359025 -0.13222013 0.92506063
0.23551421 -0.13605392 0.92643374
0.2347212 -0.14021516 0.92826438
0.22066188 -0.15691078 0.94440073
0.21731406 -0.15772738 0.94745988
0.2144724 -0.15801084 0.95026809
0.23788676 -0.12568216 0.92608166
0.23813497 -0.12940443 0.92706871
0.23815064 -0.13338031 0.92837071
0.21800187 -0.15734689 0.951545
0.21473561 -0.15730673 0.95411766
0.21168417 -0.15691717 0.9565686
0.23952352 -0.12314223 0.92848706
0.24019662 -0.12610942 0.92949855
0.21520671 -0.15599577 0.95855075
0.21240954 -0.15558422 0.96004248
0.24065131 -0.11924647 0.93120205
0.2120847 -0.15337941 0.9643389
0.23981327 -0.1127691 0.93319607
0.24114028 -0.11527874 0.93427008
0.21170394 -0.15048787 0.96841168
0.20879908 -0.14988735 0.96906936
0.23981841 -0.11079411 0.93519831
0.24118346 -0.11184343 0.93790531
0.21190213 -0.14693247 0.97207624
0.20888475 -0.14792992 0.97112453
0.24062288 -0.10876235 0.94189131
0.21209635 -0.14289641 0.97513252
0.23953041 -0.10619561 0.94587582
0.24013221 -0.10718594 0.94905728
0.21517247 -0.13715993 0.97793061
0.21234517 -0.13858891 0.97749758
0.23793852 -0.10390732 0.94841087
0.23810662 -0.10488178 0.95216799
0.23798241 -0.10614624 0.95623744
0.21812099 -0.1303588 0.97942007
0.2147489 -0.13280918 0.97934711
0.21171065 -0.13517818 0.97891092
0.23602152 -0.10315217 0.95511842
0.23549612 -0.1045097 0.95897269
0.23467679 -0.10631159 0.96292281
0.22060783 -0.12306142 0.97925591
0.217418 -0.12618671 0.97995448
0.21450531 -0.12875041 0.98019499
0.23290657 -0.10300287 0.9612444
0.23217836 -0.10493491 0.96457255
0.23019953 -0.10707497 0.96856946
0.22770894 -0.10956389 0.97217268
0.22511652 -0.11278064 0.97523648
0.22255673 -0.11636865 0.97753334
0.21968031 -0.11990469 0.9791677
0.21673895 -0.12235826 0.98010105
0.22538483 -0.10800446 0.97265851
0.2237844 -0.10976364 0.97450221
0.23382042 -0.1432438 0.92997015
0.23264006 -0.14600644 0.93189007
0.23076856 -0.14914916 0.93438828
0.22832201 -0.1520848 0.93727845
0.22564583 -0.15437266 0.9401238
0.22330189 -0.15577531 0.94198412
0.23765047 -0.13686946 0.92971921
0.23665416 -0.14065653 0.93154466
0.23513673 -0.14454246 0.93383437
0.23304932 -0.14829542 0.93673927
0.2304171 -0.15148872 0.93989223
0.22722834 -0.15405984 0.94315153
0.22406572 -0.15576781 0.94622874
0.22093451 -0.15685977 0.94901013
0.24004501 -0.13079892 0.93029493
0.23980808 -0.13435446 0.93177587
0.23911184 -0.13853055 0.9337911
0.22516586 -0.15518667 0.95008218
0.22163837 -0.15606628 0.95299828
0.21846497 -0.15648989 0.95521533
0.24161339 -0.12371192 0.9319976
0.2417872 -0.12774479 0.93286008
0.24190205 -0.13145384 0.93440032
0.22232121 -0.15476932 0.95719236
0.2189343 -0.15497155 0.95925987
0.24237153 -0.12132201 0.93411458
0.24315599 -0.12421362 0.93584394
0.21931021 -0.15275124 0.96355313
0.21592809 -0.15281001 0.96476072
0.24295013 -0.11805898 0.93719137
0.2439363 -0.1204991 0.93939692
0.2194915 -0.14975664 0.96776205
0.21612999 -0.15012613 0.96835387
0.2429615 -0.11473642 0.94067973
0.24392529 -0.1169171 0.94305348
0.21943937 -0.14617029 0.97146845
0.21625614 -0.14676514 0.97177947
0.2423109 -0.11158521 0.94409412
0.24313174 -0.11350009 0.94683707
0.21928908 -0.14210333 0.97452879
0.21596225 -0.14319587 0.97461575
0.24151111 -0.10949844 0.94649827
0.24180433 -0.11071876 0.95042223
0.24188924 -0.11230664 0.95410043
0.2222642 -0.13577908 0.97675002
0.21899308 -0.13785091 0.97686553
0.21567556 -0.14011423 0.97652805
0.2399803 -0.10807495 0.95347136
0.23976772 -0.10978892 0.95716798
0.23915021 -0.11190557 0.96109074
0.22515351 -0.12858972 0.97737229
0.22175272 -0.13158655 0.97812003
0.21849594 -0.13378254 0.9785248
0.23754388 -0.10770111 0.95971149
0.23667072 -0.10976863 0.96335483
0.23511145 -0.11223423 0.96726674
0.23299553 -0.1152273 0.97092724
0.23030561 -0.11835402 0.9740175
0.22722761 -0.12181538 0.97643775
0.22401094 -0.12484956 0.97806364
0.2209391 -0.12761594 0.97906291
0.23392624 -0.10802093 0.9656778
0.23270407 -0.11022857 0.96863747
0.23068769 -0.11285347 0.97184509
0.2283777 -0.11580787 0.9745928
0.22573715 -0.11857883 0.97676128
0.22333807 -0.12069806 0.97817153
0.23802827 -0.14173223 0.93534863
0.23680995 -0.14433171 0.93694949
0.23486111 -0.14758958 0.93952143
0.23241623 -0.15051089 0.94237888
0.22970308 -0.15283638 0.94532359
0.22747415 -0.15422976 0.94756442
0.24117458 -0.13525441 0.93528062
0.24023755 -0.13866177 0.93680149
0.23894754 -0.14250474 0.93974322
0.23717202 -0.14582744 0.94287759
0.23448466 -0.1490452 0.94601989
0.23119272 -0.15173063 0.94867831
0.2277181 -0.15368319 0.95139843
0.22502278 -0.15457749 0.95410848
0.24271564 -0.13237485 0.93741816
0.24231523 -0.13616237 0.94048649
0.24095531 -0.14012104 0.94260019
0.23935857 -0.14318815 0.94404221
0.23468654 -0.14881541 0.94955796
0.23243636 -0.15030271 0.9524197
0.22922415 -0.15177563 0.95557231
0.22520971 -0.15330572 0.95774168
0.22259101 -0.15336595 0.96046555
0.24400093 -0.12619372 0.93867046
0.24412644 -0.12930132 0.94085252
0.2438857 -0.13255085 0.94313979
0.22947104 -0.14978024 0.96006286
0.22609031 -0.15085395 0.96192992
0.22267181 -0.15165713 0.9634831
0.24461472 -0.12289618 0.94183147
0.24491015 -0.12613976 0.94473642
0.2292973 -0.14821197 0.9629578
0.22677465 -0.14778917 0.96579146
0.22273715 -0.14889348 0.96726692
0.24460307 -0.11950498 0.94507205
0.24491549 -0.1225774 0.94838393
0.2446418 -0.12319327 0.95210981
0.22691563 -0.14421399 0.96938473
0.2227518 -0.14562827 0.9706105
0.24400315 -0.11644737 0.94859409
0.24415259 -0.11879106 0.95167089
0.24386278 -0.12109136 0.95501167
0.22948365 -0.13825557 0.9717859
0.22612631 -0.14043877 0.9726404
0.22265545 -0.14189526 0.97350782
0.24322106 -0.11439018 0.95109487
0.24272108 -0.11534095 0.95486766
0.24234855 -0.11857536 0.95854169
0.24086161 -0.12064946 0.96265221
0.23943937 -0.12245037 0.96543026
0.23486316 -0.12778558 0.97085518
0.23243143 -0.13081191 0.97242785
0.22939433 -0.13401453 0.97369778
0.22515519 -0.13635401 0.97525197
0.24119739 -0.11335568 0.95783186
0.24020743 -0.11499179 0.96131682
0.23895946 -0.11788312 0.96491653
0.23717502 -0.12122073 0.96820432
0.23456007 -0.12433458 0.97125608
0.23120874 -0.12722282 0.9739269
0.22766179 -0.13000043 0.97583795
0.2249331 -0.13273358 0.97666258
0.23689592 -0.1152377 0.96676397
0.23495246 -0.11790967 0.96996623
0.23241684 -0.12077683 0.9728902
0.22972977 -0.12388788 0.97511786
0.22769448 -0.12613453 0.97634995
0.23767781 -0.14566974 0.94620001
0.23648533 -0.14708479 0.94744456
0.24276781 -0.1364671 0.94375861
0.24137659 -0.1397634 0.94514328
0.23937625 -0.14324805 0.9475463
0.23685391 -0.14627959 0.950508
0.23400456 -0.14857224 0.9537273
0.23183765 -0.14971156 0.95623487
0.24376349 -0.13366736 0.94569433
0.24259961 -0.13703416 0.94849324
0.24070816 -0.14035298 0.95171452
0.23813386 -0.14342949 0.95473266
0.23491326 -0.14619519 0.95748055
0.23161569 -0.14819869 0.9598062
0.24495456 -0.12738444 0.9474864
0.24451399 -0.13007876 0.94872415
0.24328928 -0.13376403 0.95229292
0.24139494 -0.13707885 0.95555192
0.23876908 -0.14026436 0.9585557
0.2355592 -0.14302471 0.96130335
0.23165685 -0.14555627 0.96367311
0.22932222 -0.14621913 0.96549976
0.24497476 -0.12579247 0.94920921
0.24450864 -0.12662505 0.95233911
0.24328473 -0.13032806 0.9558745
0.24133722 -0.13369268 0.95918721
0.23873684 -0.13674602 0.96224582
0.23548865 -0.13956526 0.96496576
0.23159398 -0.14204215 0.96736062
0.22936939 -0.1440029 0.96776462
0.24376234 -0.12371935 0.95598584
0.24263479 -0.12650764 0.95917213
0.24064764 -0.12986779 0.96260816
0.23808759 -0.13304439 0.96551198
0.23480426 -0.13579333 0.96828169
0.23161009 -0.13823348 0.9700802
0.24270308 -0.12175854 0.95897347
0.24139237 -0.12326783 0.96203792
0.23931238 -0.12587747 0.96558577
0.23679687 -0.12894408 0.96848661
0.23397981 -0.13208854 0.97067446
0.23172988 -0.13499889 0.97166228
0.23791069 -0.12421063 0.96764064
0.23640344 -0.12600896 0.96940136
