# .PCD v0.7 - Point Cloud Data file format
VERSION 0.7
FIELDS x y z
SIZE 4 4 4
TYPE F F F
COUNT 1 1 1
WIDTH 1190
HEIGHT 1
VIEWPOINT 0 0 0 1 0 0 0
POINTS 1190
DATA ascii
-0.19755122 0.23531985 0.48754802
-0.20856696 0.24642032 0.45801479
-0.19156317 0.22932065 0.49332899
-0.19160457 0.22929263 0.49211192
-0.19613937 0.23406319 0.48697132
-0.20754707 0.24545304 0.45620102
-0.20838192 0.24609485 0.44863892
-0.20864567 0.24656615 0.44753858
-0.18980789 0.22792475 0.48705173
-0.19076204 0.22860819 0.48399949
-0.19234672 0.23073661 0.47937384
-0.20105039 0.23932901 0.4562082
-0.20313077 0.24114642 0.45051205
-0.20497763 0.24299698 0.44887617
-0.2078487 0.24578461 0.44736305
-0.18884602 0.22695512 0.48612317
-0.19034785 0.2281855 0.48281425
-0.19116654 0.22938286 0.47888681
-0.20005333 0.23837367 0.45521885
-0.20191911 0.23975316 0.45133361
-0.20289262 0.24104469 0.44839057
-0.21353269 0.24461773 0.49585918
-0.21442623 0.24605092 0.49315456
-0.22288379 0.25431767 0.47046533
-0.22384563 0.25495332 0.46803546
-0.20990509 0.24357438 0.49556637
-0.21184209 0.24574506 0.49174225
-0.21289083 0.24497345 0.48837879
-0.21934795 0.25095114 0.47185656
-0.22024406 0.25365645 0.47002023
-0.22138581 0.25487384 0.46549451
-0.20570299 0.23748112 0.4952035
-0.20628029 0.24033651 0.49443442
-0.20788437 0.24228379 0.48872277
-0.21062392 0.24258018 0.48697689
-0.21780983 0.24914941 0.47052312
-0.21638294 0.25053295 0.4674378
-0.21850106 0.25252527 0.46203232
-0.21898344 0.25034612 0.45940292
-0.20332806 0.23608658 0.49439052
-0.20257339 0.23828945 0.49128708
-0.20602532 0.2388019 0.4862963
-0.2141113 0.24688181 0.46533424
-0.21461466 0.25014716 0.46042421
-0.21668082 0.2494847 0.45763493
-0.19870454 0.2327068 0.49275857
-0.19888934 0.23594132 0.48936865
-0.20257878 0.2360816 0.48320779
-0.21012227 0.2435807 0.46323422
-0.21079266 0.24780676 0.45806217
-0.21340425 0.24711667 0.4544436
-0.19357219 0.22790918 0.49383542
-0.19456334 0.22911009 0.49101585
-0.19505219 0.23190981 0.48625907
-0.19937178 0.23366681 0.48117673
-0.20687686 0.24123454 0.46115685
-0.20721737 0.24461941 0.45454812
-0.21017814 0.24448305 0.45055869
-0.21073559 0.24524409 0.44763556
-0.19180281 0.22736369 0.49270946
-0.19234213 0.22642599 0.48886645
-0.19424427 0.22820719 0.48409534
-0.19582406 0.2296195 0.47915265
-0.20373811 0.23753825 0.45787573
-0.20553493 0.23969515 0.4536145
-0.20763236 0.24176247 0.4489558
-0.20893285 0.24443668 0.44691789
-0.18956575 0.22483419 0.48627746
-0.19150858 0.22660881 0.48203948
-0.19236216 0.22721282 0.47819114
-0.20108747 0.23585884 0.45494282
-0.20282388 0.23780148 0.45185685
-0.20390284 0.23920676 0.4476212
-0.21564549 0.2425479 0.49604887
-0.2168967 0.24384749 0.49331236
-0.22524261 0.25217569 0.47052941
-0.225696 0.25342083 0.4680472
-0.21348244 0.24021649 0.49630514
-0.21751326 0.24347216 0.49072903
-0.21567282 0.24312958 0.48834637
-0.22155514 0.24910291 0.47218743
-0.22448123 0.25022417 0.47206792
-0.22538203 0.25182614 0.46554276
-0.20663002 0.2362442 0.49499178
-0.20967005 0.23660767 0.49522507
-0.21168551 0.23791514 0.48633823
-0.21294019 0.24011734 0.48661539
-0.21960181 0.24657528 0.47031176
-0.2184146 0.24534211 0.46856058
-0.22235557 0.24912368 0.46151111
-0.21957985 0.24956751 0.45945036
-0.2056255 0.23287423 0.49386945
-0.20705581 0.23269182 0.49274519
-0.20856622 0.23618138 0.48545048
-0.21602286 0.24358159 0.46578521
-0.21978836 0.24612302 0.45890453
-0.21880268 0.24646379 0.45759636
-0.20172709 0.23003136 0.49257523
-0.20443067 0.23010823 0.48899883
-0.20535392 0.23285863 0.48456788
-0.21386603 0.24130866 0.46268809
-0.21611732 0.24172334 0.45803374
-0.21625043 0.24442592 0.45477691
-0.19824705 0.2276345 0.49093375
-0.20005393 0.2280212 0.48676535
-0.20140463 0.22971018 0.48250034
-0.21019015 0.23845887 0.45951873
-0.2118673 0.23983607 0.4554854
-0.21299742 0.24245729 0.45212662
-0.19550639 0.22532377 0.48774594
-0.19723783 0.22625206 0.48617741
-0.19835353 0.22775476 0.48081785
-0.20706247 0.23653188 0.45742294
-0.20919806 0.2384472 0.45331156
-0.20944285 0.2391569 0.45094645
-0.21763361 0.24058014 0.49522847
-0.21831551 0.24132407 0.49374756
-0.21622872 0.23642321 0.49577856
-0.21930096 0.23866591 0.49148354
-0.21764706 0.23911424 0.48833972
-0.22366032 0.24562803 0.47116709
-0.22689229 0.24669096 0.47016707
-0.22785196 0.2477755 0.4652918
-0.21329439 0.23318657 0.49395582
-0.21492314 0.23396972 0.48775405
-0.21677679 0.23664707 0.48664424
-0.22277516 0.24280596 0.47022367
-0.22290289 0.24147861 0.46719283
-0.22537504 0.24533582 0.46228731
-0.21007326 0.23195255 0.49109617
-0.2122903 0.23329082 0.48788923
-0.22067621 0.24176449 0.46486348
-0.22134203 0.24319182 0.46122772
-0.21942584 0.23317006 0.49393281
-0.22147708 0.23452914 0.49158606
-0.22979477 0.24284303 0.46896809
-0.22947054 0.24415731 0.46586215
-0.21756989 0.23096061 0.4927648
-0.21859381 0.23188597 0.48858505
-0.21882898 0.2343609 0.48724046
-0.22526635 0.24100396 0.46994552
-0.2262942 0.23983854 0.46767035
-0.22828417 0.24178419 0.46408877
-0.21784642 0.22817947 0.48960757
-0.22673094 0.23768023 0.46501327
-0.2274738 0.23773786 0.46361092
-0.22249947 0.22952193 0.49284881
-0.2241984 0.23039806 0.49139184
-0.23274827 0.23906568 0.4683497
-0.22117804 0.22679502 0.49279866
-0.22316563 0.22861874 0.48840553
-0.2307018 0.23614204 0.46845704
-0.23217997 0.23782957 0.46395183
-0.21893924 0.22425224 0.49082237
-0.21988733 0.2253471 0.48785093
-0.22842836 0.2333107 0.465096
-0.22958542 0.23512229 0.46202555
-0.22701943 0.22684872 0.49098313
-0.23507996 0.2356838 0.46832132
-0.22449613 0.22307831 0.49318981
-0.22703888 0.2253895 0.48919973
-0.22689877 0.22439888 0.48612323
-0.23324353 0.23051898 0.46957341
-0.23509485 0.23345673 0.46811432
-0.23575844 0.23415661 0.46338227
-0.22105722 0.21982616 0.49103957
-0.22207779 0.22187552 0.4859615
-0.22516803 0.22254454 0.48470345
-0.23103297 0.22855628 0.46803361
-0.22951026 0.22967893 0.46509022
-0.23263532 0.23148134 0.46053731
-0.22077541 0.21709853 0.4887341
-0.22173586 0.2182751 0.48589551
-0.2300947 0.22666489 0.46313944
-0.23115656 0.22816241 0.46015328
-0.22778478 0.21947221 0.49365219
-0.2306235 0.22230491 0.48994231
-0.23041391 0.22184405 0.48582369
-0.23606284 0.22774345 0.47024977
-0.23861662 0.23034692 0.46815109
-0.23938179 0.23084122 0.46295848
-0.22399259 0.21575491 0.49249035
-0.22790021 0.2196517 0.48340678
-0.23316306 0.22513303 0.46886766
-0.23652712 0.2283144 0.45906806
-0.22196966 0.21320304 0.48868924
-0.22273451 0.21443653 0.48440361
-0.22553465 0.21559471 0.48177975
-0.23108128 0.22214074 0.46598709
-0.23090158 0.22289214 0.46182358
-0.23331103 0.22458729 0.45836216
-0.22207829 0.21044885 0.48547468
-0.22258878 0.21091267 0.48454496
-0.23076253 0.21895978 0.46376711
-0.23139524 0.22004214 0.46039543
-0.23247689 0.22103919 0.45802373
-0.23112699 0.21592763 0.49302217
-0.23341683 0.21809596 0.48940518
-0.23329517 0.2182159 0.48556331
-0.23911232 0.2242507 0.46986791
-0.24136063 0.22616197 0.46758047
-0.24219394 0.22704336 0.46309
-0.22738418 0.21226192 0.49300778
-0.23163921 0.21585988 0.48295209
-0.23675606 0.22111309 0.46915329
-0.24060291 0.22483248 0.45891035
-0.22450985 0.20916206 0.49022532
-0.22351688 0.21152201 0.48326343
-0.22860222 0.2128924 0.48097515
-0.23379973 0.21826145 0.46674085
-0.23678099 0.22178666 0.45671666
-0.22249454 0.20691493 0.48617515
-0.22351024 0.20784029 0.48196995
-0.22602606 0.20957328 0.4800913
-0.23193349 0.21579964 0.46366519
-0.23154108 0.21589485 0.46020409
-0.23382917 0.21799034 0.45631269
-0.22158234 0.20360956 0.48357853
-0.222066 0.20436633 0.48140964
-0.23087333 0.21344259 0.45766157
-0.23222274 0.21424986 0.45533752
-0.23291281 0.21291587 0.4915981
-0.23444408 0.21423559 0.48862645
-0.23467481 0.21498914 0.48559096
-0.24255665 0.22242358 0.46637702
-0.24335544 0.22378176 0.46339718
-0.23131205 0.20946273 0.49092975
-0.23414373 0.21054031 0.48692915
-0.23377402 0.21254888 0.48362684
-0.23966199 0.21874544 0.46805635
-0.24226527 0.218887 0.4648422
-0.2426247 0.22110054 0.46073967
-0.22868761 0.20589948 0.48983622
-0.23311679 0.20748837 0.48506898
-0.23144563 0.20943224 0.4812302
-0.23726746 0.21503362 0.46616495
-0.24111581 0.21553685 0.46305504
-0.24073417 0.21792798 0.45771688
-0.22490811 0.20269781 0.48727554
-0.22610962 0.20550621 0.47983158
-0.22867438 0.20536257 0.47959489
-0.23454091 0.21151078 0.4628998
-0.2328628 0.21283612 0.46167099
-0.23724109 0.21499647 0.45490584
-0.22281663 0.20007536 0.48375806
-0.22341931 0.20119534 0.4794566
-0.2266503 0.20256507 0.47815585
-0.23283789 0.20915826 0.46101815
-0.23133318 0.2095857 0.45779055
-0.23406199 0.21135509 0.45404902
-0.22327414 0.19801693 0.48000798
-0.23203725 0.20766918 0.45525792
-0.23254481 0.20813543 0.4542377
-0.23148844 0.202352 0.48731267
-0.23291163 0.20406947 0.48435524
-0.23389056 0.2045497 0.48111543
-0.24027097 0.21065146 0.4647851
-0.24122374 0.21243557 0.46195742
-0.2421117 0.21307532 0.45849609
-0.2285313 0.19905306 0.48694479
-0.23148769 0.20267165 0.48423898
-0.23163226 0.20244163 0.47904739
-0.23751554 0.2083791 0.46351233
-0.24038352 0.21144149 0.46056673
-0.24071768 0.2112509 0.45533878
-0.22601342 0.19680902 0.48364887
-0.22674212 0.1974193 0.4788996
-0.2293992 0.19998631 0.47769824
-0.23521067 0.20603737 0.46121687
-0.2349795 0.20512295 0.4573082
-0.23728006 0.20804335 0.45405599
-0.22417173 0.1971316 0.47994235
-0.23311432 0.20604953 0.45602199
-0.23377801 0.2073243 0.45395049
-0.25026762 0.21169116 0.4913432
-0.25160909 0.21345425 0.488987
-0.25361294 0.21528508 0.48481235
-0.25505349 0.21708095 0.48059288
-0.25593626 0.21800464 0.47567657
-0.25743768 0.21776983 0.47305658
-0.24807094 0.20864317 0.49171421
-0.25567847 0.21761686 0.47386807
-0.25576308 0.21749483 0.46970865
-0.25595552 0.21666567 0.46609628
-0.24584278 0.20593207 0.49214187
-0.25516874 0.215744 0.46652269
-0.2552821 0.21556255 0.46470365
-0.23959497 0.20055735 0.48856601
-0.24015348 0.20282027 0.4868229
-0.24178237 0.20384336 0.48254442
-0.24696937 0.20930746 0.46778396
-0.24893884 0.21113031 0.4640651
-0.24963202 0.21057349 0.46149632
-0.23603284 0.1992497 0.48793721
-0.23720759 0.20305115 0.48568094
-0.23928222 0.20256078 0.47958213
-0.24359463 0.2068415 0.46770039
-0.24580605 0.21133359 0.46297556
-0.24677211 0.20995039 0.45895144
-0.23233742 0.19573025 0.48670182
-0.23558232 0.19935313 0.47779974
-0.24088138 0.20413913 0.46494997
-0.2442904 0.20743367 0.45556837
-0.23049849 0.19464493 0.48389006
-0.23141471 0.19500661 0.48030555
-0.23339692 0.19632283 0.47762239
-0.23909673 0.20231026 0.46152523
-0.23953229 0.20328054 0.45794424
-0.24135739 0.20531839 0.45509604
-0.25293675 0.20872387 0.49260008
-0.25478965 0.21131806 0.48959085
-0.25696406 0.21333341 0.48531723
-0.25798458 0.2147202 0.48088649
-0.25970966 0.21602722 0.47607952
-0.26047128 0.21580979 0.47298524
-0.24797347 0.20455498 0.49309123
-0.25014129 0.20703541 0.49215308
-0.2527588 0.20805196 0.48864701
-0.25568572 0.21030082 0.48351777
-0.25709218 0.21189502 0.47936496
-0.25690505 0.21300186 0.47393307
-0.25852153 0.21554483 0.46980295
-0.25856996 0.21441077 0.46597463
-0.24561086 0.20289175 0.49240026
-0.24712458 0.20319761 0.48893318
-0.24880931 0.20355865 0.48469174
-0.25032622 0.20330466 0.48180699
-0.2543292 0.20888242 0.47087601
-0.25501111 0.21152237 0.46748513
-0.25674587 0.21328546 0.46360683
-0.24269025 0.19853453 0.49030706
-0.24383207 0.2020143 0.48830009
-0.24529243 0.20354697 0.48257163
-0.24662331 0.20228764 0.47939712
-0.24957651 0.20528525 0.4718307
-0.25007215 0.20812938 0.46999604
-0.25282028 0.21065684 0.4646503
-0.25338 0.20978738 0.46069533
-0.24006212 0.19547522 0.4891071
-0.24210131 0.19879046 0.47789797
-0.24404758 0.20054948 0.47821948
-0.24725592 0.20346253 0.46989536
-0.24587592 0.20234016 0.46803126
-0.25144655 0.20684104 0.45827556
-0.23613481 0.1927506 0.48579112
-0.23721328 0.19219856 0.4819302
-0.23913124 0.19568042 0.47800529
-0.24437058 0.20072931 0.46464881
-0.24591342 0.20067513 0.4588623
-0.24708521 0.2037508 0.45633969
-0.23509334 0.19321029 0.47995555
-0.23564485 0.19454823 0.47804084
-0.24242567 0.20012558 0.46140623
-0.24285141 0.20084663 0.45918259
-0.24406821 0.20297655 0.45620421
-0.25624824 0.20556873 0.49279213
-0.25914645 0.20836246 0.49017483
-0.26140001 0.21045402 0.48602706
-0.26243243 0.21202217 0.48164189
-0.26364511 0.21331441 0.47682452
-0.26397198 0.21318647 0.47210422
-0.25268114 0.20124152 0.49428472
-0.25406957 0.20346566 0.49390665
-0.25477177 0.20438102 0.48643219
-0.25755429 0.20588163 0.48330054
-0.25888032 0.20819606 0.4785617
-0.25914407 0.20777999 0.47438616
-0.26306415 0.21256457 0.46885711
-0.26265424 0.21144149 0.466023
-0.24951963 0.19784446 0.4931497
-0.25107533 0.20360936 0.48804933
-0.2525019 0.20344448 0.48490617
-0.25287855 0.20236649 0.48122916
-0.25524998 0.20479497 0.47435364
-0.2570245 0.20809473 0.47253075
-0.26086009 0.20983553 0.46339551
-0.24552721 0.19494988 0.49158794
-0.25019449 0.20037898 0.47919199
-0.25250852 0.20239702 0.47262347
-0.25805554 0.20679991 0.45984155
-0.24175853 0.19207491 0.48912022
-0.24632302 0.19520824 0.47834051
-0.24716949 0.19601209 0.47598678
-0.24902841 0.19783504 0.47115394
-0.25007653 0.19908783 0.4678123
-0.2545211 0.20382343 0.45752347
-0.2399693 0.18977101 0.48600096
-0.24095914 0.19039112 0.48216248
-0.242612 0.19295058 0.47800773
-0.24442889 0.19457303 0.47355571
-0.24673097 0.19663909 0.46952674
-0.24784167 0.19753705 0.46419093
-0.24927777 0.19856817 0.45961416
-0.25113422 0.20151129 0.45716709
-0.26566517 0.20781779 0.48591614
-0.26789534 0.20796973 0.48265314
-0.26003879 0.20207748 0.49273872
-0.26303849 0.20485699 0.49018231
-0.26480365 0.20702207 0.48658726
-0.26602244 0.20909345 0.4819428
-0.26843706 0.20984955 0.47643653
-0.26802942 0.21017654 0.47182405
-0.25575817 0.19792397 0.49401414
-0.25777882 0.19956419 0.49381459
-0.25730416 0.20233782 0.48455444
-0.25976682 0.20177318 0.48202908
-0.26108527 0.20345464 0.47785121
-0.26711196 0.20963323 0.46876797
-0.26667023 0.20824094 0.4662441
-0.25281021 0.19535963 0.49305779
-0.25735685 0.19943833 0.48079675
-0.25965598 0.20145509 0.47577626
-0.26430091 0.20624676 0.46298608
-0.24958923 0.19144407 0.49092546
-0.25439137 0.19572575 0.47937852
-0.25678268 0.19872145 0.47257829
-0.25702888 0.19631916 0.47049707
-0.26098889 0.20328858 0.45972472
-0.24637948 0.18907912 0.48855174
-0.24755086 0.18753693 0.48430029
-0.25037041 0.19283925 0.47927988
-0.25143215 0.19345692 0.47523999
-0.25237262 0.19461356 0.47078666
-0.25430605 0.1968265 0.46883148
-0.25709966 0.19722256 0.46008104
-0.25779557 0.20032075 0.45848757
-0.24403584 0.18831868 0.48550966
-0.24533528 0.18879423 0.48279646
-0.24724594 0.19014588 0.47838232
-0.24873972 0.19165799 0.47483718
-0.25066674 0.19375822 0.47032997
-0.2519455 0.1946791 0.46511954
-0.25387311 0.19654647 0.46144265
-0.25380471 0.19858086 0.45854837
-0.26968178 0.20160948 0.48933265
-0.26959282 0.20379589 0.48637694
-0.2708174 0.20494406 0.4831183
-0.27296492 0.20530738 0.47937298
-0.26405147 0.19863817 0.49262226
-0.26599592 0.20140831 0.49051383
-0.26866853 0.20368432 0.4862183
-0.27116504 0.2052633 0.48071477
-0.271496 0.20669045 0.47695702
-0.2714932 0.20666569 0.47185579
-0.25897148 0.19391587 0.49352425
-0.26116124 0.19569603 0.49343982
-0.27103651 0.20560677 0.46863979
-0.26957938 0.20471114 0.46630871
-0.25657043 0.19157603 0.49219689
-0.26046079 0.19656719 0.47942162
-0.26145306 0.19762643 0.47636437
-0.26744616 0.2023209 0.46351939
-0.25377005 0.18857285 0.48994946
-0.25357056 0.18636315 0.48769453
-0.25737521 0.19329777 0.47819835
-0.2593053 0.19520831 0.47361204
-0.26443323 0.19895688 0.46112794
-0.25035596 0.18716718 0.48773247
-0.25122637 0.18613216 0.48467633
-0.25189024 0.18700069 0.47945681
-0.25405204 0.18892753 0.4747031
-0.25521359 0.19002876 0.47032452
-0.2579419 0.19144535 0.46579984
-0.25989798 0.19421557 0.46212149
-0.26103252 0.19705686 0.45985806
-0.25046921 0.18696079 0.47920302
-0.25220159 0.18830056 0.47522277
-0.25534242 0.18977766 0.46946746
-0.2554549 0.19216199 0.46555194
-0.2563825 0.19379887 0.46295014
-0.27028367 0.1974538 0.4938468
-0.27163061 0.19941178 0.49130005
-0.27362517 0.2016384 0.48742121
-0.27502525 0.20320314 0.48276585
-0.2764416 0.20427759 0.47823694
-0.27704078 0.20496747 0.47501403
-0.26744482 0.19561069 0.49412927
-0.26921692 0.19860847 0.49219757
-0.27260616 0.20395102 0.48116747
-0.27445236 0.20501211 0.47632486
-0.2757763 0.20404083 0.47177091
-0.26307249 0.19084597 0.49412051
-0.26373762 0.19249699 0.49371985
-0.27245605 0.20296609 0.46844551
-0.273799 0.20123306 0.46662208
-0.26018125 0.18816032 0.49202693
-0.27037323 0.19879483 0.46400297
-0.25798947 0.1863092 0.49011111
-0.25740415 0.18485497 0.48771816
-0.26656482 0.19375445 0.46317115
-0.26782715 0.19657338 0.46256858
-0.25616157 0.18396428 0.48403597
-0.25620353 0.18412499 0.47993994
-0.25657985 0.18542874 0.4753696
-0.25834045 0.1875443 0.4701761
-0.26141444 0.1890952 0.46620488
-0.26345989 0.19192155 0.46377426
-0.257743 0.18380153 0.4738028
-0.25885466 0.18552338 0.47005853
-0.26039112 0.18642719 0.4673447
-0.27427453 0.19666809 0.49074236
-0.27672604 0.1977157 0.48693624
-0.27846527 0.19946587 0.48281407
-0.27886638 0.20114921 0.47851208
-0.27010676 0.19191198 0.49297976
-0.27353662 0.19361326 0.4907425
-0.27649608 0.19479656 0.48783484
-0.27942196 0.19766249 0.4801867
-0.27913189 0.19921726 0.47652367
-0.27831644 0.19955046 0.4722597
-0.27731773 0.20119825 0.46865755
-0.26573068 0.18857467 0.49391881
-0.26813865 0.18863292 0.49206132
-0.27740332 0.19669637 0.46967727
-0.27605167 0.19870701 0.46664178
-0.26256698 0.18593213 0.49161217
-0.26535052 0.18470931 0.49003124
-0.27420041 0.19312195 0.46650353
-0.27369085 0.19628426 0.46492502
-0.26098442 0.18400759 0.49016741
-0.26170152 0.18241248 0.48717421
-0.26290804 0.18186335 0.48258993
-0.26868656 0.18743497 0.46742994
-0.27066481 0.19048484 0.46458054
-0.27037287 0.19425067 0.4629308
-0.25928661 0.18122375 0.48415586
-0.25986037 0.18154442 0.47999564
-0.26157472 0.18271776 0.475647
-0.2633861 0.1844607 0.47099841
-0.26482809 0.18622343 0.46693936
-0.2670688 0.18851933 0.46392334
-0.25850597 0.1823504 0.47471166
-0.26023531 0.18418729 0.47008491
-0.26155892 0.18559362 0.46707916
-0.23130819 0.14901721 0.45080993
-0.2324113 0.15053624 0.4474687
-0.2289934 0.14724642 0.4489952
-0.23019877 0.148699 0.44589829
-0.22762834 0.14564593 0.44679239
-0.22808422 0.14635164 0.44512817
-0.28038725 0.19431484 0.48562622
-0.28104743 0.1954509 0.48342514
-0.27258331 0.18906538 0.49122787
-0.27599934 0.18989214 0.48951933
-0.27855831 0.1923835 0.48728603
-0.28145891 0.19472849 0.48035589
-0.2811172 0.19500452 0.47662148
-0.28022036 0.19525497 0.47288525
-0.27112982 0.18629669 0.49024582
-0.27394846 0.18535875 0.48919851
-0.28029826 0.19178708 0.47227442
-0.27862909 0.19348128 0.47071859
-0.26782286 0.1837503 0.48823425
-0.27008405 0.1823075 0.4857496
-0.27586779 0.18824872 0.47015229
-0.27548438 0.19110194 0.46851617
-0.26526889 0.18224876 0.48612404
-0.26679832 0.18101242 0.48237881
-0.26859161 0.18012474 0.47696352
-0.27014005 0.18159863 0.47281417
-0.27178743 0.18589795 0.46947983
-0.27205107 0.18903352 0.46714959
-0.2643491 0.1807854 0.47950241
-0.26574302 0.18099406 0.47638071
-0.26750672 0.18236224 0.47245619
-0.26815063 0.1847952 0.46920356
-0.25168872 0.16249473 0.47941709
-0.25228956 0.16282909 0.47863188
-0.26220769 0.17263664 0.45245311
-0.26238516 0.17313507 0.45147285
-0.24993569 0.16117284 0.47843602
-0.25050205 0.16169894 0.47543418
-0.25734061 0.1679922 0.45427933
-0.25927541 0.17044267 0.45239231
-0.26060772 0.17180221 0.4501144
-0.24802905 0.15888238 0.4760057
-0.24787636 0.15933253 0.47255743
-0.24857189 0.15991203 0.4694784
-0.25458598 0.16593248 0.45353138
-0.25597984 0.16740976 0.45100883
-0.25830007 0.16914555 0.44903588
-0.24570619 0.15690678 0.46974269
-0.24606515 0.15765205 0.46594572
-0.24612257 0.15714221 0.46275541
-0.24986656 0.16033274 0.45442584
-0.2510376 0.16269279 0.45262921
-0.25306001 0.16440123 0.44988301
-0.24417546 0.15562157 0.46252206
-0.2439456 0.15610465 0.45970911
-0.24615154 0.15814993 0.45396703
-0.24836962 0.15983629 0.45191878
-0.24077627 0.15168494 0.45907944
-0.2413598 0.15369512 0.45672157
-0.24332285 0.15524291 0.4527064
-0.24450329 0.15537637 0.44996908
-0.23949701 0.15011473 0.45781094
-0.23763967 0.15065125 0.45464617
-0.23935294 0.15195489 0.45006609
-0.24256456 0.15358847 0.44871241
-0.2342065 0.14817801 0.4515011
-0.23560973 0.14937429 0.44818297
-0.2303313 0.14676061 0.44936436
-0.23132423 0.14790447 0.44628188
-0.22820432 0.14486332 0.44710091
-0.22882974 0.14580405 0.44509053
-0.28385979 0.19038549 0.48553491
-0.28456199 0.19138408 0.4834978
-0.27918223 0.18599796 0.48839077
-0.28185603 0.18866241 0.48664573
-0.2843051 0.19077869 0.48025468
-0.28359875 0.19082355 0.47664419
-0.27577221 0.18007064 0.48918566
-0.2766867 0.1829633 0.48863623
-0.28242984 0.18909883 0.47294575
-0.28265223 0.18715051 0.47062808
-0.27317563 0.1780736 0.48788536
-0.2721875 0.18031424 0.48570791
-0.27803549 0.18605338 0.47035864
-0.28046933 0.18534851 0.46851507
-0.27165818 0.17663403 0.48596638
-0.27087873 0.17737262 0.48226631
-0.26959673 0.17824829 0.47854158
-0.27221316 0.18102047 0.4713648
-0.27549165 0.18200092 0.46976203
-0.27860743 0.18346882 0.46782228
-0.2703017 0.17447925 0.47994784
-0.26995537 0.17650609 0.47627756
-0.27149567 0.17834462 0.47200477
-0.27428871 0.17850012 0.46913642
-0.25441819 0.16081181 0.48122713
-0.25437847 0.16189212 0.47798374
-0.26373467 0.17108712 0.45353079
-0.26587608 0.17227145 0.45098445
-0.25090116 0.15822051 0.4798992
-0.25368196 0.16117723 0.47484997
-0.25396565 0.1602392 0.47131747
-0.25993979 0.16626659 0.45583084
-0.26157361 0.16917473 0.4542816
-0.26301113 0.17025118 0.44819611
-0.24896735 0.15526073 0.47628054
-0.24716969 0.15623808 0.47355276
-0.25175893 0.15901943 0.46796617
-0.25629225 0.16345906 0.4559288
-0.25691995 0.1659209 0.4482004
-0.26001862 0.1661963 0.44720912
-0.2485548 0.15303051 0.47372341
-0.24699578 0.15339109 0.47052005
-0.24901323 0.15745257 0.4652172
-0.2490178 0.15609804 0.462758
-0.25201473 0.15905514 0.45543814
-0.2526713 0.16176483 0.45489052
-0.25543171 0.16212457 0.44803661
-0.25856858 0.1633729 0.44707271
-0.24657252 0.15197973 0.46721354
-0.24526177 0.15222926 0.46343967
-0.24727829 0.15428415 0.45834491
-0.24838591 0.15556626 0.45569691
-0.25017911 0.15721598 0.44995654
-0.25312328 0.15916316 0.44872603
-0.24272887 0.14949714 0.459941
-0.24555893 0.15166067 0.45509976
-0.24543411 0.15143391 0.45462209
-0.24685997 0.15373653 0.44895685
-0.24002089 0.14623521 0.45763987
-0.24058878 0.14798301 0.45357686
-0.24169841 0.1487571 0.45077664
-0.24403688 0.15043479 0.4469884
-0.23733899 0.14305975 0.45524049
-0.23700668 0.14532408 0.45166501
-0.23878014 0.14602354 0.44854027
-0.24083078 0.14699943 0.44482568
-0.23583831 0.14110878 0.45306993
-0.23474702 0.14116126 0.44944194
-0.23593217 0.14289938 0.44542044
-0.23882419 0.14463849 0.4434981
-0.23193461 0.13836449 0.44693077
-0.23276874 0.140075 0.4435527
-0.22953472 0.13582313 0.44499308
-0.23030642 0.13756545 0.44153655
-0.28749493 0.18687968 0.48572269
-0.2882885 0.18791209 0.48316091
-0.28220034 0.17979999 0.49137205
-0.28317556 0.18272901 0.48858207
-0.28479025 0.18520857 0.4869206
-0.28738928 0.18785009 0.48023364
-0.2876758 0.18723534 0.47647321
-0.2889131 0.18691771 0.47272751
-0.27909735 0.17833306 0.49063811
-0.27964041 0.18181722 0.48925543
-0.28552312 0.18773097 0.47389281
-0.28665665 0.18594618 0.47068161
-0.27511299 0.17545997 0.48852822
-0.27303216 0.17612118 0.48584837
-0.27985486 0.18279421 0.46839222
-0.28320828 0.1832522 0.46769351
-0.27343965 0.17238308 0.48587734
-0.2720066 0.17328335 0.48332533
-0.27793428 0.17920281 0.46748066
-0.28084713 0.1797504 0.46647611
-0.27163655 0.17083986 0.48043439
-0.27160865 0.1720254 0.47558936
-0.27333066 0.17393069 0.47085643
-0.27652317 0.17600535 0.46739611
-0.27231348 0.1690339 0.47447634
-0.27363598 0.17090251 0.47057146
-0.26057988 0.15699837 0.48614374
-0.2611298 0.1589646 0.48421326
-0.27213407 0.16886362 0.45482177
-0.2730501 0.17080988 0.45244494
-0.27429527 0.17068596 0.44997111
-0.25804335 0.15540044 0.48499438
-0.25798145 0.15837839 0.48307547
-0.25931957 0.15865901 0.47766101
-0.26838306 0.16753565 0.45469889
-0.27021596 0.17051595 0.45063818
-0.27207863 0.16944905 0.44800049
-0.25550976 0.15436551 0.48298737
-0.25446177 0.15423737 0.47946814
-0.25685191 0.15600391 0.47464886
-0.25596747 0.15731727 0.47162494
-0.26218292 0.16342241 0.45531118
-0.26507914 0.16409358 0.45315939
-0.26634923 0.16624768 0.44798341
-0.26938978 0.16793759 0.44689056
-0.25132751 0.15253536 0.47651955
-0.25448459 0.15290441 0.47313228
-0.25443894 0.15513237 0.46859893
-0.25937161 0.16003494 0.45477998
-0.26289287 0.16128349 0.45079869
-0.26254356 0.16378139 0.44685721
-0.24988329 0.15172614 0.47392228
-0.25017115 0.1509856 0.47040665
-0.2517578 0.15187395 0.4661842
-0.25067201 0.15321861 0.46249405
-0.25418225 0.15666339 0.45489043
-0.25687802 0.15703218 0.45271868
-0.25836906 0.15921615 0.44862998
-0.25984913 0.16224422 0.44692722
-0.24846451 0.15019201 0.46288773
-0.24943832 0.15018097 0.45951706
-0.25148752 0.15243353 0.45402774
-0.2524626 0.15410317 0.45126528
-0.25464329 0.15733851 0.44909644
-0.24633323 0.1460823 0.45995152
-0.24844325 0.14869019 0.45571339
-0.24882689 0.14912304 0.45448139
-0.2506645 0.15010685 0.44885153
-0.24317239 0.1429839 0.45754874
-0.24455599 0.14446875 0.45269042
-0.24525055 0.14517227 0.45134902
-0.2474871 0.14717533 0.44646183
-0.2409752 0.14093062 0.45535001
-0.2404566 0.14064479 0.4528248
-0.24252443 0.14180833 0.44944736
-0.24417996 0.14422102 0.44475314
-0.23893362 0.13888048 0.45009845
-0.24060073 0.14027849 0.44549823
-0.24312618 0.14060408 0.44380188
-0.29069158 0.18315151 0.4862693
-0.29211205 0.18456098 0.48286206
-0.28479877 0.17746215 0.49125394
-0.28694451 0.17946862 0.48984396
-0.28853795 0.1821882 0.48792922
-0.29175362 0.18518664 0.47992542
-0.29207361 0.18452904 0.47621042
-0.29153582 0.18428728 0.4729062
-0.2825028 0.17513576 0.49111921
-0.2896128 0.18504514 0.47308418
-0.29020801 0.18300179 0.47046778
-0.27851209 0.17143063 0.49018145
-0.28787544 0.18037638 0.46668354
-0.27644891 0.16628867 0.48947647
-0.2749272 0.16816166 0.4871169
-0.28378034 0.17694074 0.464077
-0.28615716 0.17600049 0.46230364
-0.27401218 0.16541441 0.48369977
-0.27250311 0.16700196 0.48041949
-0.27813742 0.17283493 0.46568418
-0.28142995 0.17307381 0.46394908
-0.26683795 0.15695262 0.48845366
-0.2672587 0.15867612 0.48648986
-0.27332315 0.16289441 0.48124725
-0.2719419 0.16359407 0.47807023
-0.27298591 0.16554567 0.47289157
-0.27437019 0.16719519 0.46896079
-0.27694201 0.16868663 0.46468905
-0.27925408 0.16902319 0.46033755
-0.2793428 0.17028841 0.45481384
-0.28043383 0.17009895 0.45232731
-0.26296329 0.15572217 0.48783767
-0.26421934 0.15875213 0.48491323
-0.26627785 0.1578462 0.48052093
-0.27194089 0.16128728 0.47486895
-0.27571607 0.16486238 0.46473959
-0.27510801 0.16684866 0.45685709
-0.27649751 0.17064157 0.45344514
-0.27738971 0.17005959 0.44968638
-0.26023334 0.15354921 0.4859221
-0.26093003 0.15197682 0.48208407
-0.26337314 0.15646507 0.4769533
-0.27144405 0.16432159 0.45632073
-0.27355081 0.16447161 0.44917965
-0.27463624 0.1680938 0.44770166
-0.2575193 0.15289469 0.48314312
-0.25890136 0.15228936 0.47913739
-0.26033074 0.15349291 0.47589988
-0.2690725 0.16201794 0.45296985
-0.26963109 0.16353738 0.44966775
-0.2710368 0.16661671 0.44707614
-0.24909793 0.14252597 0.45928225
-0.25153238 0.14395678 0.45702535
-0.25287727 0.14530367 0.45288068
-0.25296527 0.1464721 0.44879174
-0.24818045 0.14103794 0.45776641
-0.24716069 0.13989666 0.45460206
-0.24853066 0.14095378 0.45016399
-0.25060999 0.14355971 0.4473404
-0.24276558 0.13831478 0.45463321
-0.24518393 0.13737115 0.45237222
-0.24662894 0.13949119 0.44805071
-0.24676543 0.14117092 0.4448877
-0.24167453 0.13440819 0.44969967
-0.2427277 0.13615891 0.44507819
-0.24371246 0.13820431 0.44296879
-0.23939103 0.13097823 0.44713315
-0.24027647 0.13277644 0.44291541
-0.23698664 0.12776545 0.44497564
-0.23812532 0.12938556 0.44089702
-0.29417825 0.18018474 0.48640415
-0.29570901 0.18173182 0.48271
-0.28744805 0.1742609 0.49081135
-0.29014355 0.17577228 0.48969191
-0.29262769 0.17810696 0.48742428
-0.29569167 0.18075171 0.48009592
-0.29531565 0.18079874 0.47613546
-0.29495838 0.17997748 0.47298396
-0.28421661 0.16811323 0.49374461
-0.28587317 0.17132331 0.49129871
-0.29618257 0.1785475 0.47312242
-0.29382876 0.17936799 0.47013804
-0.29480383 0.17855439 0.4658502
-0.28136566 0.16598776 0.49324009
-0.28126845 0.16924857 0.49135032
-0.2906341 0.17865077 0.46603349
-0.29280436 0.17737587 0.46333733
-0.27793443 0.16362724 0.49052793
-0.28906479 0.17478521 0.46143422
-0.27341419 0.15609799 0.49120846
-0.27563193 0.15896052 0.48773149
-0.27598464 0.16130584 0.48449954
-0.28456181 0.16975071 0.46197936
-0.2868216 0.17009021 0.45870745
-0.28764343 0.17018917 0.45421648
-0.26990643 0.15485929 0.49052727
-0.27120486 0.1583225 0.48677263
-0.27363628 0.15845925 0.48205978
-0.27282906 0.16055144 0.47930551
-0.27526712 0.16175602 0.47071081
-0.27603742 0.16183528 0.46982282
-0.27931541 0.16669075 0.46252763
-0.28171924 0.1667596 0.46032664
-0.28310689 0.1698287 0.45592996
-0.28468779 0.16959558 0.45167214
-0.26677421 0.15251949 0.48823342
-0.27018496 0.15536056 0.48018238
-0.27288064 0.1578504 0.47610158
-0.27486676 0.15958928 0.47204015
-0.27652225 0.16144966 0.46716949
-0.27768403 0.16324514 0.46245688
-0.27854931 0.16386651 0.45788011
-0.28126127 0.1672858 0.4497284
-0.26523691 0.15070516 0.48541042
-0.26529521 0.1506729 0.48183763
-0.26650852 0.15226105 0.47790226
-0.27542615 0.16083106 0.45498508
-0.27680647 0.16252406 0.4509573
-0.27905506 0.16468082 0.44917563
-0.26242995 0.15119214 0.47892442
-0.2633417 0.15147652 0.47724661
-0.26756006 0.15032551 0.46453685
-0.26823914 0.15113568 0.46231794
-0.27275074 0.16056229 0.45300591
-0.27293062 0.16165486 0.45120472
-0.26372689 0.14804938 0.46388465
-0.26532561 0.14955869 0.45967451
-0.26252618 0.14663252 0.46212953
-0.26405329 0.14793009 0.45885077
-0.25092649 0.1396094 0.45838451
-0.25314629 0.13940968 0.45656183
-0.25467414 0.14149806 0.45161825
-0.25454053 0.14272606 0.44918239
-0.25065911 0.13862829 0.45774269
-0.25160658 0.13688885 0.45418632
-0.25311723 0.13826561 0.45012814
-0.25337619 0.141366 0.44809228
-0.25134721 0.13430297 0.45168263
-0.25210571 0.13586724 0.44866246
-0.24030223 0.12854692 0.44693077
-0.24070483 0.12968974 0.44146886
-0.23856315 0.12601492 0.44496199
-0.23929183 0.1279313 0.44085911
-0.29690024 0.17781103 0.4854019
-0.29779306 0.17860855 0.48325586
-0.29278648 0.17249197 0.48872793
-0.29568043 0.17417017 0.48557553
-0.29782441 0.17599787 0.48086855
-0.29749665 0.17711416 0.47612834
-0.28573471 0.16679801 0.49327755
-0.28878736 0.16746853 0.49153548
-0.29199249 0.16930394 0.48900843
-0.29764748 0.17512858 0.47348145
-0.29707587 0.17583212 0.46941084
-0.29596791 0.17731313 0.46644709
-0.28411943 0.16302679 0.49255049
-0.28695655 0.16349015 0.49139637
-0.29643691 0.17317031 0.46604267
-0.29501936 0.17409192 0.46346995
-0.28088552 0.15615863 0.49287269
-0.28145069 0.15928365 0.4927147
-0.29382464 0.17184003 0.45957825
-0.29398575 0.1696941 0.45726913
-0.27649748 0.15421651 0.49228269
-0.27748579 0.15754928 0.48993453
-0.27686322 0.15858153 0.48349401
-0.28503191 0.16673794 0.46170294
-0.28955123 0.16984276 0.45797148
-0.29108399 0.16891912 0.45422003
-0.27290708 0.15142186 0.49178448
-0.27603102 0.15646882 0.48187357
-0.28004447 0.157263 0.4695923
-0.2839528 0.16427341 0.46076959
-0.28851891 0.16725254 0.45050552
-0.27020001 0.14861757 0.48880637
-0.27322584 0.15265879 0.47880229
-0.2757436 0.15377665 0.47580436
-0.27763987 0.15605348 0.47134739
-0.27910915 0.15754077 0.46710929
-0.28068852 0.15864049 0.46224865
-0.28097528 0.16045639 0.45881349
-0.28507257 0.16375241 0.44874975
-0.26849347 0.14740478 0.48565042
-0.26915213 0.14766951 0.48249891
-0.27056083 0.14964293 0.47929522
-0.27399606 0.14979564 0.46713611
-0.27499938 0.15104333 0.46434665
-0.27966768 0.15893854 0.45491171
-0.28102702 0.1595588 0.45123875
-0.28246948 0.16132024 0.44895327
-0.26915163 0.14668803 0.46838662
-0.27105317 0.14924155 0.46674371
-0.27245235 0.15078011 0.46198052
-0.27334657 0.14931914 0.45871747
-0.26626197 0.14473739 0.46732128
-0.26523578 0.14640474 0.465684
-0.26862237 0.14912002 0.45830899
-0.27106693 0.14803529 0.4563159
-0.26299849 0.14034298 0.46582192
-0.26321501 0.1427478 0.46170884
-0.26517507 0.14465798 0.45687339
-0.26786813 0.14543502 0.45308316
-0.26301026 0.13852426 0.46339512
-0.26318431 0.14018376 0.4592413
-0.26483494 0.1415104 0.45589042
-0.26641926 0.14296472 0.45306015
-0.25393999 0.13378513 0.45338607
-0.25533321 0.13506825 0.44987303
-0.25245127 0.13057399 0.45147303
-0.25335419 0.13194108 0.44810969
-0.25145724 0.12802501 0.44939217
-0.25228208 0.12912278 0.44629863
-0.29757023 0.17054211 0.48335567
-0.29897061 0.17163056 0.48078042
-0.29165947 0.16412285 0.48998693
-0.29406574 0.16548517 0.4873032
-0.29711297 0.1675851 0.48387617
-0.29959062 0.16959189 0.478194
-0.29919276 0.17063414 0.47377732
-0.29914424 0.17162597 0.47005609
-0.28628701 0.15971306 0.49107897
-0.28956556 0.16078842 0.48979589
-0.29345271 0.16177711 0.48716587
-0.29937786 0.16775538 0.47120383
-0.29818791 0.1693279 0.46695679
-0.29658416 0.17015535 0.46370891
-0.2818293 0.15487842 0.49296656
-0.28480715 0.1563689 0.49171224
-0.28841487 0.15749595 0.48964712
-0.29778379 0.16716909 0.46400461
-0.29662871 0.16825418 0.46049953
-0.29549125 0.16834494 0.45692387
-0.27978083 0.15251553 0.49205145
-0.28216049 0.15152459 0.48955908
-0.29441294 0.16371362 0.45712823
-0.29392135 0.16672762 0.45494014
-0.27686667 0.14831147 0.49031392
-0.28082815 0.14924368 0.48756436
-0.28046495 0.14909492 0.48100612
-0.28204072 0.15231274 0.47672591
-0.28199616 0.15239681 0.47444218
-0.28498718 0.1554572 0.46563131
-0.28653666 0.15658729 0.46445423
-0.28877836 0.15723635 0.4590854
-0.29267338 0.16112749 0.45573619
-0.2914778 0.16285123 0.45168993
-0.27411732 0.1459033 0.48772427
-0.27580562 0.14518607 0.48384875
-0.27731383 0.14802448 0.47972026
-0.27841759 0.15203853 0.47625589
-0.27968946 0.15198638 0.47159216
-0.28160724 0.15379645 0.46573707
-0.28371969 0.15695114 0.46287009
-0.28566408 0.15631215 0.45754409
-0.28752813 0.15703857 0.45279354
-0.28853127 0.16019438 0.45011258
-0.27102768 0.14593624 0.48535112
-0.27268553 0.14586057 0.48275664
-0.27357069 0.1470792 0.47992358
-0.27644259 0.1454338 0.47057831
-0.27724057 0.14865731 0.46869725
-0.2790477 0.15040968 0.46430561
-0.27994734 0.14909157 0.46102241
-0.28298557 0.15667218 0.45499828
-0.28438288 0.15758784 0.45194942
-0.2729089 0.14390017 0.46978307
-0.27396634 0.14685175 0.46864831
-0.27649364 0.14935523 0.46152407
-0.27715424 0.14794348 0.45853302
-0.26901275 0.14049669 0.46910891
-0.27417478 0.14576912 0.45509785
-0.26482663 0.13796414 0.46840811
-0.26548973 0.13763264 0.46758026
-0.27083212 0.14313625 0.45246741
-0.26442778 0.13571034 0.46344844
-0.26426458 0.13574992 0.45891517
-0.26626179 0.1375612 0.45454815
-0.26832902 0.14031462 0.45269102
-0.25418234 0.12786905 0.45060882
-0.25489861 0.12867615 0.44788003
-0.25322443 0.12606502 0.44963259
-0.25399736 0.12720194 0.44641009
-0.2953065 0.16309297 0.48436871
-0.29826912 0.16560166 0.48179507
-0.29959437 0.16682811 0.47896227
-0.29919648 0.16701987 0.47509277
-0.29129437 0.15837088 0.48790953
-0.29372197 0.15969555 0.48489463
-0.29664403 0.16085498 0.48016483
-0.2983245 0.162183 0.47600669
-0.29876357 0.16488515 0.4713099
-0.29890281 0.16575828 0.46757051
-0.28697306 0.15320782 0.48951125
-0.28945333 0.15457551 0.48704642
-0.29208285 0.15531275 0.48257038
-0.29456463 0.15662798 0.47811419
-0.29626682 0.1580985 0.47383714
-0.29706198 0.16047978 0.46908674
-0.2978107 0.16294098 0.46480438
-0.29772899 0.1639785 0.46088725
-0.2851381 0.15123586 0.48812076
-0.28730601 0.15101308 0.48451951
-0.28972435 0.151315 0.48130932
-0.29351836 0.15440489 0.47447661
-0.29451329 0.15543702 0.47404853
-0.29549107 0.15702608 0.46647251
-0.29556805 0.15937756 0.46251124
-0.2959218 0.16210228 0.45926294
-0.27825847 0.14593565 0.4880867
-0.28047946 0.1477917 0.48611563
-0.28301898 0.14870617 0.48233831
-0.28508207 0.14941248 0.47728762
-0.28705779 0.14808863 0.47465599
-0.28993744 0.15099616 0.46657142
-0.29024565 0.15423533 0.46417961
-0.29139915 0.15697303 0.46000955
-0.29189894 0.15913896 0.45629939
-0.2916072 0.15937576 0.45243821
-0.27731284 0.14520583 0.48747587
-0.27791604 0.14526129 0.48532644
-0.28381342 0.14850029 0.47422495
-0.28364894 0.14698492 0.47243646
-0.28677338 0.14951484 0.46531987
-0.28741869 0.15197541 0.46467245
-0.29006955 0.15766403 0.45313674
-0.27986228 0.14357957 0.47119591
-0.28068572 0.14554103 0.47124752
-0.28289771 0.1488668 0.46272525
-0.28378934 0.14730108 0.46138418
-0.27530098 0.13951653 0.47097716
-0.28051114 0.14517269 0.4567571
-0.2734769 0.13689302 0.46968448
-0.27883422 0.14274873 0.45480525
-0.26983663 0.13407062 0.46642619
-0.27464902 0.13913038 0.45304632
-0.26714411 0.13159569 0.46322107
-0.26673287 0.13115126 0.45905346
-0.26916707 0.13358454 0.45308584
-0.2717202 0.13586931 0.45164216
-0.26748413 0.13104326 0.45698881
-0.2681537 0.13208091 0.45475978
-0.29382986 0.15446225 0.47721824
-0.29551944 0.15620323 0.47253186
-0.2907635 0.15130258 0.47897425
-0.29206511 0.15240751 0.47610107
-0.293957 0.15431657 0.47100824
-0.29472393 0.15530552 0.46779341
-0.28898323 0.14951113 0.47737765
-0.28922689 0.14962476 0.47308797
-0.29064402 0.1510559 0.46944252
-0.29292381 0.15347508 0.46680743
-0.28623313 0.14598851 0.470727
-0.28755516 0.14715372 0.4668386
-0.28236768 0.14048767 0.47105154
-0.285101 0.14191754 0.46971679
-0.28705946 0.14424366 0.46439907
-0.28607178 0.14422062 0.46098572
-0.27822343 0.13348068 0.47189462
-0.2785061 0.13618128 0.47099435
-0.28394595 0.14193858 0.45660293
-0.28412661 0.14120415 0.45408127
-0.27737558 0.13374494 0.4716334
-0.27624729 0.13397376 0.46942905
-0.28170168 0.13968761 0.45451388
-0.28364378 0.14093338 0.45371002
-0.27342618 0.1307143 0.46568012
-0.27801561 0.13565803 0.45326105
-0.27081475 0.12831604 0.46295464
-0.27071682 0.12800758 0.45858032
-0.27262226 0.12984484 0.4538433
-0.27522722 0.13249594 0.45193091
-0.26886293 0.12953088 0.457389
-0.2697463 0.13027284 0.45521823
-0.28627589 0.13827404 0.46752429
-0.28755614 0.13968575 0.46392077
-0.28257489 0.13371883 0.46906665
-0.28571624 0.13443343 0.46672374
-0.28757581 0.1365138 0.46172655
-0.28665647 0.13793017 0.45831627
-0.28013247 0.13045529 0.46789065
-0.28718916 0.13399792 0.459012
-0.28474343 0.13518213 0.45533067
-0.27723891 0.12784502 0.46499225
-0.27795285 0.12574333 0.46246165
-0.28066391 0.12867813 0.45432186
-0.28136656 0.13198537 0.45375732
-0.27435797 0.12660523 0.46260497
-0.27552009 0.12584405 0.45948482
-0.27711925 0.12747097 0.45504442
-0.27830261 0.13033433 0.45297503
-0.28628001 0.13212535 0.4642511
-0.28715923 0.13326155 0.46230185
-0.28267357 0.1290556 0.46646717
-0.28499413 0.12758234 0.46264988
-0.28624445 0.12857002 0.4596107
-0.28593943 0.13172287 0.45655906
-0.28092444 0.12701237 0.46503788
-0.28284636 0.12513633 0.46080431
-0.28384703 0.12605271 0.45745987
-0.28408846 0.13005202 0.45528913
-0.27909815 0.12530297 0.45900118
-0.28023857 0.12618732 0.45670587
-0.30101725 0.1339246 0.46518269
-0.30182949 0.13443084 0.46395621
-0.29977274 0.13255891 0.46466789
-0.28719041 0.12482066 0.46103641
-0.28780991 0.12499242 0.46002305
-0.28592587 0.12270378 0.46044269
-0.28663525 0.12351507 0.45806143
-0.28382999 0.12155844 0.45826179
-0.2842187 0.1218849 0.45749396
-0.30533001 0.13555089 0.46679515
-0.30588081 0.13592365 0.46574613
-0.30298689 0.13263589 0.46610773
-0.30365384 0.13412911 0.46394309
-0.29910642 0.12710649 0.46656403
-0.29999292 0.12946421 0.46420741
-0.30176377 0.13156328 0.46256033
-0.29759893 0.1239535 0.4655298
-0.29870787 0.12579331 0.4631556
-0.29270598 0.1206063 0.46275789
-0.29289949 0.12105213 0.46051675
-0.28951386 0.11871447 0.46089897
-0.29031774 0.11982746 0.4585925
-0.30081615 0.12448637 0.46639818
-0.30210102 0.12593743 0.46449608
-0.29892531 0.12113751 0.46554437
-0.3000215 0.12255436 0.46277967
-0.29607525 0.11766259 0.46336269
-0.29618728 0.11957568 0.46123978
-0.29323962 0.11668862 0.4611308
-0.29357219 0.11791549 0.45990843
