# .PCD v0.7 - Point Cloud Data file format
VERSION 0.7
FIELDS x y z
SIZE 4 4 4
TYPE F F F
COUNT 1 1 1
WIDTH 1190
HEIGHT 1
VIEWPOINT 0 0 0 1 0 0 0
POINTS 1190
DATA ascii
0.050450869 -0.0014946014 0.87898576
0.020631034 -0.00049383938 0.86393404
0.06070935 -0.0014916435 0.87881196
0.059998952 -0.0014789999 0.87782258
0.051658574 -0.0012877509 0.87743539
0.020731159 -0.0003137365 0.86164862
0.015512638 -0.00010242313 0.85607934
0.014452982 8.1367791e-05 0.85549134
0.058904506 -0.00083806366 0.87242848
0.056196839 -0.00091537088 0.87059653
0.05138246 -0.00039058179 0.86836392
0.028021874 0.00027029961 0.85652852
0.02248282 0.00027556717 0.85346329
0.019403644 0.00026732683 0.85363686
0.015262984 0.00014139712 0.85470581
0.059483558 -0.00074706227 0.87088448
0.05599571 -0.00083966553 0.86928928
0.052564234 -0.00042375177 0.86692691
0.028577907 0.00039984286 0.85492867
0.024461102 0.00017189234 0.85306334
0.021454215 0.00048854947 0.85160202
0.040654287 -0.0072784796 0.89576393
0.037749432 -0.0068191364 0.89453179
0.014994025 -0.0062240958 0.88284814
0.012668813 -0.0063712075 0.88150454
0.043182008 -0.0053208321 0.89373612
0.038602579 -0.0050657541 0.89230382
0.036500674 -0.0061861947 0.88959551
0.019782331 -0.0059996918 0.88117695
0.016642835 -0.0047210604 0.88122773
0.012667874 -0.0044972599 0.87850422
0.04891653 -0.0063748211 0.88916212
0.046490639 -0.00481534 0.89003456
0.041142631 -0.0043726787 0.88684225
0.038381845 -0.0060852766 0.88654876
0.020940727 -0.00603275 0.87871784
0.019184448 -0.0038911104 0.87630987
0.013690433 -0.0038092658 0.8735742
0.01315196 -0.0055104271 0.87062269
0.050623465 -0.0055455267 0.887007
0.047995567 -0.0033371225 0.88519847
0.042825308 -0.0052583739 0.88261712
0.021389477 -0.0046067014 0.87212157
0.016378788 -0.0025033727 0.86977774
0.013957979 -0.0043227375 0.86795634
0.054301955 -0.004380852 0.88247097
0.050370626 -0.0021430105 0.88123626
0.044602584 -0.0044314936 0.87761962
0.024385978 -0.0038286075 0.8674702
0.018572934 -0.0011805296 0.86540741
0.01537439 -0.0033752695 0.86309588
0.060656749 -0.0039466098 0.87931728
0.057763278 -0.0037107915 0.877922
0.053118296 -0.0019214153 0.87548757
0.046675682 -0.0036258101 0.87370884
0.026414907 -0.0029457733 0.86353868
0.020448498 -0.00055556744 0.85980541
0.016514547 -0.0026100203 0.85756862
0.014065649 -0.0023510531 0.85573274
0.061343156 -0.0029665604 0.87751049
0.059354395 -0.0038030669 0.87415135
0.054473221 -0.0037392154 0.87175876
0.049892068 -0.0036818683 0.86894268
0.028466772 -0.0029980764 0.85805535
0.023723867 -0.0026276186 0.8562097
0.018629653 -0.002517648 0.85410893
0.015158272 -0.0015456006 0.8541283
0.060381621 -0.002723977 0.870314
0.055788551 -0.0027214885 0.86836767
0.052725174 -0.002738744 0.86581457
0.029273394 -0.0020530149 0.85394382
0.025367633 -0.001843974 0.85293722
0.021487884 -0.0014612302 0.85051215
0.040738985 -0.010241047 0.89575154
0.037686367 -0.010132484 0.89456302
0.014905831 -0.0094092414 0.88279015
0.012492066 -0.0087672845 0.8814944
0.043481823 -0.010258459 0.89412171
0.03605561 -0.010707073 0.89251238
0.035940334 -0.0094730258 0.88974732
0.019766107 -0.0088877156 0.88141394
0.017360367 -0.010258414 0.88288605
0.012148108 -0.0094949752 0.87861931
0.048973188 -0.0078833029 0.8887679
0.047142893 -0.0098707974 0.89022672
0.040093571 -0.010002449 0.88430744
0.038257763 -0.0094358996 0.88598365
0.021270283 -0.0090833604 0.87803435
0.021656647 -0.0089649931 0.87561905
0.013128003 -0.0089150891 0.87301391
0.01328456 -0.0064786151 0.87052649
0.050850838 -0.0093841255 0.88596654
0.049481265 -0.010496765 0.88548774
0.042382941 -0.0088558272 0.88166773
0.022451585 -0.0082724094 0.87169337
0.014837712 -0.0089464411 0.86860204
0.014454777 -0.0079272762 0.86733174
0.053995706 -0.0084016025 0.88221169
0.050325569 -0.01014401 0.88031429
0.045646384 -0.0087223947 0.87828088
0.023220975 -0.0080837905 0.86735946
0.018994587 -0.0092107803 0.86457187
0.015477071 -0.0073037669 0.8631866
0.056441024 -0.0074038878 0.87852722
0.05276794 -0.0082497224 0.87596154
0.048550572 -0.0078711659 0.87373936
0.025158763 -0.007173188 0.8621543
0.021066677 -0.0072572455 0.86009878
0.016961638 -0.0061294064 0.85895592
0.057516947 -0.0068094954 0.87389022
0.055075768 -0.007364139 0.87366033
0.050469704 -0.0068847314 0.87037671
0.026867047 -0.0060903728 0.8584398
0.022154558 -0.0061395839 0.85673028
0.020237979 -0.0057153255 0.85521233
0.04025358 -0.012991548 0.89491683
0.038575366 -0.01290866 0.89429373
0.04378229 -0.014820121 0.89297748
0.038233981 -0.015322164 0.89160645
0.037114918 -0.01364775 0.88864607
0.01996782 -0.012738869 0.87977827
0.016910788 -0.014328077 0.88061762
0.012915818 -0.014043696 0.87748313
0.046292733 -0.014783487 0.88896441
0.04131962 -0.015125811 0.88485599
0.038062923 -0.014603361 0.8858341
0.021563498 -0.013963364 0.87741351
0.020506237 -0.014805347 0.87439066
0.014019779 -0.013739198 0.87303311
0.047213897 -0.013122045 0.88490647
0.043309703 -0.013669409 0.88370293
0.020281902 -0.012864091 0.87181246
0.016974321 -0.012194775 0.86973614
0.042749003 -0.01927685 0.89116603
0.039425157 -0.019732647 0.89061266
0.016764402 -0.019006893 0.87895757
0.014399586 -0.017717563 0.87690222
0.044421818 -0.019363314 0.88854218
0.040883221 -0.019269623 0.88592595
0.038542222 -0.017689489 0.8860333
0.021005016 -0.016996577 0.87727827
0.019770857 -0.018425055 0.87527138
0.0154308 -0.01837413 0.87395436
0.04404502 -0.021296605 0.88481396
0.019230742 -0.020077296 0.87229025
0.017958939 -0.020509817 0.87144333
0.042454839 -0.023950763 0.88975215
0.040126961 -0.024522796 0.88957775
0.016883042 -0.023704588 0.87782109
0.0447632 -0.024836995 0.88799977
0.040026344 -0.02482596 0.88596547
0.019814491 -0.024202526 0.87584478
0.015385697 -0.023905933 0.87347257
0.046382822 -0.024829097 0.88442761
0.043487765 -0.024626203 0.88284504
0.020821257 -0.024295062 0.8710013
0.01733458 -0.023752369 0.86973763
0.040311448 -0.02897919 0.88866699
0.017472982 -0.027708627 0.87711805
0.045219176 -0.02981142 0.88784581
0.040113077 -0.029895239 0.88656181
0.038989674 -0.030309983 0.88355649
0.02223804 -0.029943042 0.87513888
0.018630654 -0.029223964 0.87594908
0.015111409 -0.028992064 0.87265009
0.047840804 -0.029399715 0.88337553
0.043136563 -0.028493218 0.88053358
0.040239818 -0.030233607 0.88093328
0.023758467 -0.029583432 0.87219459
0.022290085 -0.027556419 0.86974972
0.01681659 -0.028383449 0.86798888
0.04824724 -0.030931741 0.88016266
0.04537458 -0.030689068 0.87872976
0.022566538 -0.029934749 0.86701137
0.019364826 -0.029540375 0.86563993
0.045669399 -0.03469272 0.88778913
0.040253107 -0.034652449 0.8870765
0.038262296 -0.034602955 0.88343596
0.022603275 -0.033927053 0.8754611
0.018414047 -0.033916429 0.87585443
0.014688954 -0.033875205 0.87212414
0.049334228 -0.034389459 0.8837859
0.039583944 -0.034133211 0.87956309
0.024986617 -0.033512138 0.87210244
0.01554982 -0.033308633 0.86677557
0.049780894 -0.034452654 0.87880099
0.046152845 -0.033954538 0.87614352
0.042352639 -0.035080492 0.87554568
0.026253035 -0.033878781 0.86764747
0.023519158 -0.033024184 0.8645286
0.019150916 -0.033456497 0.86334878
0.049452387 -0.036241941 0.87497723
0.048353098 -0.036252327 0.87461448
0.026991896 -0.035696536 0.86428612
0.024055036 -0.035251163 0.86225718
0.021485612 -0.035243005 0.86116773
0.045422498 -0.039515711 0.88688952
0.040760301 -0.039530762 0.88575315
0.038543195 -0.039164551 0.88263232
0.022638714 -0.03851337 0.87468076
0.018916532 -0.03874065 0.8744967
0.015333963 -0.038521677 0.87153816
0.049691498 -0.039271899 0.88386256
0.039351922 -0.039423436 0.87883884
0.02539802 -0.038888477 0.87182546
0.015115891 -0.038649432 0.86655569
0.05153425 -0.039137207 0.87915099
0.046725571 -0.036451183 0.87418252
0.041677225 -0.039120778 0.87478435
0.027358435 -0.038543835 0.86749768
0.017814448 -0.037815079 0.86200398
0.05165679 -0.038985968 0.87410349
0.048108265 -0.038884968 0.87146354
0.044570565 -0.03944996 0.8716293
0.028081497 -0.038697273 0.86320156
0.026254818 -0.038169302 0.86028147
0.02147726 -0.038218655 0.85888797
0.052592661 -0.040435247 0.87016344
0.050624277 -0.040163629 0.86891347
0.026588228 -0.039219722 0.85685962
0.024001291 -0.039538883 0.8558206
0.045308109 -0.042797744 0.88501787
0.041946411 -0.042868286 0.88374859
0.039625581 -0.042369783 0.88169909
0.019689552 -0.042096972 0.87226242
0.016723804 -0.041605353 0.87073767
0.047840111 -0.04394228 0.88233232
0.043273337 -0.045075998 0.8805877
0.040420562 -0.043271117 0.87866926
0.024453919 -0.042568058 0.87091827
0.021013506 -0.044211552 0.86930883
0.017159404 -0.042759627 0.86709583
0.050781213 -0.044391565 0.87887859
0.044554323 -0.046306483 0.87732053
0.042180542 -0.043566681 0.87446284
0.026887419 -0.043245859 0.86683083
0.022579547 -0.045559034 0.86592203
0.018337378 -0.043381512 0.86251301
0.053333379 -0.043675564 0.87397289
0.046720497 -0.042264514 0.86961144
0.045185998 -0.044225514 0.87028563
0.028610397 -0.043482378 0.86158854
0.0281046 -0.041291192 0.86057591
0.020423658 -0.042678393 0.8576293
0.054024164 -0.043751098 0.86916232
0.050546132 -0.043210797 0.86638176
0.047138907 -0.044575252 0.86711425
0.02986547 -0.043741629 0.85837406
0.028623983 -0.042186253 0.85539019
0.023866788 -0.042787321 0.8541317
0.052783333 -0.045294911 0.86534309
0.027861781 -0.043875799 0.85271668
0.026710529 -0.043877803 0.85228032
0.049755327 -0.048724204 0.87623793
0.046234597 -0.04844588 0.87512052
0.043521643 -0.048669979 0.8730529
0.026886735 -0.048352763 0.86481881
0.023674034 -0.04769174 0.86366636
0.020793609 -0.047729515 0.86145723
0.053154878 -0.048787363 0.87337399
0.047796614 -0.048349671 0.87387717
0.044848576 -0.048347428 0.86959523
0.029054705 -0.047818981 0.86175436
0.023930147 -0.047682777 0.86177891
0.020828906 -0.047790505 0.85755396
0.054001279 -0.048304975 0.86875993
0.050486214 -0.048180759 0.86543006
0.046776466 -0.048316181 0.86657566
0.030412115 -0.047609754 0.85798889
0.028816868 -0.047863699 0.85430676
0.02392488 -0.047393568 0.85381114
0.052738376 -0.046550117 0.86521596
0.028616164 -0.045804054 0.85299933
0.026301015 -0.045316666 0.85212803
0.035848223 -0.056307651 0.89056295
0.032695472 -0.055969149 0.88992643
0.028071258 -0.055976287 0.88807929
0.0237666 -0.055593036 0.88597518
0.019885216 -0.055359773 0.8827067
0.017641291 -0.05648388 0.88101113
0.039090432 -0.056793779 0.88869077
0.019213794 -0.055342957 0.88096416
0.016833954 -0.055275999 0.87755024
0.015115979 -0.05579675 0.87430203
0.042189032 -0.057030596 0.88700545
0.016348524 -0.05587016 0.87394744
0.015337605 -0.055983856 0.87242436
0.046834782 -0.055936329 0.87939435
0.044199444 -0.054716557 0.87919861
0.04019814 -0.054993697 0.87676591
0.025526764 -0.054317616 0.8690896
0.021190181 -0.054328255 0.86759776
0.019628368 -0.055083051 0.86550486
0.049283311 -0.054189242 0.87699717
0.04510764 -0.052347302 0.87730193
0.040671811 -0.053887226 0.87286437
0.02885065 -0.053523272 0.86668175
0.022252496 -0.0518438 0.86566341
0.020170007 -0.05328615 0.86211056
0.052735552 -0.053818397 0.87305844
0.043630827 -0.053273141 0.86861908
0.030389395 -0.053237587 0.86223423
0.021102633 -0.053011276 0.85731548
0.052800514 -0.053068884 0.86960888
0.04999321 -0.053310215 0.8671841
0.046539724 -0.053727575 0.86631215
0.030498397 -0.05300235 0.85796916
0.027619252 -0.052478403 0.85564739
0.02374455 -0.052281559 0.85490972
0.036746025 -0.060341865 0.89121711
0.032441109 -0.059778698 0.8906095
0.027554778 -0.059779972 0.88882703
0.023606824 -0.059357114 0.88621342
0.019080948 -0.059484564 0.88351315
0.016980283 -0.060031746 0.88117021
0.042302042 -0.059573695 0.88793141
0.039076738 -0.059423659 0.88907462
0.034954391 -0.06046747 0.8876276
0.029004782 -0.060816575 0.88552678
0.024874728 -0.060548972 0.8833735
0.021207631 -0.059382554 0.87937886
0.016421638 -0.058624275 0.87774885
0.014838164 -0.059236158 0.8741346
0.044227432 -0.058942392 0.88575888
0.041175172 -0.059664581 0.88362163
0.037545249 -0.060434815 0.88094044
0.035150599 -0.061569836 0.87902611
0.023308149 -0.060145717 0.87409151
0.01943255 -0.058675759 0.87276816
0.015173942 -0.058547303 0.87103415
0.047220774 -0.059664313 0.88102436
0.043393787 -0.05802983 0.88137501
0.03835845 -0.057763249 0.87792963
0.036484309 -0.059431374 0.87525761
0.028680138 -0.059166215 0.87151831
0.025692664 -0.057500429 0.87148762
0.019560456 -0.057518244 0.86927116
0.017455893 -0.058317512 0.86585897
0.049811631 -0.059762653 0.8777101
0.040248655 -0.058427572 0.87081367
0.038295027 -0.058670446 0.87257719
0.029954925 -0.058610775 0.86827493
0.030323412 -0.05827029 0.86574763
0.01887618 -0.05878485 0.86185414
0.051737629 -0.058575593 0.87235057
0.04920461 -0.059543058 0.86934686
0.043820977 -0.058376968 0.86841762
0.030169703 -0.058093123 0.86171693
0.025969384 -0.058963366 0.85753757
0.022060666 -0.057599418 0.85729647
0.048704363 -0.057204157 0.86742431
0.046508044 -0.056599736 0.86666858
0.029769052 -0.05691655 0.85809523
0.027823124 -0.0566241 0.85676342
0.024171321 -0.055913202 0.85574025
0.036766648 -0.064919308 0.89115208
0.031969305 -0.065004691 0.89133382
0.027065936 -0.065018415 0.88971704
0.02303271 -0.064483225 0.88722676
0.018805178 -0.064245507 0.88432521
0.015965063 -0.064331129 0.8805396
0.042186148 -0.065330729 0.88911825
0.039882161 -0.064813703 0.89031899
0.034632888 -0.064323761 0.88489652
0.030351972 -0.065178022 0.88403314
0.025514184 -0.064331815 0.88169831
0.023191372 -0.064595044 0.87820363
0.014973533 -0.063924998 0.8772828
0.01422233 -0.064244948 0.87431723
0.045317449 -0.065272138 0.88551062
0.038146205 -0.062228221 0.8845228
0.035603046 -0.063223422 0.88240528
0.033885051 -0.064044863 0.87905896
0.02714425 -0.063776642 0.87541431
0.023162162 -0.062736616 0.87606359
0.014668399 -0.063891724 0.87079895
0.048391968 -0.064242437 0.88148028
0.035406027 -0.063330561 0.87552613
0.029112576 -0.063315213 0.87192541
0.01598835 -0.063725054 0.86551303
0.050802968 -0.063316837 0.87680173
0.040134951 -0.063973859 0.87109065
0.0378232 -0.063926086 0.86984313
0.03290724 -0.063799091 0.86740345
0.029649517 -0.063543051 0.86562681
0.018409073 -0.063047409 0.86099571
0.051365219 -0.063416958 0.87256938
0.048219569 -0.063523389 0.87008107
0.043388836 -0.062779233 0.86845165
0.038832758 -0.062777281 0.86621642
0.033984687 -0.062849894 0.86470258
0.029744353 -0.062779412 0.8611635
0.025677498 -0.06289497 0.85842121
0.021493655 -0.062125657 0.85843062
0.026061412 -0.069924772 0.88998598
0.022802224 -0.071285933 0.88820583
0.036563009 -0.070063189 0.89090931
0.031750437 -0.070235565 0.8911711
0.027405696 -0.069870315 0.88986051
0.022824641 -0.069115847 0.88745391
0.017814979 -0.070086621 0.88418555
0.015198517 -0.069331199 0.88042635
0.0421688 -0.069823667 0.88851774
0.039940003 -0.070175201 0.88982999
0.033266332 -0.067469701 0.88336378
0.03071251 -0.069525868 0.88194573
0.026568394 -0.069133312 0.87977946
0.014277489 -0.068874285 0.87735724
0.013879181 -0.069369882 0.87451136
0.044799186 -0.069363862 0.88550931
0.032740433 -0.069289275 0.87901151
0.027350074 -0.069342762 0.87666637
0.014517437 -0.068828076 0.87009495
0.04768838 -0.069563694 0.88083321
0.035777189 -0.069574222 0.8751018
0.028740879 -0.068938516 0.87178189
0.028784126 -0.070646748 0.86909056
0.016254595 -0.068252578 0.86489809
0.049536459 -0.068704627 0.8766647
0.047295973 -0.070393711 0.87292939
0.039708272 -0.068592682 0.87225699
0.036406241 -0.068743072 0.86962956
0.03262433 -0.068417117 0.86686456
0.029101614 -0.068225853 0.86697304
0.022207968 -0.069553427 0.86103612
0.019097466 -0.067873538 0.86138946
0.049572252 -0.067353338 0.87299079
0.046980992 -0.067841798 0.87146664
0.042548995 -0.068094552 0.86917406
0.038766757 -0.067977615 0.86751074
0.033839393 -0.067728356 0.86548632
0.029561197 -0.067771569 0.86212075
0.025247285 -0.067723483 0.86066806
0.022441221 -0.066142127 0.85920328
0.029299319 -0.077258989 0.89142609
0.026381893 -0.07555607 0.88997245
0.023130592 -0.075504437 0.88828033
0.019518597 -0.076636806 0.88617265
0.03616472 -0.07533095 0.89071929
0.032225445 -0.074760914 0.89095855
0.026888346 -0.074948072 0.88945693
0.021357901 -0.075419053 0.88659215
0.018173324 -0.074498825 0.88429463
0.015244039 -0.074253812 0.8801254
0.042344846 -0.074874833 0.88747615
0.040004082 -0.075260699 0.88900685
0.014262291 -0.074476436 0.87686056
0.014274813 -0.073901527 0.87402707
0.044315651 -0.074643292 0.88446552
0.03181209 -0.073441952 0.8777222
0.028862555 -0.073291227 0.87606966
0.015276023 -0.073825657 0.86989963
0.046368778 -0.074524179 0.88026047
0.046457842 -0.075766645 0.8773526
0.034774896 -0.073347554 0.87412786
0.029909598 -0.073225573 0.87195444
0.017577048 -0.073789239 0.86533701
0.047871485 -0.072871134 0.87657857
0.046202071 -0.074055977 0.87393695
0.042303838 -0.07368473 0.87031692
0.037198704 -0.073712572 0.86809868
0.033364311 -0.073589757 0.86544985
0.02835894 -0.074390575 0.86339366
0.023506509 -0.073749021 0.8623578
0.019904276 -0.072530486 0.8622086
0.043000795 -0.072659895 0.8695758
0.038929071 -0.072812483 0.8675667
0.032940079 -0.073811114 0.86468488
0.029237937 -0.072071947 0.86261159
0.026255187 -0.071504191 0.86156762
0.033957362 -0.080755964 0.8934468
0.030578885 -0.080279194 0.89274502
0.025902353 -0.080025345 0.89131433
0.021502834 -0.079747535 0.88873589
0.017449984 -0.079821609 0.88604504
0.014845003 -0.079626277 0.88394797
0.036823571 -0.07994841 0.89181328
0.032954406 -0.07910648 0.89223665
0.021544877 -0.077388555 0.88689214
0.017070472 -0.077770025 0.88409579
0.014237639 -0.079166859 0.88042718
0.042093784 -0.079992205 0.88806587
0.040525239 -0.079334982 0.88872659
0.014855156 -0.077300861 0.87602562
0.014027631 -0.07936886 0.87424505
0.044104878 -0.079598442 0.88409656
0.015901055 -0.078389205 0.86976498
0.045332946 -0.079157501 0.88090307
0.045128912 -0.079596914 0.87808371
0.020529663 -0.078990921 0.86542732
0.017825443 -0.077965647 0.86666787
0.044234633 -0.079106711 0.87422937
0.041752771 -0.078819439 0.87097931
0.0381441 -0.07797493 0.86798036
0.032907743 -0.077558622 0.86534315
0.027944788 -0.078549027 0.86392426
0.023728726 -0.077998191 0.86396301
0.037507433 -0.079852566 0.86639142
0.033709753 -0.079303391 0.86452162
0.03073404 -0.079673789 0.86327648
0.030314505 -0.084050439 0.89201224
0.026096832 -0.08493647 0.89027441
0.021702293 -0.084807649 0.88833749
0.018015064 -0.083736733 0.88573766
0.036758475 -0.084352359 0.89017355
0.032504316 -0.085588992 0.89036483
0.028433776 -0.086799875 0.88960499
0.020674221 -0.086600147 0.88572973
0.0178292 -0.085143819 0.88334137
0.015645791 -0.084103748 0.87972081
0.013191359 -0.082069084 0.87716657
0.041753963 -0.083470672 0.88784176
0.039257668 -0.085097119 0.88722926
0.016329851 -0.085246086 0.87599581
0.014196827 -0.082735389 0.87393898
0.043774463 -0.082837522 0.88361925
0.041960627 -0.085624158 0.88279015
0.018410366 -0.085174017 0.87063164
0.015967455 -0.082569845 0.87058818
0.044965141 -0.082915977 0.88099784
0.043743938 -0.084372967 0.87809891
0.040717661 -0.085395217 0.87455356
0.025412031 -0.085058168 0.86681515
0.020863947 -0.08428482 0.86658913
0.017905809 -0.081425555 0.86683917
0.044081859 -0.083262101 0.87422502
0.04116356 -0.083251595 0.8711881
0.036985662 -0.083485477 0.86879712
0.032249711 -0.083387524 0.86645418
0.028055971 -0.083036043 0.86446631
0.023695473 -0.082959011 0.86385942
0.038429487 -0.081443876 0.866754
0.033699259 -0.081223145 0.86444145
0.030387748 -0.081081212 0.86310798
0.059577368 -0.083014995 0.82234216
0.056134421 -0.082618073 0.82070613
0.060888469 -0.08243461 0.81922263
0.057565898 -0.082170099 0.81779283
0.061328836 -0.082413033 0.81620884
0.059697341 -0.082181551 0.81533694
0.025190182 -0.08986029 0.88900149
0.022882322 -0.0894581 0.88796067
0.035960678 -0.088010408 0.88836032
0.032524664 -0.089858755 0.88858259
0.028319454 -0.08992134 0.88881743
0.021289811 -0.09009406 0.88528281
0.01917167 -0.089466229 0.88224012
0.01738774 -0.088449806 0.87898266
0.037831359 -0.088781044 0.88578171
0.03614087 -0.091426738 0.8855288
0.018992294 -0.090834744 0.87694728
0.018079566 -0.088382512 0.87583792
0.040049411 -0.087992772 0.88179106
0.038142402 -0.090501092 0.87993634
0.022367883 -0.089894131 0.87201035
0.019997321 -0.087589517 0.87182611
0.041172519 -0.087039292 0.87846541
0.038841009 -0.088807866 0.8754108
0.035191622 -0.090447173 0.8712486
0.031051051 -0.090365425 0.86909544
0.025692657 -0.088475488 0.86891824
0.022384733 -0.086416557 0.86853099
0.038725428 -0.087024972 0.87207437
0.035997864 -0.087743253 0.87013119
0.031923857 -0.087902248 0.86819172
0.028269527 -0.086552352 0.86687374
0.056545775 -0.090205878 0.8591454
0.055552512 -0.090377778 0.85887486
0.029049555 -0.089624815 0.84557402
0.02809336 -0.089365587 0.8450647
0.057754666 -0.089773342 0.85711205
0.055390824 -0.089676693 0.85510916
0.035595406 -0.089318477 0.84319651
0.0319741 -0.088970125 0.84346831
0.029104803 -0.088903442 0.84271002
0.058774717 -0.08981356 0.85340452
0.056612112 -0.089220062 0.85074228
0.054098293 -0.089177586 0.84874755
0.03794314 -0.08866737 0.84065604
0.034829091 -0.088553116 0.83977389
0.031348262 -0.088968396 0.83979303
0.057640482 -0.089140028 0.84656465
0.05481077 -0.088702142 0.84393746
0.053230047 -0.088928469 0.84112829
0.044417325 -0.089071408 0.83714151
0.041341353 -0.088230714 0.83716863
0.037601843 -0.088407412 0.83643705
0.055097438 -0.088527292 0.839544
0.053327166 -0.087887332 0.83738631
0.047557551 -0.087816522 0.83443213
0.044120759 -0.088186875 0.83433044
0.057345182 -0.088544428 0.83372587
0.054486372 -0.087483555 0.83292413
0.050141241 -0.087661527 0.83106434
0.047802262 -0.088294446 0.82932287
0.058257949 -0.088612586 0.83151829
0.057193346 -0.086728349 0.82850671
0.052807227 -0.086860992 0.82598555
0.049228296 -0.088029116 0.82678705
0.058787607 -0.085740298 0.82357955
0.055371057 -0.085783549 0.82192564
0.060609639 -0.083762154 0.81979018
0.057596281 -0.083553061 0.81815559
0.061626248 -0.083382294 0.81631613
0.059561327 -0.083097257 0.81532991
0.025401203 -0.095067739 0.88841444
0.023243127 -0.094798133 0.88746047
0.032283768 -0.094777659 0.88706094
0.028194223 -0.094831333 0.88781351
0.021868538 -0.094856933 0.88445091
0.020165928 -0.094126046 0.88127232
0.038133606 -0.096356899 0.88379312
0.035618328 -0.095029816 0.88498384
0.019701265 -0.094256245 0.87705487
0.019359626 -0.095626205 0.87436724
0.040034994 -0.09575057 0.88088822
0.038054705 -0.093392938 0.87976658
0.022502981 -0.092983052 0.87197477
0.020440366 -0.09514828 0.8710385
0.040634312 -0.095522575 0.87812304
0.038521662 -0.094261751 0.87515813
0.036605805 -0.092538968 0.87205243
0.02935116 -0.092200749 0.86840647
0.025966899 -0.093849368 0.86873436
0.022200592 -0.095030263 0.86894858
0.039186735 -0.095689997 0.87175262
0.036097448 -0.093871057 0.86955106
0.031679783 -0.093529001 0.867459
0.028321395 -0.095319405 0.86620665
0.056986585 -0.093438677 0.86085218
0.054513216 -0.092509553 0.85868257
0.029684782 -0.091850303 0.84630734
0.026294518 -0.092480764 0.84554517
0.059746534 -0.092562176 0.85732204
0.053518802 -0.092326961 0.85555291
0.051857106 -0.092992581 0.85235375
0.035986811 -0.092471883 0.84462607
0.032470055 -0.091609299 0.8452704
0.027505163 -0.091618225 0.84131968
0.060482614 -0.092977308 0.85233402
0.059381351 -0.090859085 0.84989929
0.051900521 -0.092038125 0.84827018
0.039770193 -0.091719672 0.84211278
0.033524469 -0.090110332 0.83715463
0.031004135 -0.092138223 0.83759707
0.060532071 -0.094062552 0.84909326
0.059374526 -0.092514165 0.84607917
0.052803256 -0.090956353 0.84432489
0.052162841 -0.091755889 0.84171087
0.044499151 -0.091562793 0.83817005
0.042239461 -0.090171695 0.83918595
0.036480941 -0.091596276 0.83476609
0.033392653 -0.092991665 0.83568412
0.058524735 -0.092996374 0.84259355
0.056958586 -0.091675997 0.8391546
0.051666487 -0.091493122 0.83666348
0.048757963 -0.091295965 0.83548701
0.043455966 -0.091192544 0.83220565
0.039921504 -0.091958031 0.83315188
0.057978384 -0.091504321 0.83414948
0.052300237 -0.09185531 0.83220959
0.052227452 -0.091893964 0.83167261
0.046803966 -0.091081619 0.82861382
0.060096547 -0.091626026 0.82981741
0.056413807 -0.090645373 0.82750201
0.053709537 -0.09078753 0.8259728
0.049203672 -0.091163188 0.82449305
0.062093019 -0.091702983 0.82545376
0.058913268 -0.089737557 0.8234418
0.055681445 -0.090399325 0.82185566
0.051789463 -0.0910457 0.82001436
0.062832654 -0.091822319 0.82225871
0.061337784 -0.090803899 0.81892943
0.057328235 -0.090283275 0.81686777
0.053544596 -0.091116935 0.81713736
0.063126445 -0.09052211 0.81459826
0.059706956 -0.089796379 0.81292093
0.064860538 -0.090397432 0.81099963
0.06141343 -0.089600414 0.80925006
0.025434943 -0.10012018 0.88830519
0.022901667 -0.099867657 0.88697213
0.035840906 -0.10135258 0.88778824
0.031975999 -0.099931061 0.88719165
0.028652918 -0.099340342 0.88754404
0.021766571 -0.099103227 0.88423198
0.019784991 -0.099539399 0.88099408
0.017091438 -0.1004694 0.8782478
0.038055584 -0.10004422 0.88540024
0.034932189 -0.098000728 0.88604414
0.0192519 -0.09749677 0.87833291
0.017773904 -0.099376202 0.87532204
0.040796608 -0.098977879 0.88093585
0.04006901 -0.096870095 0.87829453
0.022198919 -0.096430331 0.86956167
0.019595012 -0.09853518 0.87041754
0.042008676 -0.099712402 0.87677819
0.040842846 -0.097922184 0.87458438
0.024854975 -0.097422667 0.86649925
0.022277126 -0.099128865 0.86698627
0.040798165 -0.09916658 0.87099069
0.037332535 -0.098092929 0.86756766
0.032505739 -0.097814903 0.86519682
0.027466932 -0.098561689 0.86447382
0.038010135 -0.10058661 0.8655659
0.033913266 -0.10008359 0.86370814
0.058469422 -0.10078864 0.86537564
0.055902168 -0.09975484 0.86489016
0.026864458 -0.099570207 0.8494072
0.023839645 -0.098794989 0.84868199
0.021764036 -0.099663764 0.84706253
0.060192876 -0.099962413 0.86279583
0.057401396 -0.097793624 0.86255431
0.053340793 -0.098305397 0.85875493
0.029725865 -0.097724617 0.84734452
0.02460251 -0.096830606 0.84604716
0.022620197 -0.098784044 0.84409273
0.061094403 -0.098711684 0.85977238
0.059741616 -0.097853303 0.85646588
0.054559357 -0.098153807 0.85420477
0.052565858 -0.096459657 0.85201228
0.036033802 -0.096020378 0.84373331
0.032731824 -0.097571917 0.84333515
0.027766526 -0.096771613 0.84055144
0.02440444 -0.097789608 0.84152871
0.060831457 -0.096569203 0.85215569
0.05684001 -0.098454073 0.85070914
0.052962739 -0.096674196 0.84800434
0.039305992 -0.09624207 0.84074926
0.034253534 -0.097764686 0.83934814
0.030737413 -0.095609307 0.83713722
0.060632952 -0.095931388 0.84914899
0.058864556 -0.096466579 0.84605426
0.054997779 -0.096807361 0.84359097
0.052717827 -0.094910771 0.84079659
0.044312395 -0.094746798 0.83743125
0.041289203 -0.096356452 0.83680749
0.036806826 -0.095752776 0.83500355
0.03322098 -0.094688386 0.8355211
0.055967033 -0.09537559 0.83894861
0.053465128 -0.095923468 0.83655065
0.047812223 -0.095609918 0.83383912
0.044690404 -0.095046386 0.8326962
0.040311277 -0.094329558 0.8331821
0.057875045 -0.096463345 0.83392566
0.052704267 -0.096016265 0.8324163
0.051521562 -0.095939592 0.83174717
0.046642229 -0.096327253 0.82827133
0.060101561 -0.096137501 0.82942003
0.055640511 -0.095891654 0.82663423
0.054058895 -0.095852613 0.82611114
0.048789512 -0.09587644 0.82384568
0.061286129 -0.095815718 0.82590276
0.060292654 -0.095502347 0.82352746
0.056477048 -0.096050806 0.82205188
0.051418051 -0.095380977 0.81991756
0.060616508 -0.095450096 0.81995571
0.056190908 -0.095483765 0.81744397
0.053565487 -0.097022474 0.81712621
0.026057392 -0.10502154 0.88822865
0.022456355 -0.10492782 0.88660461
0.035622269 -0.10483688 0.88758039
0.032410935 -0.10496908 0.88811707
0.028815318 -0.10418666 0.88836378
0.020606609 -0.10409056 0.88436383
0.018656664 -0.10458268 0.88115579
0.017199039 -0.10418563 0.87815857
0.03821319 -0.10473377 0.8855859
0.017974518 -0.10227304 0.87794709
0.017300017 -0.103965 0.87510854
0.042114958 -0.1042885 0.88169861
0.017977677 -0.10385267 0.86999172
0.045867819 -0.10624188 0.87805253
0.044302728 -0.1037349 0.87642258
0.020820651 -0.10306274 0.86482823
0.018967403 -0.10534997 0.86382216
0.044444256 -0.10476068 0.87206495
0.042505078 -0.10241021 0.86956036
0.027376998 -0.10181155 0.86223364
0.024336379 -0.10396816 0.86212385
0.056216374 -0.10551329 0.86951119
0.053844597 -0.10454848 0.86884201
0.044881023 -0.1058462 0.86867803
0.043440297 -0.10419849 0.86590314
0.038720883 -0.10337049 0.86294365
0.03469988 -0.10306036 0.86098826
0.029887652 -0.10370873 0.85911512
0.025846124 -0.10494872 0.85656112
0.021875307 -0.10387159 0.85266334
0.019919194 -0.10467158 0.85094792
0.058808163 -0.1034858 0.86704576
0.054645203 -0.10219411 0.86648715
0.051443879 -0.10409184 0.86324674
0.042924434 -0.10560392 0.86225235
0.03283257 -0.10541639 0.85698396
0.027485881 -0.10321913 0.85123646
0.022523921 -0.10148115 0.85067362
0.020174697 -0.102338 0.84767199
0.060532913 -0.10287029 0.86351156
0.058822602 -0.10425387 0.85992706
0.051858522 -0.10272577 0.85866034
0.030750612 -0.10223181 0.84832698
0.025324751 -0.10330651 0.84334093
0.021753492 -0.10156085 0.84416652
0.0608733 -0.10118952 0.85996526
0.058112144 -0.10240784 0.85692984
0.054722849 -0.10246935 0.85535437
0.031515211 -0.10189416 0.84369439
0.028408986 -0.10110081 0.8418926
0.024323279 -0.099901915 0.84168196
0.057945684 -0.10087003 0.83277893
0.054411046 -0.10156182 0.83247042
0.050464038 -0.10141786 0.83018976
0.047377877 -0.10047913 0.82741725
0.058459349 -0.10113423 0.83053839
0.057880078 -0.10100378 0.82707381
0.053916477 -0.10106035 0.82443237
0.049581245 -0.10066421 0.8240636
0.061348878 -0.098867789 0.82478797
0.059192061 -0.10116283 0.82339805
0.054638762 -0.10055713 0.8213588
0.051763996 -0.099353172 0.81958932
0.061385885 -0.10047626 0.81860709
0.057098851 -0.099819988 0.81601423
0.054131523 -0.099041201 0.81557673
0.063202769 -0.10100913 0.8141371
0.059218243 -0.10021849 0.81183374
0.06520021 -0.1013267 0.81005454
0.061252624 -0.10084947 0.80787611
0.025835084 -0.10959603 0.88826573
0.021925278 -0.10947475 0.88651013
0.035685405 -0.10892917 0.88673681
0.032610245 -0.10981497 0.8874864
0.028518885 -0.10992767 0.88759536
0.020991933 -0.10999564 0.88393104
0.018895298 -0.109487 0.88058823
0.017756186 -0.10962394 0.87751937
0.042793941 -0.11089779 0.88517696
0.038572047 -0.10980079 0.88523519
0.017954947 -0.11149888 0.87743127
0.017117191 -0.10906762 0.87451452
0.014548366 -0.11011567 0.87100726
0.045375802 -0.11023337 0.88277012
0.042458247 -0.10784784 0.8826673
0.017005933 -0.10701056 0.86968511
0.014932381 -0.10932738 0.86770082
0.047153816 -0.10919213 0.87824738
0.017488357 -0.10825844 0.86362135
0.054503493 -0.11104347 0.87375963
0.049562953 -0.11054072 0.87302458
0.04613927 -0.10903858 0.8715781
0.023309564 -0.10841843 0.86015606
0.019919831 -0.10967318 0.85846418
0.016795363 -0.10997804 0.85514778
0.056850575 -0.10928657 0.87137061
0.051933691 -0.10768885 0.87034655
0.047729991 -0.10913364 0.86745125
0.045397934 -0.10697987 0.8658582
0.038332693 -0.10750541 0.86028415
0.037329532 -0.1079695 0.85987622
0.028421793 -0.10669179 0.85731488
0.025723463 -0.10829053 0.85642576
0.020611936 -0.10699344 0.85473299
0.017375521 -0.1080911 0.85173237
0.058685482 -0.10847116 0.86730671
0.050427727 -0.10862234 0.86326808
0.045077808 -0.10869183 0.86204636
0.040582325 -0.10875431 0.8602435
0.035740349 -0.10845119 0.85771596
0.03131216 -0.10783926 0.85510856
0.027811436 -0.10781614 0.85197389
0.019565171 -0.10705791 0.8478604
0.058990695 -0.10843755 0.86362839
0.056912899 -0.10832015 0.8607235
0.053023405 -0.1079265 0.85867453
0.029695664 -0.10744996 0.84710926
0.025595853 -0.10710241 0.84509301
0.022023767 -0.10718867 0.84543204
0.056585431 -0.10572349 0.85754293
0.054926179 -0.10611122 0.85663533
0.045817241 -0.10933136 0.84729105
0.043676339 -0.10916374 0.84609544
0.030252824 -0.10557573 0.84440297
0.028478229 -0.10487231 0.84349382
0.048967898 -0.10804369 0.84433895
0.04474277 -0.1079715 0.84217054
0.049465857 -0.1080402 0.84183264
0.045942027 -0.10810713 0.84030157
0.05805555 -0.10414539 0.83139473
0.055836931 -0.10581152 0.83062577
0.050894924 -0.10525624 0.82809538
0.04885672 -0.10419913 0.82661641
0.058405802 -0.1045846 0.83033156
0.056809776 -0.10627953 0.82699221
0.052799731 -0.10624087 0.82485574
0.049684815 -0.10421743 0.82469088
0.057006955 -0.10772146 0.82369
0.053922221 -0.10705812 0.82221085
0.063963547 -0.10331902 0.81320536
0.059917878 -0.10255779 0.80941677
0.065292791 -0.10366957 0.80982578
0.061396867 -0.10268977 0.80761242
0.025055354 -0.11315005 0.88736612
0.022840424 -0.11315104 0.88630182
0.032421682 -0.11392985 0.88617992
0.027961904 -0.11474371 0.88542032
0.022951294 -0.11482832 0.8831889
0.019759268 -0.11358788 0.87971103
0.042407177 -0.11287873 0.88475406
0.039251812 -0.11456596 0.88474637
0.034882657 -0.11553226 0.88468039
0.019290395 -0.11491405 0.87671226
0.01686405 -0.11381018 0.87350512
0.014937535 -0.11184163 0.87135613
0.045097288 -0.11422604 0.8818717
0.042525426 -0.11592655 0.88217133
0.016825121 -0.11498216 0.86932623
0.015626093 -0.1131877 0.86713082
0.051115744 -0.11654998 0.8778578
0.048894003 -0.11482935 0.8793456
0.015369126 -0.1136478 0.86250848
0.015181899 -0.11510779 0.8597163
0.054429822 -0.11463258 0.87490571
0.050579362 -0.11296846 0.87485623
0.046624362 -0.11148303 0.86984771
0.024617985 -0.11079756 0.85874116
0.018061835 -0.11179992 0.8587445
0.01554427 -0.11335793 0.85582727
0.057828598 -0.11388302 0.87193322
0.047389068 -0.11222918 0.86727083
0.037522782 -0.11399806 0.8590796
0.026125055 -0.1116375 0.85647565
0.015842838 -0.11242687 0.8511157
0.059291169 -0.11365961 0.8672564
0.049435139 -0.11261346 0.8620283
0.045605257 -0.11354131 0.86100483
0.040622689 -0.113152 0.85908997
0.036468849 -0.11299872 0.8568418
0.032115787 -0.1131579 0.85395128
0.028918531 -0.11195731 0.85207611
0.018839695 -0.11219852 0.84685218
0.05915454 -0.11307608 0.86351687
0.056801919 -0.11321708 0.86130756
0.052999604 -0.1127415 0.86009979
0.04390803 -0.11453017 0.85150844
0.040997919 -0.11427296 0.85016322
0.028297102 -0.11183502 0.847736
0.025033602 -0.11221994 0.84551686
0.021864299 -0.11196004 0.84497392
0.049221128 -0.11316561 0.84936398
0.045700453 -0.11273526 0.84986913
0.041254323 -0.11246911 0.84719074
0.039697595 -0.11395063 0.84419686
0.051400587 -0.11232539 0.84656507
0.050085142 -0.11035742 0.84561086
0.042304266 -0.11061095 0.84205753
0.040368453 -0.1130348 0.84083176
0.054956228 -0.11285214 0.8421731
0.051068109 -0.11116506 0.83998591
0.046041861 -0.11105255 0.8376202
0.041850112 -0.11230008 0.83586091
0.054598346 -0.11397436 0.83937848
0.05114156 -0.11276115 0.83680612
0.047487982 -0.11289496 0.83527428
0.044099584 -0.11291994 0.83420026
0.056792501 -0.1100563 0.82578641
0.053219054 -0.11002323 0.82400924
0.058401443 -0.11105475 0.82223654
0.055149041 -0.11061367 0.82044113
0.059245631 -0.11195591 0.81902862
0.056349546 -0.11165471 0.81730306
0.027683865 -0.1184805 0.88265967
0.024760127 -0.11863285 0.8815614
0.038631156 -0.11886311 0.88301724
0.03490591 -0.11955913 0.88231969
0.029955607 -0.12018421 0.88158244
0.024085915 -0.1203413 0.87875843
0.021163899 -0.11911644 0.87548536
0.018470827 -0.11821672 0.87288314
0.04490944 -0.11799024 0.87996382
0.041654915 -0.11959062 0.88059503
0.037321411 -0.12162636 0.88031065
0.021233279 -0.12107904 0.87215549
0.018560369 -0.1189229 0.8689723
0.017133422 -0.11702195 0.86611652
0.051364191 -0.11811575 0.8776992
0.04806022 -0.11921532 0.87843204
0.044134289 -0.12098139 0.87856895
0.018335629 -0.11994562 0.86544484
0.016352374 -0.11818437 0.86265886
0.014892284 -0.11710879 0.85937268
0.053382743 -0.1181787 0.87514216
0.051142007 -0.12046584 0.8735283
0.018306727 -0.11948127 0.85705614
0.015587126 -0.11696006 0.85645545
0.056489274 -0.11881926 0.87076902
0.052076444 -0.12094166 0.87038869
0.04858562 -0.12044328 0.86484522
0.043346874 -0.11918849 0.86338282
0.042005546 -0.1189824 0.86154354
0.033424791 -0.11863881 0.85683227
0.031198172 -0.11894307 0.85694635
0.026429482 -0.11986723 0.85367882
0.02000048 -0.11989766 0.85412186
0.017359445 -0.11764477 0.85116851
0.057971835 -0.11831523 0.86657226
0.055173665 -0.11984023 0.86370367
0.050280541 -0.11880188 0.86216903
0.045325637 -0.11670189 0.86155951
0.041928824 -0.11742982 0.85819757
0.036396116 -0.11730256 0.85494041
0.031699866 -0.11655512 0.85479617
0.027871221 -0.11814028 0.85087395
0.023632895 -0.11876714 0.84800798
0.019683877 -0.1172173 0.8476128
0.058366492 -0.11591281 0.86353064
0.055955097 -0.11704436 0.86198455
0.053104803 -0.11671831 0.86054778
0.047001198 -0.11946156 0.8532328
0.043593347 -0.1177564 0.85344541
0.039002754 -0.11766202 0.8513146
0.037348814 -0.11904927 0.84837073
0.027739989 -0.11580718 0.84798867
0.024644338 -0.11605071 0.84642535
0.049467675 -0.11788051 0.85060823
0.046497919 -0.11658807 0.85140055
0.039480202 -0.11637014 0.84764373
0.038187005 -0.11766118 0.84480882
0.0532929 -0.1173126 0.84710634
0.039179269 -0.11678679 0.83994508
0.0567673 -0.11593883 0.84387064
0.056097902 -0.11660703 0.84328729
0.041110553 -0.11599974 0.83539808
0.055435352 -0.11692777 0.83866632
0.052889436 -0.11655063 0.83493072
0.0481693 -0.11655641 0.83291554
0.044313874 -0.11610032 0.83339667
0.058464773 -0.11411655 0.82093978
0.056009799 -0.11395226 0.81934077
0.059495747 -0.11459364 0.81898159
0.056532592 -0.11422125 0.81714976
0.033876471 -0.12194424 0.87929899
0.029231723 -0.12227285 0.87941098
0.026122972 -0.12226328 0.87813783
0.024007926 -0.12164482 0.87492657
0.04096346 -0.1224032 0.87859428
0.037056442 -0.12312356 0.87761766
0.031969231 -0.12423056 0.87534857
0.027831595 -0.12434412 0.87317038
0.02330631 -0.12258779 0.87072265
0.020562869 -0.12190518 0.86812025
0.047364026 -0.12283729 0.87599796
0.043719336 -0.12359492 0.87550819
0.039191291 -0.12478814 0.87314898
0.034426287 -0.12548114 0.87101322
0.030125191 -0.12550758 0.86881036
0.025548618 -0.12422717 0.86630338
0.021222947 -0.12288227 0.86419713
0.01840955 -0.12191721 0.86144388
0.048759155 -0.12276623 0.8733077
0.04555694 -0.12431952 0.87106013
0.042133 -0.12571889 0.86945915
0.034213711 -0.12604313 0.86666495
0.03279623 -0.12604667 0.86714363
0.026940249 -0.12529482 0.86204273
0.023251131 -0.12354971 0.85990447
0.019598365 -0.12178941 0.85861635
0.055771515 -0.12133968 0.86838692
0.052279644 -0.12160066 0.86842573
0.048104655 -0.12264306 0.86668324
0.043589711 -0.12341388 0.86363596
0.041693985 -0.12562503 0.86161149
0.033685118 -0.12534098 0.85738254
0.03025613 -0.12324103 0.8570081
0.025601964 -0.12200972 0.85526526
0.021920841 -0.12071279 0.85340148
0.019723315 -0.12014173 0.85025591
0.05638618 -0.1211136 0.86721593
0.054764934 -0.12140744 0.86570859
0.043080579 -0.12295078 0.86026734
0.043017868 -0.12377027 0.85806578
0.035644546 -0.12397138 0.8545441
0.033477593 -0.12273642 0.85536212
0.022002645 -0.12021742 0.8494935
0.046453945 -0.12325484 0.85414129
0.044875875 -0.12252527 0.85536826
0.036758315 -0.12144619 0.85072893
0.03637322 -0.12309496 0.849253
0.051306903 -0.12267245 0.85047096
0.036823284 -0.12191018 0.84333014
0.053128414 -0.12305753 0.84757012
0.038064025 -0.12223353 0.84003574
0.054978438 -0.12214981 0.84231776
0.041553885 -0.12154516 0.83544779
0.056111395 -0.1217014 0.83761001
0.054199237 -0.12149078 0.83386368
0.047943607 -0.12131143 0.83098382
0.044316933 -0.12155051 0.83176678
0.052635845 -0.12200841 0.83240539
0.050363246 -0.12167858 0.8313008
0.035583645 -0.1263715 0.86903816
0.030897316 -0.12618393 0.86661929
0.040192056 -0.12636825 0.86792821
0.037143815 -0.126422 0.86655873
0.032008991 -0.12624729 0.863958
0.029139157 -0.12597157 0.86206347
0.041332409 -0.12620388 0.86517137
0.038649462 -0.12608625 0.86181551
0.034900311 -0.12596323 0.86000597
0.030665994 -0.1258503 0.85977936
0.041114204 -0.12625058 0.85716176
0.037433237 -0.12622654 0.8549996
0.046709221 -0.12718274 0.8535378
0.043534972 -0.12814066 0.8540889
0.037991073 -0.12771946 0.85151744
0.036603935 -0.12683909 0.84836662
0.053634137 -0.12896201 0.84955496
0.051391967 -0.12728575 0.85014349
0.036618397 -0.12661386 0.84299213
0.035482243 -0.12711714 0.84067124
0.05382026 -0.12814902 0.84915334
0.053066865 -0.12705608 0.84705037
0.038007606 -0.12639773 0.83945787
0.035703 -0.12692939 0.84007102
0.054413043 -0.12701966 0.84149843
0.041738942 -0.12637986 0.83527803
0.055731826 -0.12660283 0.83724564
0.053440943 -0.12651825 0.83350611
0.048545174 -0.12642041 0.83116782
0.044406481 -0.12642431 0.83175308
0.052944012 -0.12406578 0.83254951
0.050752334 -0.1240964 0.83143657
0.043694384 -0.1313666 0.85108387
0.040059678 -0.13115886 0.84924996
0.049351588 -0.13183774 0.848939
0.045772683 -0.13352925 0.84849387
0.040612821 -0.13321924 0.84603667
0.038356945 -0.13140982 0.8435632
0.051966954 -0.13221204 0.84561956
0.040721346 -0.13450973 0.84254801
0.039324269 -0.13172835 0.83919418
0.053471208 -0.13172434 0.84102756
0.052811388 -0.13354719 0.83827573
0.044852234 -0.13311848 0.83395284
0.042211182 -0.13135371 0.83524156
0.054472011 -0.13033959 0.83747554
0.052439123 -0.13154823 0.83501142
0.048012868 -0.13138464 0.83270866
0.044481739 -0.13019666 0.83274525
0.045352176 -0.13538563 0.84564149
0.043063156 -0.13515635 0.84488553
0.050486114 -0.13494974 0.84475082
0.047793023 -0.1374543 0.84181798
0.044746242 -0.13754186 0.84024161
0.041340172 -0.13501863 0.8390677
0.051850438 -0.13498792 0.8420279
0.049379684 -0.13745381 0.83842909
0.046341982 -0.13739176 0.83648109
0.042640299 -0.13473716 0.83660579
0.050406478 -0.13450792 0.83567309
0.047912285 -0.1346233 0.8346163
0.036342673 -0.14498493 0.85256785
0.034873351 -0.145172 0.85209209
0.037552472 -0.14497775 0.85107946
0.047187917 -0.14085671 0.84005409
0.046146028 -0.14114124 0.83953094
0.04879741 -0.14134188 0.83815491
0.046544623 -0.1411874 0.83683848
0.049409568 -0.14047745 0.83509898
0.048553348 -0.14050049 0.83476186
0.033844728 -0.14711423 0.85618323
0.032705851 -0.14720996 0.85569686
0.036483612 -0.14734891 0.85345536
0.033986706 -0.14671054 0.85260803
0.042179845 -0.14829621 0.84992039
0.038946219 -0.14722052 0.84938675
0.035760958 -0.14700355 0.84963584
0.044273477 -0.14928612 0.8471061
0.041200258 -0.14872451 0.84640503
0.047430567 -0.14784423 0.84155792
0.045767523 -0.14756829 0.84000325
0.049292523 -0.14670242 0.83802897
0.046854191 -0.14641562 0.8369441
0.042609714 -0.15132028 0.84922332
0.03993196 -0.15117578 0.84879535
0.045141906 -0.15217233 0.84632832
0.042094819 -0.15186921 0.84511346
0.047534041 -0.15234113 0.84194577
0.045139186 -0.15101351 0.84112036
0.048444942 -0.1508166 0.83865684
0.046838865 -0.15016292 0.83833557
