# .PCD v0.7 - Point Cloud Data file format
VERSION 0.7
FIELDS x y z
SIZE 4 4 4
TYPE F F F
COUNT 1 1 1
WIDTH 1091
HEIGHT 1
VIEWPOINT 0 0 0 1 0 0 0
POINTS 1091
DATA ascii
0.072063312 0.074962765 0.39899999
0.069831684 0.077194452 0.39900002
0.072359018 0.077485844 0.39858329
0.075410768 0.077938348 0.39899996
0.073179141 0.080170043 0.39899999
0.06817238 0.073302798 0.40317863
0.072401822 0.073265933 0.40265715
0.077318303 0.073483057 0.40299994
0.080398738 0.073926561 0.40350002
0.067563511 0.077179588 0.40197623
0.07090161 0.076940469 0.40000001
0.077256776 0.075815327 0.40172723
0.068772301 0.082321011 0.40276188
0.072282389 0.082612604 0.40086851
0.076414257 0.082866468 0.40144444
0.069702506 0.086572744 0.40400001
0.072665848 0.087236211 0.40344119
0.075307369 0.087263055 0.40328571
0.074096173 0.090589918 0.40400001
0.062559761 0.069574073 0.4086923
0.067782544 0.069097631 0.40755558
0.072369412 0.069151863 0.40806249
0.077812314 0.069358416 0.40843746
0.082504541 0.069102474 0.4083333
0.085307233 0.069216125 0.40900001
0.062604547 0.072485782 0.40685424
0.066874631 0.071394719 0.40550002
0.072473079 0.070927307 0.40625006
0.077515274 0.071136594 0.40631828
0.082578532 0.072025917 0.40638232
0.085098654 0.072089605 0.40799999
0.063299999 0.077225536 0.40725005
0.065649718 0.079049312 0.40533331
0.064028248 0.08237455 0.40807143
0.066370957 0.082635604 0.4062857
0.064719178 0.085229486 0.40900001
0.067720756 0.08693485 0.4069615
0.071346357 0.089602992 0.40549999
0.076545537 0.088441722 0.40566668
0.069504738 0.091487773 0.40799999
0.072130144 0.092715099 0.40694284
0.075377323 0.093412064 0.40714288
0.072761886 0.096319325 0.40893745
0.075210124 0.095670559 0.40799999
0.073614709 0.064659245 0.414
0.076757208 0.064438716 0.414
0.084420502 0.064659245 0.414
0.086736023 0.064659245 0.414
0.054704577 0.068518564 0.414
0.057605229 0.067527913 0.4126808
0.062370975 0.067336716 0.41205716
0.067475945 0.067160867 0.41257566
0.072589137 0.066799365 0.41225716
0.077498294 0.066963583 0.41207895
0.082586564 0.066695176 0.41215149
0.087692283 0.067258082 0.41192859
0.091366947 0.067317195 0.41322225
0.054704577 0.07044822 0.414
0.057720892 0.072313733 0.41187495
0.0602911 0.074353993 0.41
0.087963171 0.072399668 0.41129035
0.090568431 0.072784744 0.41299999
0.058573429 0.077107161 0.41261536
0.060985208 0.077820964 0.41100004
0.087563992 0.075581543 0.41183332
0.09059523 0.075465329 0.414
0.059335627 0.080096498 0.414
0.062117863 0.082571484 0.41217855
0.063626766 0.087297544 0.41276196
0.066571258 0.089271344 0.41300008
0.064481236 0.091031224 0.414
0.067404211 0.0925944 0.41231576
0.068279043 0.097189113 0.41239998
0.072111376 0.098308325 0.4106364
0.07743232 0.097535767 0.41190478
0.069477826 0.10081442 0.41350001
0.07255812 0.1025475 0.41291893
0.076304995 0.10272179 0.4131
0.074154995 0.10587672 0.41399997
0.075544313 0.10556798 0.414
0.04927022 0.064350337 0.417
0.052702736 0.06375543 0.41670373
0.057438083 0.063633509 0.4175806
0.062352888 0.063885517 0.41737041
0.067709349 0.063661903 0.41672415
0.072293326 0.063284405 0.41693547
0.077768266 0.063585542 0.41766673
0.08243452 0.063579172 0.41723332
0.087665491 0.063556492 0.41764283
0.092412777 0.063836187 0.41710714
0.096032053 0.063623182 0.4182727
0.048484061 0.067435682 0.41755554
0.052377731 0.06748832 0.41533339
0.059765592 0.065127797 0.417
0.06373433 0.065589152 0.41499999
0.066958107 0.065589152 0.41499999
0.093767665 0.06596224 0.41539997
0.096691497 0.066618226 0.4183636
0.049068309 0.070996992 0.41859999
0.052720618 0.072332688 0.41584212
0.055610415 0.073713288 0.41499999
0.053950351 0.076488957 0.41733333
0.05630444 0.078022867 0.41576466
0.057756286 0.082509719 0.4176389
0.060454201 0.083098479 0.41550002
0.058996379 0.086852387 0.41853338
0.061277822 0.088005558 0.41672736
0.062674977 0.092616647 0.4165
0.065668598 0.094990782 0.41499999
0.063135602 0.09727101 0.41777781
0.065889172 0.097870059 0.41582346
0.082315408 0.098406151 0.41899997
0.064467147 0.10105933 0.41850001
0.067505382 0.10251362 0.41708827
0.070310839 0.10427551 0.41499999
0.0686597 0.10689691 0.41819045
0.072031617 0.10771663 0.41615155
0.075979404 0.10748666 0.41544443
0.069426209 0.11074887 0.419
0.072911158 0.11208084 0.41832253
0.07614255 0.11254727 0.41813341
0.074503772 0.11543598 0.419
0.075675525 0.11543598 0.419
0.058235969 0.059202015 0.42155555
0.062358472 0.05924122 0.42323068
0.067487985 0.059897009 0.42399999
0.07291206 0.059532318 0.42374995
0.077467673 0.059447799 0.4233636
0.082622729 0.059662998 0.42314288
0.087291285 0.059163243 0.4234117
0.092475444 0.059409607 0.42309093
0.097321898 0.059119653 0.42268744
0.10208462 0.059514277 0.42377779
0.10503605 0.059897009 0.42399999
0.054714363 0.060898039 0.41999999
0.057540216 0.06108978 0.42047372
0.062667422 0.06139151 0.42082605
0.067041621 0.061361555 0.42108694
0.072517276 0.0610025 0.42133331
0.077676237 0.06139284 0.42103997
0.082403854 0.061030697 0.42065001
0.087535679 0.061119311 0.42076191
0.092677899 0.061313834 0.42090911
0.097909793 0.061969973 0.42077419
0.10219575 0.062566169 0.42258063
0.10537481 0.061703883 0.42399999
0.046003178 0.068826415 0.42000002
0.09875343 0.067463897 0.42025003
0.10142784 0.066476606 0.42138463
0.04759014 0.072018735 0.42052171
0.050603464 0.074209876 0.41999999
0.049269654 0.0775529 0.42255557
0.051819779 0.077813461 0.42103571
0.049702052 0.080845438 0.42399999
0.052837092 0.082370214 0.42251289
0.055706851 0.083529852 0.42039999
0.053787436 0.086079732 0.42350003
0.056651153 0.088026948 0.42175001
0.05818915 0.092185251 0.42227995
0.060472503 0.09285365 0.42011112
0.059272941 0.096991993 0.42300001
0.060929839 0.097817488 0.42121428
0.059714872 0.10047635 0.42399999
0.062606826 0.10282888 0.42261764
0.065467253 0.1045709 0.4203333
0.079466976 0.10268089 0.42027274
0.0817599 0.10249874 0.42040005
0.0635425 0.10719379 0.42300001
0.066364191 0.10796742 0.42113039
0.079078466 0.1083363 0.42176917
0.081801251 0.10778219 0.42161533
0.064406902 0.11066607 0.42366669
0.067886665 0.11253598 0.42250001
0.071365833 0.1139643 0.42057142
0.078698665 0.11214705 0.42199996
0.081040047 0.11206991 0.42290908
0.068973109 0.1167857 0.42363635
0.07214193 0.11757143 0.42178947
0.075774901 0.11773331 0.421
0.072952636 0.12188753 0.42351845
0.07605046 0.12249855 0.4237
0.098831631 0.054325234 0.42837498
0.10204706 0.054478936 0.42766666
0.064392753 0.057958916 0.42574999
0.067628786 0.057600312 0.42664719
0.07218501 0.057824437 0.4264783
0.077795736 0.057622742 0.42652181
0.082464606 0.057534747 0.42719457
0.087302327 0.057093438 0.42738456
0.092476711 0.05728047 0.42688245
0.09746848 0.056764144 0.42721879
0.10259695 0.057148486 0.42623538
0.10585848 0.058031268 0.42540002
0.10667039 0.06063256 0.42500001
0.048234578 0.079847559 0.42500001
0.048555948 0.082881883 0.42715001
0.050670236 0.084503233 0.42550004
0.048372053 0.086305603 0.42892301
0.052168898 0.087781653 0.42642862
0.053567864 0.092371464 0.42736
0.056157496 0.09316384 0.42550004
0.0546229 0.096083611 0.4285
0.056919944 0.097788416 0.42756671
0.058363732 0.10246561 0.42790481
0.060190555 0.10334534 0.42549998
0.059329379 0.10588602 0.42883334
0.06184908 0.10801768 0.42819998
0.063540757 0.11274348 0.4278889
0.065819852 0.11405519 0.42599997
0.081117108 0.1147119 0.42500001
0.064484738 0.1163914 0.42899999
0.066907674 0.11783033 0.42769229
0.078862637 0.11790219 0.4266364
0.081125863 0.11767861 0.42713338
0.068532541 0.12216794 0.42730772
0.071865827 0.12393313 0.42522222
0.078522451 0.12200747 0.42731249
0.08068084 0.1205905 0.42899999
0.069243103 0.12591627 0.42875001
0.072544038 0.12742867 0.42707899
0.076458193 0.12737826 0.42742857
0.072860509 0.13107716 0.42899996
0.0754821 0.13138819 0.42899999
0.069645509 0.054331068 0.43000001
0.072992817 0.053431749 0.43277273
0.077381536 0.053394601 0.43292311
0.082452498 0.053411096 0.43191996
0.087582551 0.053331569 0.43180001
0.092415385 0.052959278 0.43212906
0.097270645 0.053032115 0.430619
0.069244675 0.055132762 0.43000001
0.072705187 0.055874422 0.43031242
0.077240184 0.055963509 0.43099993
0.082472257 0.055132754 0.43000004
0.08808396 0.055333182 0.43000004
0.092493154 0.055132758 0.43000004
0.095299006 0.055132762 0.43000001
0.048701834 0.088904083 0.43000004
0.050405383 0.089204714 0.43000001
0.049045246 0.092484064 0.4312
0.051180702 0.092747971 0.43062496
0.049008351 0.096071519 0.43385714
0.052487396 0.097545326 0.43232146
0.054104153 0.10161867 0.43336365
0.056130029 0.10264236 0.430875
0.054919917 0.10500381 0.43399999
0.057388853 0.10769321 0.43170005
0.060346119 0.10900655 0.43000001
0.058277141 0.11219852 0.43261909
0.061246898 0.11283884 0.43090913
0.059301265 0.11538969 0.43349999
0.062596343 0.11786231 0.43210003
0.063866928 0.1221864 0.43259093
0.066255324 0.12290683 0.43019995
0.081735589 0.12297529 0.43175006
0.064359754 0.12604173 0.43399999
0.067412883 0.12758836 0.43128124
0.070447184 0.12969021 0.43000001
0.079214849 0.12795851 0.43166664
0.081517443 0.12722471 0.43279999
0.068324499 0.13225017 0.43274078
0.072314754 0.13318028 0.43066666
0.077611916 0.13191247 0.431375
0.080532752 0.13084787 0.4325
0.069484241 0.13615611 0.43399999
0.072634265 0.13740674 0.43279997
0.076239012 0.13767074 0.43309096
0.073620744 0.14079136 0.43385714
0.076048724 0.14096236 0.43360001
0.078159623 0.049339589 0.43857145
0.081909128 0.04940315 0.4384445
0.087629452 0.048760362 0.43861917
0.090484142 0.048666917 0.43674999
0.074147627 0.05053103 0.43524998
0.077615246 0.05095543 0.43582344
0.082415149 0.051102813 0.43594733
0.087450579 0.051146414 0.43631575
0.09073554 0.050415114 0.43599999
0.048869964 0.099036194 0.43571424
0.050585996 0.099163152 0.435
0.048922386 0.10185514 0.43679994
0.052068952 0.10278308 0.43619233
0.05280064 0.10725849 0.4379656
0.055423327 0.10831062 0.43614286
0.054265633 0.11191472 0.43888894
0.056115642 0.1131181 0.43662497
0.054734185 0.11562598 0.43900001
0.057820074 0.11744461 0.43739292
0.060498994 0.11939457 0.43533334
0.058875196 0.12221254 0.43892863
0.061370265 0.12284449 0.43614998
0.084171623 0.12318148 0.43533334
0.0862334 0.12236816 0.43657139
0.062675796 0.12756304 0.43753576
0.065664768 0.12931964 0.4355
0.083690621 0.12695321 0.43514282
0.063867286 0.1318424 0.43836367
0.065899745 0.13290864 0.43706658
0.078678131 0.13437212 0.43674999
0.081099093 0.13397412 0.43700001
0.068168506 0.13760166 0.43708697
0.070455343 0.13890289 0.435
0.078711562 0.13695617 0.43684611
0.080791876 0.13583735 0.43740001
0.068917453 0.14194272 0.43812501
0.072151028 0.14297098 0.4358148
0.076352693 0.14316252 0.43624997
0.072861403 0.14702143 0.43850005
0.076150328 0.14727359 0.4390001
0.014520791 0.033611562 0.44400001
0.016038377 0.032921731 0.44400001
0.079155631 0.047827795 0.44100004
0.082558259 0.047945462 0.44095001
0.085421674 0.046700556 0.44279999
0.049526814 0.10481481 0.44
0.049160652 0.10738597 0.44092861
0.05093215 0.10913604 0.44033337
0.049120739 0.11132362 0.44249997
0.052006811 0.11273904 0.4414286
0.0537594 0.11750806 0.44163156
0.056294419 0.1193758 0.44
0.053855147 0.1214063 0.44300002
0.056554865 0.12278266 0.44131815
0.058199286 0.12731898 0.44241378
0.060765136 0.12844053 0.44
0.059084255 0.13153896 0.44357142
0.061571695 0.13276298 0.44160867
0.083443709 0.13480496 0.44150001
0.063287556 0.13735031 0.44236672
0.06603004 0.13798809 0.44010004
0.083024763 0.13796178 0.44127995
0.086143702 0.13714567 0.44374999
0.063957006 0.14175116 0.44279996
0.066567108 0.14262602 0.4407143
0.079383232 0.14323866 0.44155553
0.081909098 0.14210238 0.44149998
0.068670273 0.1470428 0.4422105
0.071800627 0.14877567 0.44054547
0.078277752 0.14718193 0.44159994
0.081219681 0.14705272 0.44345456
0.069429718 0.1504686 0.44400001
0.072659999 0.15244018 0.44215155
0.076223478 0.15234219 0.44130769
0.073661201 0.15607949 0.44314286
0.075796574 0.15746646 0.44291672
0.01221117 0.034404602 0.44533333
0.0098085413 0.038146291 0.44842857
0.012798112 0.037690554 0.44652775
0.015936226 0.035761405 0.44500002
0.0095820231 0.042141996 0.44899994
0.012633836 0.042394273 0.44885185
0.015800441 0.041245081 0.449
0.0036625694 0.048360575 0.44899997
0.012680361 0.047219045 0.44900012
0.016637536 0.048208371 0.44899991
0.0044996641 0.0521276 0.449
0.0080805691 0.053057723 0.44899994
0.012760466 0.051136285 0.44899997
0.016707294 0.051081199 0.44899991
0.0087992856 0.05581852 0.44899991
0.010777873 0.055894624 0.449
0.049674798 0.11430248 0.44499999
0.048865676 0.11951551 0.449
0.051496919 0.11803348 0.44600004
0.049005192 0.12063166 0.449
0.052162394 0.12242327 0.44686961
0.053467065 0.1272849 0.44725001
0.055974156 0.12844816 0.44514281
0.053680457 0.13157348 0.44861534
0.056884371 0.13270476 0.4465
0.084243007 0.13393773 0.44500002
0.087016441 0.13363658 0.44564292
0.057911351 0.13707383 0.44756678
0.060771201 0.13784406 0.44499996
0.084104739 0.13504396 0.44499999
0.087724939 0.13623121 0.44526672
0.062063809 0.14246932 0.44660005
0.063591577 0.14714548 0.44828567
0.066396438 0.14849283 0.4469375
0.079720482 0.14948332 0.44600001
0.081976071 0.14951482 0.44559997
0.064351924 0.15090738 0.449
0.067380503 0.15237516 0.44724244
0.070692271 0.15412611 0.44500002
0.079498291 0.15186998 0.44742861
0.081441678 0.15246511 0.44693333
0.068747886 0.15623729 0.44819999
0.071984552 0.15803614 0.44603845
0.081512362 0.15551153 0.449
0.072640844 0.16142264 0.44640914
0.075643323 0.16147688 0.44525
0.0086238934 0.044125255 0.45019999
0.01499667 0.043434393 0.44999996
0.016691679 0.043477081 0.45044443
0.0049455957 0.047365773 0.45149997
0.007876792 0.047287844 0.45075002
0.01499667 0.045951337 0.44999996
0.01735799 0.046737988 0.45029998
0.022713406 0.049451761 0.45324999
0.025286971 0.049745549 0.454
0.004266155 0.052359976 0.45099998
0.0076349238 0.051330067 0.45016658
0.013024502 0.053361207 0.45005873
0.018051481 0.053014778 0.45061117
0.022151208 0.052486513 0.45294121
0.025286971 0.051015206 0.454
0.0038731997 0.057696313 0.45280957
0.0074628037 0.05799919 0.45104009
0.012690683 0.057527449 0.45085186
0.017154552 0.05748038 0.45158333
0.022030272 0.057808902 0.45334381
0.025286971 0.059902813 0.454
-0.011939174 0.064895578 0.45339999
-0.0093953572 0.06483832 0.45300001
0.0044463533 0.062629513 0.45346153
0.0076392521 0.062511355 0.45218751
0.012246594 0.062734567 0.45232347
0.017122196 0.062649056 0.4533236
0.021796383 0.061679523 0.45388237
0.02571018 0.060749255 0.454
-0.012406675 0.067552932 0.45315629
-0.0090935063 0.067801692 0.45375001
0.0046344129 0.06650503 0.454
0.007601324 0.067030713 0.45399997
0.012288436 0.067399837 0.45400015
0.015846172 0.067325436 0.454
0.037777454 0.068770662 0.45347619
0.041571926 0.06872455 0.45357147
-0.010920837 0.072223194 0.454
-0.009174264 0.072478473 0.454
0.034212813 0.072368555 0.454
0.037516732 0.072521627 0.45303035
0.042712789 0.072296314 0.4535456
0.045939527 0.073615119 0.454
0.03459755 0.075561926 0.454
0.037701074 0.076314315 0.454
0.042828225 0.076831602 0.45400015
0.046024166 0.076408364 0.454
0.032058299 0.08910495 0.454
0.049613513 0.1245276 0.45199999
0.050652426 0.12397659 0.45000002
0.049679372 0.12722625 0.4526
0.051055174 0.12800398 0.45100001
0.049833044 0.13100368 0.454
0.051901467 0.13244025 0.45140001
0.053835168 0.13691278 0.45208335
0.056123201 0.1388827 0.45014286
0.05479059 0.14000544 0.45300001
0.057787538 0.14260624 0.45207691
0.060647413 0.14329314 0.45050001
0.087988503 0.14310618 0.45162505
0.091416948 0.14132047 0.45370001
0.05882499 0.14732529 0.45372221
0.061575532 0.14781906 0.45150006
0.084578097 0.14815614 0.45100001
0.087531351 0.14735363 0.45233336
0.059566833 0.15047178 0.454
0.062895514 0.15235919 0.45195457
0.065334201 0.1541799 0.44999999
0.086004667 0.15163916 0.45337498
0.093423486 0.15329324 0.454
0.09653388 0.15189908 0.45305887
0.064547524 0.15610361 0.45233333
0.06676469 0.15799759 0.45141673
0.079323649 0.15740933 0.45083335
0.081966907 0.15779993 0.45150006
0.092808276 0.15644859 0.45333338
0.095539525 0.15597363 0.454
0.067817219 0.16242576 0.45259374
0.071026608 0.16382396 0.45114285
0.078995392 0.16272247 0.45342857
0.080697753 0.16212155 0.45383334
0.068916306 0.16630973 0.45333332
0.072772741 0.16748855 0.45209995
0.077002868 0.16742831 0.45225
0.073659115 0.17146979 0.45336363
0.076196909 0.17183065 0.4527334
-0.00010644758 0.054453317 0.458
0.0021043478 0.054408967 0.45619997
0.024494389 0.05452079 0.45500001
0.025894254 0.05386842 0.45614287
-0.0014395618 0.057449896 0.45704341
0.0013514919 0.057096872 0.45621422
0.024494389 0.057065699 0.45500001
0.026403822 0.05745266 0.45622218
-0.00053105527 0.060166702 0.456
0.0023452011 0.061289411 0.45522219
0.020252986 0.064276278 0.45500001
0.02703923 0.060034763 0.45500001
0.038379773 0.064130493 0.45781821
0.04258655 0.063358217 0.45840913
0.046976782 0.063693814 0.45875001
0.050381865 0.064841338 0.45899999
0.0083770566 0.06936609 0.45500001
0.010497758 0.06936609 0.45500001
0.018271346 0.067126758 0.45542851
0.020327171 0.066215165 0.45666668
0.033516135 0.067944899 0.45599994
0.037538797 0.066257522 0.45579997
0.043011103 0.066875629 0.45590904
0.047438256 0.067512222 0.45760608
0.051312346 0.067675106 0.45876479
-0.010567878 0.071911007 0.45500001
-0.0069603929 0.072541632 0.45526919
-0.0031581803 0.074016422 0.45708334
0.0088011967 0.070214398 0.45500001
0.012194318 0.070638545 0.45499995
0.016011581 0.070214398 0.45500001
0.029714113 0.072653107 0.45699999
0.031888448 0.072479248 0.45643988
0.047605995 0.07196264 0.45556515
0.050464947 0.071541853 0.45716667
-0.020621903 0.078874916 0.4585
-0.01833679 0.078988716 0.45833334
-0.014195364 0.079216316 0.458
-0.0067375065 0.077588722 0.45754549
-0.0023134719 0.077580445 0.45806894
0.001034304 0.079104014 0.45899999
0.032697376 0.077719733 0.45648384
0.037276499 0.078761384 0.45506245
0.041460004 0.079121582 0.45500001
0.047680732 0.075869761 0.45500001
-0.020940967 0.081094876 0.458
-0.017164856 0.08154764 0.45747998
-0.012520676 0.082249574 0.45791429
-0.0077766688 0.082055934 0.45889652
-0.0037435666 0.080458984 0.45899999
0.001176927 0.08024504 0.45899999
0.032681044 0.082528286 0.45831239
0.037645828 0.082342856 0.45689279
0.041654594 0.081210911 0.45599997
-0.015476174 0.085193589 0.458
-0.012509561 0.085348599 0.45883334
-0.0090919295 0.085379601 0.45899999
0.029416282 0.087946869 0.45900005
0.032561086 0.086940125 0.45820695
0.03688914 0.08563979 0.45842859
-0.022908101 0.092719495 0.45840001
0.019147426 0.096932366 0.45899999
0.048980277 0.13262038 0.45591664
0.050818529 0.13454738 0.45525002
0.049039576 0.13754225 0.4580909
0.051644552 0.13807434 0.45677271
0.093118146 0.13938841 0.45539999
0.048541907 0.1427886 0.45886675
0.052336156 0.14256251 0.45684847
0.055274863 0.14353204 0.45499998
0.093430504 0.1432671 0.45693329
0.096294053 0.14184923 0.45758334
0.053384658 0.1467175 0.45724997
0.056244358 0.14778347 0.45527777
0.089812003 0.14953074 0.45500001
0.092337966 0.1476313 0.4569999
0.054660555 0.15041742 0.45899999
0.05750706 0.1524123 0.45739123
0.060718652 0.15341128 0.45550001
0.088592 0.15277657 0.45515785
0.092581727 0.1521479 0.45513335
0.095749967 0.15419643 0.45500001
0.059385702 0.15699783 0.45877779
0.06228935 0.15770586 0.45639998
0.084834032 0.15779856 0.45560002
0.087338835 0.15690669 0.45716
0.091932707 0.1553275 0.45500001
0.097870678 0.15610513 0.45499995
0.059794981 0.16068655 0.45899999
0.062710151 0.16230154 0.45656663
0.065381519 0.16335809 0.45500001
0.082974166 0.16288683 0.45587501
0.086530484 0.16236512 0.45783341
0.064361021 0.16631468 0.458
0.06714654 0.16774622 0.45629409
0.070301548 0.16946588 0.45500001
0.079208501 0.16700581 0.45499998
0.082528576 0.16730963 0.45712498
0.068466693 0.17235796 0.45778263
0.071836695 0.17300184 0.45559996
0.075391226 0.17455569 0.45500001
0.08329381 0.17069465 0.45855558
0.085565545 0.17086786 0.45800003
0.069288038 0.17620201 0.45840001
0.072609901 0.17765234 0.45703122
0.076340422 0.17733502 0.45559996
0.073836692 0.18137513 0.45814282
0.076017305 0.18138067 0.45750001
0.028517112 0.053344749 0.46087497
0.031027365 0.053016506 0.46260005
0.029035825 0.057230383 0.46071431
0.032601789 0.057060253 0.46363991
0.037534669 0.057536721 0.46349993
0.042492218 0.058156308 0.46270585
0.046748448 0.059305649 0.46255556
0.029272612 0.060724676 0.46349999
0.030169252 0.060357176 0.46399999
0.037859771 0.061609518 0.46190909
0.042009387 0.06122775 0.46025002
0.048018984 0.061350144 0.46052632
0.051364001 0.063081697 0.46062499
0.052635636 0.066912264 0.46000001
-0.02181085 0.077715039 0.46000001
-0.018069312 0.078399964 0.46147057
-0.01234137 0.078062609 0.46274999
-0.0091612581 0.077836357 0.46250001
0.028443558 0.079063646 0.46027276
-0.021546973 0.080419861 0.46000001
-0.016543979 0.080254078 0.46399999
-0.011255745 0.080419861 0.46000001
-0.0057442165 0.083876669 0.46014288
-0.002065233 0.082890697 0.46046877
0.0011331677 0.082903214 0.46055555
0.023784354 0.083396256 0.46121427
0.027792348 0.082648359 0.46047238
0.042114161 0.083280593 0.461
-0.026393417 0.089000285 0.46224999
-0.023302633 0.089321673 0.46080002
-0.01743101 0.087951794 0.46156526
-0.012550294 0.087766021 0.46029171
-0.007287418 0.087581038 0.46092865
-0.0023371112 0.08773341 0.46268967
0.0010426962 0.086124897 0.46299997
0.0088554807 0.088179536 0.46390906
0.012274178 0.08751639 0.4620938
0.017467465 0.087529853 0.46100017
0.022731949 0.087344378 0.46118766
0.027180586 0.087505311 0.46028006
0.037512857 0.086914681 0.46033335
0.040200401 0.085565619 0.46000001
-0.026598811 0.091604091 0.4613333
-0.022327995 0.091265008 0.46020001
-0.017665232 0.091652624 0.46103588
-0.01266926 0.091909945 0.46200001
-0.0073406585 0.092406414 0.46324998
-0.0030865311 0.092042938 0.46324992
0.0087731518 0.091918238 0.46372727
0.012399876 0.092548646 0.46275002
0.017588975 0.092452459 0.4607752
0.022613816 0.092289947 0.46105427
0.027005352 0.092369393 0.46133333
0.01448806 0.095531568 0.4605
0.017485358 0.095640086 0.46033335
0.022525581 0.096012421 0.46138459
0.026478808 0.095964342 0.463
0.047593258 0.13474254 0.461
0.047151271 0.13774043 0.46088234
0.047358457 0.14191693 0.46011114
0.096802168 0.14474176 0.46000001
0.048976865 0.14778461 0.4625833
0.051812053 0.14814205 0.46085715
0.049173594 0.15046106 0.46375
0.052744579 0.15223059 0.46263999
0.055716638 0.15439908 0.46066669
0.054116052 0.15599704 0.46350002
0.056914344 0.15757012 0.46120006
0.089277394 0.15966773 0.461
0.091193728 0.15915273 0.46200001
0.058093756 0.16160433 0.46249995
0.060649 0.16383329 0.46160001
0.089119397 0.16133361 0.46166667
0.090828545 0.16099213 0.46233335
0.059581283 0.16503219 0.46399999
0.062390611 0.1678832 0.46257892
0.065356739 0.16932702 0.46000001
0.086510926 0.16752243 0.46000001
0.063828692 0.17234361 0.46291661
0.066081777 0.17268029 0.46061537
0.079996414 0.17465711 0.46200001
0.082131304 0.17357293 0.46312499
0.086082131 0.17047052 0.46000001
0.064771637 0.17541319 0.46399999
0.067235015 0.17744771 0.46156523
0.070216484 0.17947558 0.46000001
0.079379782 0.1777001 0.4613333
0.082312033 0.17776984 0.4632
0.085729264 0.1788234 0.46349999
0.069002397 0.18237661 0.46292302
0.071938694 0.18302812 0.46066666
0.077488631 0.18337196 0.46139997
0.082216419 0.1823086 0.4630715
0.085164405 0.18068658 0.46200001
0.069962002 0.18579419 0.46399999
0.072919004 0.1869633 0.46231815
0.076079473 0.18704754 0.46175
0.075584888 0.19011959 0.46399999
0.032680303 0.049640317 0.46900001
0.033462234 0.052574053 0.46705559
0.037710354 0.053385355 0.46631825
0.042413678 0.053112548 0.46713042
0.046697099 0.053814728 0.46779999
0.050605129 0.054886747 0.46900001
0.033355199 0.059446923 0.465
0.037169665 0.055285573 0.465
0.043238133 0.05550231 0.46499997
0.04778095 0.05697903 0.46591306
0.051695962 0.058313917 0.46739998
0.028745588 0.06363079 0.46900001
0.032585047 0.062496666 0.46658617
0.035738476 0.062690675 0.46571428
0.053644776 0.062154006 0.46621051
0.057100289 0.063201435 0.46752629
0.029619971 0.065379605 0.46900001
0.0325936 0.066457108 0.46866661
0.036062125 0.065606765 0.4675
0.05462537 0.065830201 0.46599999
0.057430845 0.065358199 0.46760002
-0.01571271 0.077826202 0.465
-0.014845786 0.077826202 0.465
0.0033596223 0.084761776 0.465
0.0067100311 0.084592208 0.46542856
-0.00010807451 0.089963466 0.465
0.0026939849 0.087798208 0.46563634
0.0066431533 0.087390125 0.46534786
-0.010511165 0.094298199 0.465
-0.0096442401 0.094298199 0.465
-0.00047994617 0.092374012 0.46528569
0.0024664598 0.092286006 0.46618506
0.0061439094 0.092028879 0.46580008
-0.020047331 0.096465565 0.465
-0.017351078 0.096566059 0.46658826
-0.013084454 0.096124388 0.46600002
-0.0093621789 0.09552297 0.46533334
0.04914289 0.15341634 0.46550003
0.051076729 0.15408355 0.46533331
0.049730748 0.15762931 0.46900001
0.052203018 0.15783761 0.46670833
0.053608395 0.16221923 0.46766663
0.05649744 0.16308257 0.46546155
0.054685574 0.16622762 0.46900001
0.057875223 0.16746095 0.46646431
0.061010078 0.16928914 0.465
0.058703359 0.17194794 0.4681538
0.061553046 0.17291039 0.46584216
0.084272541 0.17463531 0.465
0.086150885 0.17492428 0.465
0.059348945 0.17555462 0.46900001
0.062436096 0.17735887 0.46746156
0.065414503 0.17901784 0.4655
0.084308662 0.17720005 0.46499997
0.086150885 0.17665817 0.465
0.06421569 0.18207668 0.46862504
0.066496961 0.18291263 0.46599996
0.079215482 0.18446071 0.465
0.067910373 0.18713298 0.46670592
0.070753559 0.18860576 0.46514282
0.078900434 0.18691024 0.4657
0.080787338 0.18716025 0.46585712
0.069577299 0.19192247 0.4684
0.072467633 0.19243936 0.46593103
0.076781683 0.19273031 0.46600002
0.08059907 0.19001348 0.46799999
0.072804131 0.19676991 0.46837497
0.076174349 0.19683805 0.46762499
0.034064356 0.048869886 0.47
0.037443087 0.048495136 0.47140905
0.041723587 0.048517864 0.47300002
0.034648519 0.050914515 0.47
0.03741746 0.05118984 0.47009087
0.042388689 0.050972931 0.46999997
0.047871754 0.052014396 0.4709411
0.051123019 0.052857738 0.47192308
0.053268548 0.056852981 0.47145459
0.055367772 0.057918075 0.47233334
0.034064356 0.068147816 0.47
0.047646169 0.15446034 0.47
0.048402928 0.15744759 0.46999997
0.048991997 0.16206081 0.47161537
0.051379383 0.16303918 0.47027272
0.049377222 0.16593775 0.47400001
0.052293696 0.16736998 0.47195998
0.055444755 0.16909403 0.46999997
0.053903632 0.17208362 0.47339997
0.056486778 0.17311122 0.47112501
0.054679442 0.17565875 0.47400001
0.05771381 0.17727941 0.47175002
0.060351733 0.179434 0.47
0.059029438 0.18203746 0.47345451
0.062082268 0.18241426 0.47047621
0.063494027 0.18659167 0.47166666
0.066294394 0.18861866 0.47042853
0.083593883 0.18953986 0.4716
0.085518755 0.18915629 0.47350001
0.064400181 0.19112396 0.47400001
0.06710922 0.19260964 0.47199994
0.079275504 0.19278337 0.47049999
0.082619078 0.19281678 0.47136363
0.085338145 0.19139913 0.4725
0.068818845 0.19597159 0.47100002
0.070866682 0.19783567 0.47
0.078820676 0.19695029 0.47040001
0.080847964 0.19603752 0.472
0.05422134 0.053683251 0.47775
0.05676166 0.053998817 0.47752947
0.05457589 0.055962134 0.47566667
0.056994889 0.056408986 0.47611108
0.048273794 0.16792053 0.47653851
0.050862763 0.16956523 0.47549999
0.04869274 0.17206229 0.47812507
0.05185245 0.17310555 0.47670588
0.04939948 0.17643428 0.47850001
0.052767072 0.17710644 0.47670832
0.056181762 0.179317 0.47549999
0.053915571 0.18149477 0.47819996
0.056638077 0.18284385 0.47704768
0.089486219 0.18410599 0.477
0.090787299 0.18382499 0.47799999
0.057902344 0.18721148 0.47800002
0.061563909 0.18815203 0.47556245
0.088419594 0.1879364 0.47652936
0.091148287 0.18707386 0.47833332
0.059596673 0.19050886 0.47799999
0.062625438 0.19229575 0.47640908
0.088202767 0.19145916 0.47661537
0.090787299 0.19050886 0.47799999
0.048485339 0.087580606 0.484
0.048433769 0.094361283 0.48400003
0.051095694 0.09431617 0.484
0.044102509 0.098151244 0.48400003
0.04731359 0.097741678 0.48388579
0.05137141 0.097900592 0.48400009
0.047989544 0.1016219 0.48400006
0.051120758 0.10186099 0.484
0.051140808 0.10663353 0.48400003
0.048273064 0.17769518 0.4824
0.052686919 0.17967209 0.47999999
0.093672857 0.17931414 0.47999996
0.044632912 0.18280429 0.47999999
0.047215465 0.18202814 0.48130426
0.052190457 0.18244129 0.4823333
0.092534184 0.18228959 0.48070833
0.096605495 0.18275586 0.48235002
0.047017537 0.18606913 0.48149997
0.053950898 0.18743327 0.48207685
0.056043752 0.18847755 0.4802857
0.09322691 0.18754977 0.48046666
0.095789127 0.18709983 0.48299995
0.054703683 0.1903058 0.48199999
0.057565462 0.19074798 0.4804
0.092606336 0.19060941 0.48049998
0.043921903 0.089679979 0.48699999
0.046926066 0.088740587 0.48600003
0.05052311 0.088859573 0.48500001
0.038962722 0.093901835 0.48744446
0.042690057 0.093046978 0.48599997
0.04723135 0.092262581 0.48564517
0.051198095 0.092099167 0.48540005
0.038242724 0.097467482 0.48707998
0.042081036 0.097459383 0.48547617
0.045097843 0.09564133 0.48500001
0.038429365 0.10251942 0.48780945
0.042508289 0.10255913 0.48603708
0.046827454 0.1037361 0.48529416
0.051608164 0.10432199 0.48500004
0.038629156 0.10755461 0.48821735
0.04239678 0.10748146 0.48629633
0.047432456 0.10756667 0.48576662
0.052046597 0.1077996 0.48535722
0.030819926 0.1144295 0.48800001
0.038412001 0.11264182 0.48831815
0.042520642 0.11227806 0.48655999
0.047445819 0.11224664 0.48668963
0.051781401 0.11257332 0.48738888
0.032852616 0.11685769 0.48844996
0.037785549 0.11764196 0.48811761
0.042618182 0.11753421 0.48766664
0.047206566 0.11763813 0.48809993
0.050939787 0.11557568 0.48899999
0.037816972 0.12235557 0.48829633
0.042564508 0.12252151 0.48791662
0.046718497 0.12194472 0.48842853
0.039999764 0.1256043 0.48899999
0.042213395 0.12541166 0.48824999
0.10362301 0.17845902 0.48862493
0.10592466 0.17716771 0.48844445
0.049076371 0.183533 0.48500004
0.050824512 0.18395497 0.48500001
0.099418797 0.18257393 0.48533335
0.10222123 0.18200825 0.48728567
0.10638361 0.18101071 0.48875001
0.049469572 0.18612655 0.48575002
0.051548988 0.18636079 0.48530006
0.09913139 0.18624568 0.48725
0.10132977 0.18585102 0.48800001
0.034847513 0.10421766 0.49349999
0.036116555 0.10390136 0.49199998
0.034660466 0.10792284 0.49271432
0.036037263 0.10733202 0.49091664
0.033491548 0.11323795 0.49200001
0.035975438 0.11255194 0.49063638
0.032042477 0.11928354 0.49000001
0.0355139 0.11581203 0.49000001
0.05175449 0.1176899 0.48999989
0.032729082 0.12268925 0.49079302
0.036199052 0.1247192 0.49000001
0.0505872 0.12037981 0.49000001
0.027819596 0.12768833 0.49319053
0.032399599 0.12757143 0.4913125
0.037340969 0.12768826 0.48999986
0.040912047 0.12802048 0.48999995
0.024567727 0.1331515 0.49400002
0.027584525 0.13257596 0.49350005
0.032329012 0.13261579 0.49196872
0.03722126 0.13229935 0.49128568
0.040163364 0.13115284 0.491
0.024444928 0.13625224 0.49399999
0.02745055 0.13751759 0.49350005
0.032300346 0.13752331 0.49311119
0.036086649 0.13631392 0.49366665
0.028866671 0.1405614 0.49349999
0.031188643 0.14111686 0.4938333
0.10797665 0.17475392 0.49133334
0.0945554 0.17810416 0.493
0.097667292 0.17808627 0.49317393
0.10153479 0.17771728 0.49223077
0.10789347 0.17746878 0.49039993
0.094312958 0.18251644 0.49333334
0.097657256 0.1819378 0.49263632
0.10203911 0.18249069 0.49092308
0.10859655 0.1806746 0.49000001
0.10357212 0.18524238 0.49000001
0.033353154 0.10416862 0.49671426
0.035486408 0.10335898 0.49599999
0.03338369 0.10739163 0.49683332
0.029654015 0.11421784 0.49900001
0.031923663 0.11229826 0.49814287
0.039647643 0.13480026 0.49599999
0.041119318 0.13414544 0.49700001
0.034953434 0.13914289 0.495
0.038149878 0.13778293 0.49575001
0.041868266 0.1378929 0.49765
0.033953678 0.14168079 0.49499992
0.037796162 0.14172132 0.49594998
0.042430378 0.14196593 0.49788892
0.096784703 0.17421231 0.495
0.097246125 0.1765195 0.495
0.094938993 0.1811339 0.495
0.029891722 0.10481767 0.50300002
0.032273546 0.1038126 0.50116664
0.029500522 0.10751735 0.50344443
0.031432219 0.10787754 0.50066662
0.029499272 0.11155152 0.50166667
0.030645616 0.11165013 0.5
0.043341007 0.13390531 0.50188881
0.046187852 0.13402407 0.50174999
0.04405779 0.13682197 0.50058329
0.04696532 0.13764389 0.50171429
0.04431754 0.14396644 0.5
0.047551725 0.14233869 0.50173914
0.050710209 0.1430797 0.50300002
0.039501294 0.14520937 0.5
0.042505041 0.1473299 0.50245458
0.047655687 0.14607523 0.50325006
0.024554545 0.10891492 0.509
0.026903249 0.10792755 0.50594115
0.026948335 0.11123729 0.50700003
0.047673319 0.14881553 0.50560004
0.05107085 0.14691612 0.50533336
0.043177549 0.1518302 0.50575
0.047256242 0.1521326 0.50769991
0.050077777 0.1513212 0.50800002
0.019887608 0.10886652 0.51099998
0.022992153 0.10854036 0.51042855
0.019339567 0.1123964 0.51333332
0.022278244 0.11240037 0.51128572
0.026939601 0.11414405 0.5102222
0.030367134 0.11410642 0.51099998
0.022332171 0.11730883 0.51250005
0.027661862 0.11731973 0.5114091
0.030903839 0.11814804 0.51200002
0.022392018 0.12048707 0.51383334
0.027138546 0.12029167 0.51300001
0.04971097 0.15694165 0.514
0.051148385 0.15742081 0.514
0.017899161 0.11391015 0.51549995
0.013989496 0.11778834 0.51599997
0.017351966 0.11762044 0.51569563
0.014310163 0.12099513 0.51599997
0.0172644 0.12232365 0.51575989
0.022354595 0.12318237 0.51534772
0.027860565 0.12307604 0.51746672
0.03084255 0.12218239 0.51899999
0.018175784 0.12624848 0.5165
0.022613872 0.12722228 0.5172857
0.026543023 0.12729685 0.51871431
0.023101756 0.13040721 0.51899999
0.047626283 0.15798172 0.51543742
0.05076782 0.15532665 0.51499999
0.043455791 0.16302578 0.51868755
0.0475551 0.16262721 0.51712114
0.050792467 0.16212603 0.51524997
0.042854812 0.16637197 0.51800007
0.047845501 0.16651203 0.51641172
0.05076782 0.16684866 0.51499999
0.029932512 0.12484154 0.51999998
0.031417359 0.12399069 0.5205
0.029063761 0.12823714 0.5204615
0.031496797 0.12775278 0.52109087
0.027718907 0.13120623 0.52088892
0.030676626 0.13172607 0.52166671
0.022661259 0.14966729 0.54324996
0.025182389 0.14959842 0.54299998
0.014072478 0.15088816 0.54400003
0.01587512 0.15107122 0.54319996
0.022374649 0.15120403 0.54311109
0.025688563 0.15111697 0.54299998
0.12915689 0.1383976 0.55699998
0.12938879 0.14124693 0.55800003
-0.0070893094 0.072525658 0.57399994
-0.016786791 0.078744128 0.57364279
-0.012416722 0.077725396 0.5729
-0.0086741978 0.077693231 0.5726667
-0.021814732 0.083271548 0.57363629
-0.018180441 0.081557147 0.57280004
-0.011697359 0.081616051 0.57128572
-0.0092878025 0.08151485 0.57099998
-0.022183755 0.086308889 0.57369226
-0.017999768 0.087887742 0.57212502
-0.0090196934 0.087558568 0.57200003
-0.015418153 0.090757884 0.57200003
-0.013996273 0.090935633 0.57200003
-0.020644318 0.069918945 0.579
-0.017201642 0.069199063 0.5787273
-0.012523546 0.068699665 0.57783335
-0.0092671057 0.068521775 0.57633334
-0.026041621 0.073697157 0.579
-0.022654235 0.072974518 0.57862508
-0.017328296 0.072826363 0.57640004
-0.012471845 0.072707646 0.57544994
-0.0087934341 0.072826371 0.57507682
-0.027031124 0.077786498 0.57884616
-0.022724908 0.077201054 0.57695997
-0.017714489 0.076511309 0.57499993
-0.026985718 0.082374223 0.57784617
-0.023276219 0.081441417 0.57542855
-0.025861712 0.085516386 0.57499999
-0.021385744 0.064044654 0.58449996
-0.017630963 0.063560538 0.58406669
-0.012429876 0.063554272 0.58428574
-0.0099347718 0.063445464 0.58399999
-0.025220836 0.068462141 0.58499998
-0.022248348 0.067352004 0.58327776
-0.017633867 0.066691987 0.58206248
-0.012624529 0.065995671 0.58249998
-0.0094478047 0.066019706 0.58079994
-0.026625058 0.07244353 0.58388889
-0.022876376 0.070681311 0.58083332
-0.031307116 0.078279816 0.58322221
-0.028921992 0.076593488 0.58144444
-0.031459853 0.082853138 0.583
-0.02934321 0.082511514 0.58024997
-0.017400062 0.058818866 0.58872724
-0.011980686 0.057926249 0.58878946
-0.0089125391 0.058360409 0.58842856
-0.025350172 0.064428158 0.588
-0.022557285 0.063183554 0.58662498
-0.017664189 0.06109073 0.58754545
-0.013064977 0.061403789 0.58672726
-0.0090650106 0.061528724 0.58649999
-0.03170234 0.068172306 0.58936363
-0.027808661 0.067482196 0.5872727
-0.024171438 0.065847829 0.58600003
-0.035886094 0.07344728 0.58999997
-0.032598987 0.072343893 0.58800006
-0.02880653 0.072032481 0.58644444
-0.036327034 0.077937767 0.58950001
-0.032973457 0.076733135 0.58708328
-0.035940707 0.082318604 0.58788884
-0.033593841 0.082142539 0.58699995
-0.035336111 0.085547246 0.58999997
-0.033466011 0.086732678 0.58933336
-0.011766026 0.049581211 0.59399998
-0.01223549 0.052557718 0.59247625
-0.0089671677 0.053093363 0.59200001
-0.025522623 0.059347808 0.59200001
-0.022055741 0.058333322 0.59150004
-0.018136885 0.0568095 0.59111118
-0.013160844 0.05559402 0.59200001
-0.0074166791 0.057763614 0.59160006
-0.027052682 0.063064322 0.59166664
-0.022976989 0.061313909 0.59180003
-0.01455906 0.055211283 0.59500003
0.20589018 -0.09739136 0.92900002
0.48816657 -0.10776386 0.94400007
0.48706958 -0.10898912 0.94700003
0.44901863 -0.13804223 0.99299997
0.46444616 -0.13742511 0.99299997
0.46722311 -0.13742511 0.99299997
0.45377949 -0.13969724 0.99599999
0.40218842 -0.1568352 1.023
0.4295336 -0.15447357 1.02
0.43238604 -0.15447357 1.02
0.40719354 -0.159208 1.026
0.44098398 -0.16494058 1.038
