# .PCD v0.7 - Point Cloud Data file format
VERSION 0.7
FIELDS x y z
SIZE 4 4 4
TYPE F F F
COUNT 1 1 1
WIDTH 347
HEIGHT 1
VIEWPOINT 0 0 0 1 0 0 0
POINTS 347
DATA ascii
0.03143682 0.019498933 0.52899998
0.028525824 0.022773596 0.5268333
0.032425735 0.02245966 0.52903998
0.035748787 0.022442624 0.52860004
0.028632645 0.025773365 0.52819997
0.030818321 0.025777956 0.52966666
0.027798884 0.048407312 0.52899992
0.032321278 0.048440948 0.52735001
0.035248023 0.048410151 0.52700001
0.027916742 0.050937492 0.52774996
0.032262586 0.051790014 0.52639997
0.035181142 0.052240998 0.52600002
0.032668225 -0.025071327 0.53299999
0.029631428 -0.020064976 0.53200001
0.032584202 -0.022035496 0.53163999
0.029231643 -0.016701845 0.53150004
0.032555971 -0.017062105 0.53116006
0.028728869 -0.011995062 0.53235716
0.032630041 -0.01213657 0.53236002
0.03571621 -0.010184497 0.53399998
0.029203732 -0.008678671 0.53324997
0.032636963 -0.008439499 0.53383332
0.029742824 -0.00022858669 0.53399998
0.030738389 -0.00022858669 0.53399998
0.029742824 0.00076700427 0.53399998
0.030738389 0.00076700427 0.53399998
0.028170818 0.028247384 0.53336358
0.03274196 0.02762796 0.53260005
0.035947118 0.027406855 0.53250003
0.024292754 0.033274624 0.53299999
0.027372906 0.032936689 0.5334
0.032231733 0.0346171 0.53399998
0.023292426 0.036884706 0.53285712
0.027628787 0.037265882 0.53165215
0.031807713 0.036364198 0.53190005
0.028288037 0.043519378 0.53218186
0.03251354 0.043548636 0.53278571
0.028109798 0.045839828 0.53137505
0.032595798 0.045876235 0.53180009
0.035649326 0.045980126 0.53299999
0.024358109 -0.010222641 0.53600001
0.026356697 -0.010222641 0.53600001
0.024122501 -0.0069784126 0.53633338
0.02754705 -0.0069336514 0.53557152
0.032877538 -0.0060619363 0.53515381
0.036835343 -0.0068635619 0.53578573
0.023869958 -0.0022298126 0.53626674
0.027756346 -0.0023102246 0.53570843
0.032887008 -0.0023086122 0.53520828
0.037448511 -0.0021798406 0.53571439
0.02392984 0.0028398966 0.53600013
0.027751865 0.0028497011 0.53562504
0.032873932 0.0028464736 0.53499991
0.037844863 0.0027681782 0.53591996
0.040922653 0.0047760503 0.537
0.02413054 0.0075237728 0.53650004
0.027846871 0.0077632451 0.53584009
0.032837536 0.0077624605 0.5357601
0.037683122 0.0075516952 0.53686368
0.041044585 0.0074023083 0.53860003
0.024471253 0.010813275 0.53849995
0.028186137 0.012497935 0.53685719
0.032626662 0.01232354 0.53747374
0.036028337 0.011486564 0.53866667
0.030523758 0.015847882 0.53899997
0.028327433 0.0297224 0.53550005
0.034286954 0.029694648 0.53500003
0.036281817 0.029694648 0.53500003
0.029200066 0.03129058 0.53500003
0.032918792 0.032338411 0.53552383
0.03609981 0.031498961 0.53600001
0.039137769 0.0098366197 0.54000002
0.041383475 0.0094411951 0.54040003
0.023221405 0.013556785 0.54236364
0.025869753 0.013902472 0.54150003
0.033097267 0.014870507 0.54000002
0.03753981 0.013232803 0.54089999
0.04141536 0.012838697 0.54181248
0.023288539 0.016679944 0.54271424
0.025995513 0.016653677 0.54185718
0.032861892 0.016478853 0.54085714
0.037291132 0.016453663 0.54239994
0.041146565 0.016358677 0.54260004
0.021210853 0.013992098 0.54500002
0.021210855 0.016024295 0.54500002
0.034164689 0.018440614 0.54633331
0.037501458 0.018581856 0.54550004
0.0408797 0.018406861 0.54533333
0.034546103 0.020162413 0.54699999
0.037605509 0.020162413 0.54699999
0.040664911 0.020162413 0.54699999
0.023088612 0.028657578 0.5535
0.026201228 0.028503312 0.55383331
0.01949542 0.033847865 0.55400002
0.022414353 0.032680254 0.55399996
0.026036814 0.031093523 0.55400002
0.038650714 0.034004811 0.55319995
0.041763175 0.033999179 0.55366665
0.01949542 0.036430061 0.55400002
0.021856224 0.036356281 0.55399996
0.039084293 0.036397647 0.5535
0.042147279 0.036884125 0.55306661
0.045554474 0.036929362 0.55375004
0.018617472 0.024758765 0.55866671
0.020676492 0.024729222 0.55800003
0.013621593 0.029556936 0.55880004
0.017818583 0.028096048 0.55699998
0.021092182 0.027194673 0.55524999
0.039190214 0.029252615 0.55500001
0.04262859 0.027932931 0.55699986
0.047672525 0.02854573 0.55805558
0.051089965 0.028702091 0.55840003
0.013621803 0.032119967 0.55788887
0.01733353 0.032567021 0.55594999
0.039190214 0.031322099 0.55500001
0.042704485 0.031768411 0.55515379
0.047337309 0.032605972 0.55633336
0.051538993 0.03183819 0.55800003
0.017177699 0.036005434 0.55542862
0.047779012 0.035641223 0.55619997
0.0093323728 -0.0028702365 0.56400001
0.010383868 -0.0028702365 0.56400001
0.048763439 -0.00024142864 0.56400001
0.052500103 -0.0012158168 0.56300008
0.055400997 -0.00024057252 0.56199998
0.0093323728 0.0023873791 0.56400001
0.012605711 0.0027252517 0.56321734
0.017740175 0.002386604 0.5638501
0.021424565 0.0023873791 0.56400001
0.047832068 0.0027830014 0.56288236
0.052197974 0.0028167672 0.56229168
0.056850169 0.0023839453 0.56300002
0.0089281863 0.0075042676 0.563375
0.012314447 0.0073892684 0.56272721
0.017209135 0.0066481996 0.5636667
0.044031713 0.0065934714 0.56400001
0.04697128 0.0072903382 0.56308693
0.052371308 0.0074948617 0.56214285
0.056010723 0.0068785492 0.5634445
0.0087737413 0.012329273 0.56190002
0.012474709 0.012077865 0.56340909
0.017259028 0.013023939 0.56400007
0.047203403 0.012358251 0.56316668
0.052200817 0.012226274 0.56334788
0.055598158 0.011325326 0.56400001
0.014195537 0.018028785 0.56400007
0.017719977 0.017609434 0.56323999
0.0214785 0.018666789 0.56342858
0.044358388 0.018161817 0.56222224
0.047542751 0.017571928 0.56199998
0.051581398 0.017799467 0.563353
0.0093323728 0.024469364 0.56400001
0.012898776 0.023192402 0.56365007
0.017526912 0.022510951 0.56168181
0.021837266 0.02244946 0.56107688
0.043155465 0.023210667 0.56254548
0.047122683 0.022731034 0.56220835
0.051590499 0.022648245 0.56233323
0.055400997 0.023858694 0.56199998
0.0093323728 0.026572412 0.56400001
0.012381248 0.027252628 0.56211764
0.016059363 0.0263955 0.56024998
0.047750399 0.026225336 0.56033331
0.051118817 0.025908103 0.56099999
0.011374536 0.03009182 0.56099999
0.019988086 -0.010832949 0.56800002
0.021047039 -0.010832949 0.56800002
0.044343993 -0.010832949 0.56800002
0.046634935 -0.011505513 0.56849998
0.014003667 -0.0062517747 0.5686667
0.018072799 -0.0071766549 0.56774998
0.0224149 -0.0078187697 0.56688887
0.04323804 -0.0073363874 0.56846154
0.047554754 -0.0076620709 0.56840003
0.051752482 -0.0075916206 0.56878573
0.0080322195 -0.00090022385 0.565
0.012700538 -0.0023054939 0.56534767
0.017794596 -0.0023528414 0.56560004
0.021997014 -0.0023502088 0.56520003
0.043417636 -0.0026061784 0.56761545
0.047230352 -0.0025393844 0.56617391
0.051462729 -0.0037139859 0.5664286
0.006948398 0.0025465842 0.5657143
0.022457393 0.0023330906 0.565
0.043583106 0.0023916122 0.565
0.045373812 0.0020755958 0.565
0.059383493 0.0039716931 0.565
0.006992552 0.00569573 0.56624997
0.019130114 0.0083357273 0.565
0.022237079 0.0073177479 0.565
0.044109784 0.0050250809 0.565
0.058622736 0.0061955112 0.565
0.012508999 0.014505568 0.565
0.018302476 0.011696535 0.565
0.022156924 0.011805596 0.56542856
0.054643378 0.013978874 0.565
0.056047857 0.014154439 0.565
0.0085634822 0.017939499 0.56533331
0.011703488 0.017479839 0.565
0.022691473 0.017665731 0.565
0.054248367 0.017270712 0.565
0.056682028 0.017667964 0.56507146
0.008822239 0.02187928 0.565
0.010823622 0.021668602 0.565
0.054643378 0.02187928 0.565
0.056694224 0.02177665 0.56575
0.018995784 -0.010871093 0.56999999
0.042806637 -0.01151318 0.57171434
0.013706382 -0.0076964423 0.57099998
0.017408695 -0.0095465407 0.57025003
0.041719891 -0.0088806627 0.57012498
0.047855169 0.043592032 0.59349996
0.051086519 0.043601256 0.59299999
0.022564171 0.047287196 0.59399992
0.025332734 0.048104603 0.59399998
0.047744922 0.046997156 0.59399992
0.05182356 0.047286563 0.59300005
0.022691952 0.052733209 0.59399992
0.025554219 0.052682091 0.59399998
0.049696099 0.052349851 0.59399998
0.051910952 0.052349862 0.59399992
0.019426463 0.057887126 0.59399992
0.022543138 0.057279378 0.59345001
0.026256522 0.057558842 0.59369224
0.049253128 0.058219362 0.59399998
0.051357239 0.055118486 0.59399998
0.022801476 0.061130393 0.59399992
0.025332734 0.060655765 0.59399998
0.049142387 0.060655765 0.59399998
0.055047262 0.064866439 0.59200001
0.049696099 0.067854226 0.59399998
0.052331135 0.067682527 0.59250003
0.055047262 0.067073904 0.59200001
0.052138634 0.070978589 0.59299999
0.014282484 0.039680809 0.59500003
0.016501063 0.03940348 0.59500003
0.051998347 0.039680809 0.59500003
0.0098784156 0.043709856 0.597
0.01292613 0.042786419 0.59546161
0.017610352 0.042454109 0.59500015
0.022139953 0.042638991 0.59500009
0.044233318 0.044118088 0.59500003
0.047422528 0.042038113 0.59500003
0.050889056 0.04189945 0.59500003
0.0090399617 0.047872204 0.59683341
0.012634674 0.04751002 0.59580004
0.017610352 0.04744605 0.59500021
0.02177019 0.048555367 0.59500003
0.043835685 0.047882907 0.59525001
0.046174575 0.049387358 0.59500003
0.0088729151 0.05250176 0.59745461
0.012650461 0.052575745 0.5965625
0.017610352 0.052437972 0.59500015
0.022047514 0.050774008 0.59500003
0.042845454 0.052821882 0.59664291
0.047335953 0.052462623 0.59527791
0.013051355 0.057367463 0.59581262
0.017026518 0.05725478 0.59500015
0.039863039 0.057526443 0.59600002
0.042633586 0.057516426 0.5959
0.047128905 0.057222266 0.59515011
0.051776491 0.05820645 0.59500009
0.012750869 0.062637888 0.59600002
0.017617103 0.062448502 0.59525013
0.022417275 0.063346297 0.59500003
0.027039321 0.062659569 0.59500015
0.039492652 0.061230388 0.59600002
0.042617928 0.062494393 0.59568757
0.047398094 0.06263645 0.59527791
0.052489419 0.062588617 0.59553337
0.055419199 0.061971176 0.59600002
0.01275591 0.067799792 0.59736842
0.017643565 0.06754493 0.59615999
0.022629401 0.067494497 0.59570014
0.026424123 0.066710018 0.59590918
0.043254483 0.067618482 0.59680003
0.047446012 0.067479193 0.59600013
0.052552991 0.065195166 0.59500003
0.013028921 0.072426796 0.59623086
0.017636618 0.07251545 0.59589994
0.022545341 0.072465234 0.59640002
0.025460677 0.070979543 0.597
0.043639988 0.072463609 0.59700006
0.04765515 0.072551869 0.59620011
0.051443703 0.073515058 0.59500003
0.013866824 0.076220348 0.59619999
0.01767889 0.077142276 0.59729993
0.021717668 0.076733619 0.59737504
0.043825492 0.075431742 0.597
0.04806792 0.076057568 0.59580004
0.050889056 0.07517904 0.59500003
0.018287115 0.080151543 0.59899998
0.021078983 0.080151543 0.59899998
0.047120124 0.079280049 0.61833334
0.053345818 0.079109095 0.61699998
0.047467552 0.081122778 0.6185714
0.052081231 0.081973724 0.61723077
0.048597589 0.083876826 0.6225
0.049412195 0.086073808 0.62299997
0.051320124 0.086027957 0.62266666
0.043147929 0.083842665 0.62549996
0.04571091 0.083480038 0.62533331
0.017612489 0.088200055 0.62736362
0.021548353 0.088270292 0.62900001
0.04270824 0.087693848 0.62607139
0.047184281 0.08797881 0.62587506
0.051206712 0.089308657 0.62599993
0.018030319 0.09061572 0.62900001
0.021548353 0.090029359 0.62900001
0.043351498 0.091915436 0.62814283
0.047424249 0.092443384 0.62823075
0.051877677 0.093018375 0.62753326
0.013896425 0.096858613 0.62766665
0.017407004 0.096858621 0.62766659
0.020895362 0.097925961 0.62699997
0.049106289 0.095892906 0.62900001
0.052472979 0.09620297 0.62719995
0.019233527 0.086061485 0.63
0.022365639 0.087040298 0.63000005
0.013959155 0.093181886 0.63049996
0.017409896 0.093139857 0.63000005
0.022887658 0.092782676 0.63000005
0.043311648 0.094283506 0.63
0.046835274 0.094870783 0.63
0.042203989 0.095021375 0.63099998
0.47883219 -0.12108138 0.96600002
0.48153365 -0.12108138 0.96600002
0.46884927 -0.13001183 0.97899997
0.44921368 -0.13673314 0.98799998
0.45197666 -0.13765416 0.98799998
0.44921368 -0.13489111 0.98799998
0.45105568 -0.13489111 0.98799998
0.46437719 -0.13448152 0.98500001
0.44871008 -0.13927644 0.99299997
0.45148703 -0.13927644 0.99299997
0.45612043 -0.13714832 0.991
0.44891077 -0.15077692 1.008
0.38845327 -0.16160361 1.017
0.39034933 -0.16160361 1.017
0.38845327 -0.15781145 1.017
0.39110777 -0.15743221 1.017
0.38466117 -0.15401924 1.017
0.38750523 -0.15401924 1.017
0.39129734 -0.15401924 1.017
0.38769752 -0.16017865 1.02
0.38769752 -0.1573261 1.02
0.40957475 -0.16013904 1.0319999
