# .PCD v0.7 - Point Cloud Data file format
VERSION 0.7
FIELDS x y z
SIZE 4 4 4
TYPE F F F
COUNT 1 1 1
WIDTH 837
HEIGHT 1
VIEWPOINT 0 0 0 1 0 0 0
POINTS 837
DATA ascii
0.073193982 0.03242097 0.59919423
0.074759312 0.030116783 0.59922814
0.066266835 0.038597576 0.60309637
0.069056578 0.036326434 0.60242498
0.072319657 0.032799654 0.60197616
0.075032584 0.028709553 0.60196745
0.077040009 0.024303161 0.60226357
0.078033596 0.020733614 0.60309637
0.064528875 0.038713623 0.60625911
0.067871705 0.035761409 0.60675365
0.071150385 0.032043651 0.60702097
0.073911697 0.027822163 0.60705596
0.076123312 0.023352932 0.60656828
0.077474117 0.019024372 0.60624743
0.059862085 0.039714314 0.61014932
0.06230079 0.038088247 0.61047423
0.066096775 0.034694109 0.61129743
0.069372199 0.030925805 0.61165631
0.072169103 0.026649477 0.61168909
0.074378453 0.022147326 0.61127889
0.076060466 0.017211288 0.61037469
0.076234579 0.014120563 0.61080068
0.058374733 0.038645878 0.61311418
0.059993125 0.036557585 0.61472404
0.063863076 0.033191629 0.61544764
0.067142099 0.029286517 0.61592591
0.069915622 0.025113933 0.61588591
0.072165176 0.020659259 0.61538941
0.07381501 0.015762575 0.61453289
0.07508339 0.013384959 0.61293131
0.058055051 0.034315687 0.61837298
0.061026607 0.031142568 0.61939174
0.064375788 0.027488064 0.61964053
0.067192994 0.023320131 0.61957002
0.069396392 0.018674403 0.61917353
0.071008839 0.014765094 0.61822176
0.056761384 0.032066587 0.62096328
0.058446102 0.029022729 0.62226099
0.061116673 0.025154868 0.62297827
0.06379392 0.021137696 0.62293988
0.066360444 0.017110661 0.62214094
0.068380266 0.014305308 0.62089497
0.059607111 0.023040097 0.6246624
0.061134651 0.02069439 0.62467003
0.067354836 0.038646217 0.59238189
0.069802776 0.036375601 0.59213299
0.07268323 0.033048391 0.59185648
0.075368918 0.02900118 0.59181702
0.077324785 0.024995157 0.59204006
0.062320352 0.042175781 0.59640813
0.065598562 0.040082298 0.59561056
0.069381282 0.036956407 0.59599245
0.072782025 0.033198498 0.59623981
0.075605258 0.028933927 0.59618145
0.077702418 0.024388371 0.59588873
0.079066776 0.019839313 0.59554249
0.079752512 0.015890554 0.5961116
0.060837477 0.042588688 0.59980214
0.064887866 0.040141955 0.60038394
0.068553433 0.037383087 0.59999108
0.071099572 0.034969963 0.59950882
0.076574229 0.026720237 0.59936643
0.077827811 0.023364378 0.59989691
0.078908846 0.018926773 0.60028738
0.079582281 0.01428571 0.59956282
0.079456985 0.0102422 0.60067141
0.055887129 0.043830749 0.60357475
0.059346706 0.042271592 0.604352
0.062834159 0.040356256 0.60484004
0.078331046 0.017019015 0.60465312
0.078694366 0.012923426 0.60429239
0.078793839 0.0091538457 0.60340697
0.053683616 0.043038558 0.60781991
0.057626598 0.041243974 0.60897017
0.077416822 0.01537131 0.60800338
0.077080689 0.011710874 0.60891116
0.077309966 0.0075959517 0.60747534
0.051701967 0.04150366 0.61190701
0.055323802 0.039674968 0.61329925
0.056971535 0.037477307 0.61558068
0.073582634 0.012642919 0.61524314
0.074782073 0.010196852 0.61316532
0.075085223 0.0061716549 0.61166108
0.049637087 0.039502781 0.61551797
0.052573476 0.037681475 0.61702782
0.055511206 0.035392225 0.61852258
0.070892617 0.012025736 0.61846852
0.071885534 0.0083986716 0.61689001
0.072454348 0.0049180277 0.61524916
0.049717002 0.035304815 0.62013501
0.05346784 0.032437518 0.6217348
0.055987094 0.028829932 0.62339598
0.057876348 0.025692971 0.62434691
0.06303601 0.017955719 0.62427735
0.065138653 0.015021257 0.62331194
0.067435846 0.011295642 0.62164307
0.068586625 0.0068906872 0.62005442
0.070061326 0.0041836128 0.61787182
0.048231505 0.032531835 0.62265939
0.05033204 0.029686514 0.62425256
0.053525392 0.026241608 0.62542206
0.056835383 0.022492992 0.62590861
0.059702765 0.018269552 0.6258558
0.061858684 0.013687927 0.62532097
0.063732669 0.0094014062 0.6241225
0.065659419 0.006372977 0.62239134
0.05094485 0.023880528 0.62694222
0.053554416 0.020080958 0.62755907
0.056231011 0.016129518 0.62751931
0.058571629 0.012370409 0.62689781
0.068427175 0.035761036 0.58536661
0.071533948 0.032277614 0.58532047
0.074128389 0.028354194 0.5852704
0.076134503 0.024163706 0.58531082
0.061439902 0.042028323 0.58953381
0.064924426 0.039741226 0.58895892
0.06859839 0.036750577 0.58872998
0.072155125 0.032847069 0.5885129
0.075011134 0.02856411 0.58858252
0.077139504 0.023929253 0.58870798
0.078509137 0.019297171 0.58897334
0.079226479 0.015094219 0.58928269
0.056744657 0.044516604 0.59340072
0.060386211 0.042988308 0.59309787
0.064287379 0.040879793 0.59286886
0.079338767 0.017952902 0.5926047
0.07973896 0.013651956 0.59301579
0.07970655 0.0096769687 0.59330499
0.051203746 0.045860551 0.59770268
0.055112015 0.044970084 0.59740394
0.058834538 0.043762103 0.59734327
0.079848006 0.011912068 0.59731805
0.079517812 0.0080634048 0.59710604
0.078776851 0.0040730592 0.59766197
0.049806051 0.045620076 0.60106933
0.05301214 0.044940468 0.60180753
0.07874997 0.0063875066 0.60153341
0.078082137 0.0029895389 0.60078174
0.047725379 0.044759609 0.60537791
0.050812472 0.044151302 0.60632414
0.077138983 0.0044613732 0.60611451
0.076582104 0.0014159521 0.60490644
0.04555783 0.043341596 0.60926592
0.048599232 0.042542428 0.61073667
0.074827954 0.0028938605 0.61043113
0.074351519 -0.00013372209 0.60900563
0.0435309 0.041441001 0.61273795
0.046216369 0.040180065 0.61481589
0.071763039 0.0016340381 0.614537
0.07176052 -0.0013416111 0.61255234
0.043921243 0.037512045 0.61803299
0.046440437 0.035419799 0.62033236
0.067632899 0.0037243962 0.6200155
0.068463914 0.00054587331 0.61774606
0.06945084 -0.0022579664 0.61498523
0.041918527 0.034720201 0.62060612
0.044457946 0.032252371 0.62280047
0.047097109 0.02931853 0.62479442
0.062162004 0.0067720599 0.62467009
0.063764773 0.0030178409 0.62262404
0.065190434 -0.00020473544 0.62030774
0.042370308 0.029328186 0.62455755
0.044996385 0.02635901 0.62623352
0.047764294 0.02261092 0.62765086
0.050672151 0.018513281 0.62841064
0.053593338 0.014138563 0.62838173
0.056309335 0.0098690735 0.62755096
0.05852031 0.0057252934 0.62612116
0.060388263 0.0023710867 0.62438756
0.043445941 0.022735298 0.62760401
0.045263134 0.020178054 0.62837547
0.048088811 0.016491584 0.62896281
0.050669037 0.012498233 0.62894768
0.052964292 0.0084335236 0.62831736
0.054579992 0.0058473647 0.62753385
0.069815472 0.029684566 0.57862228
0.071437754 0.027033152 0.57850504
0.059876617 0.040605687 0.5827269
0.063290827 0.038581152 0.58270997
0.066913426 0.035290331 0.58186197
0.070038423 0.03152528 0.58121705
0.072877355 0.027279481 0.58123666
0.075129598 0.022772679 0.58170593
0.076735586 0.018364884 0.58259708
0.077312075 0.014375068 0.58266288
0.055449717 0.043827657 0.58694965
0.059009317 0.042258568 0.58621514
0.062977225 0.040049329 0.58557302
0.077987701 0.01735292 0.58542538
0.078486286 0.012910505 0.58606273
0.078528084 0.0088945627 0.5867272
0.050293196 0.045779184 0.59130383
0.053958032 0.044927392 0.59049797
0.057795372 0.043712407 0.5897963
0.079357997 0.011190985 0.58954948
0.078958496 0.0069612162 0.59025037
0.078228876 0.0031977631 0.59066677
0.049041688 0.046112169 0.59485054
0.052456215 0.045678724 0.59455365
0.079116195 0.0054216683 0.59422821
0.078198917 0.0021531181 0.59443337
0.046522595 0.04606032 0.59890819
0.07717374 -0.00022660848 0.59863907
0.040838242 0.045077734 0.60276896
0.043919526 0.045289982 0.60314333
0.0754527 -0.0023487173 0.60297394
0.074164763 -0.0050306395 0.60232824
0.039619032 0.044213567 0.60519218
0.041604232 0.043731581 0.60744709
0.073145397 -0.003946336 0.60716277
0.07287927 -0.0059229285 0.60471892
0.039746709 0.04148858 0.61152923
0.070435464 -0.0047810413 0.61119163
0.038091362 0.038769975 0.61509162
0.039964341 0.037384745 0.61750054
0.066776872 -0.0030057831 0.61724335
0.067204632 -0.0053367838 0.61484367
0.036031563 0.036275044 0.61729127
0.038051575 0.034253955 0.6199773
0.04024221 0.03188026 0.62256151
0.061760783 -0.00058026519 0.62243938
0.063110054 -0.0035314932 0.6197989
0.064090878 -0.0062012859 0.61712539
0.036526315 0.031187717 0.62194699
0.038603161 0.028455937 0.62424177
0.041115601 0.025358414 0.62632793
0.056146398 0.0027397173 0.62622702
0.058007296 -0.0009438945 0.62403417
0.059650227 -0.0037795343 0.62179852
0.036964044 0.025179043 0.62544763
0.03946846 0.02251019 0.62701458
0.041742764 0.018464975 0.6283924
0.044208653 0.01409036 0.62912691
0.047137126 0.0098950742 0.62910658
0.05011652 0.0060082553 0.62833619
0.052924659 0.0021899994 0.62687558
0.054193251 -0.0010721255 0.62535071
0.042682867 0.011335608 0.62908173
0.043797992 0.0095675196 0.62906235
0.061426282 0.035502885 0.57605493
0.06437315 0.033317961 0.57621193
0.067679226 0.029849209 0.57621986
0.070363156 0.025681874 0.57611042
0.072339408 0.021287883 0.57617474
0.073149517 0.017781746 0.57594788
0.057182375 0.04038842 0.58008039
0.060918499 0.037632793 0.57856065
0.064675666 0.03494861 0.57841337
0.067523435 0.032392181 0.57851255
0.073814012 0.021238938 0.57829124
0.074922174 0.016530097 0.57843852
0.076011956 0.012011257 0.57990849
0.048471373 0.044284146 0.58426809
0.052491974 0.043444272 0.58371562
0.056121286 0.042096417 0.5826596
0.077227354 0.010462191 0.58254272
0.077042677 0.0064878007 0.58352572
0.04788734 0.045333654 0.58795822
0.050996639 0.04485102 0.58710134
0.077760346 0.0044474751 0.5869298
0.076939613 0.0013179034 0.58766711
0.041753922 0.045875799 0.59255069
0.044980172 0.046026561 0.59195322
0.076495476 -0.0015904363 0.59164429
0.075100109 -0.0045113117 0.59221721
0.04079305 0.04581682 0.59605676
0.043462224 0.046160348 0.59629852
0.076005876 -0.0031386502 0.59646016
0.074675612 -0.0054316372 0.59566778
0.038780272 0.045050316 0.60041088
0.042231981 0.045821846 0.59965026
0.073306292 -0.0068956465 0.60005188
0.03652931 0.04353109 0.60460556
0.038025673 0.043011568 0.6075843
0.071046337 -0.0083810091 0.60436797
0.034339443 0.041503564 0.60809165
0.035969429 0.041129682 0.61023873
0.06853044 -0.0081238262 0.6100269
0.068272918 -0.0097351316 0.60780936
0.032143705 0.039396904 0.61041874
0.033665556 0.038307741 0.61328357
0.065140396 -0.0092167929 0.61288381
0.06548775 -0.010980226 0.61009514
0.032446906 0.034936246 0.61664599
0.033789728 0.033324946 0.61904472
0.060534161 -0.0071255155 0.61886561
0.061506055 -0.0090826862 0.61631995
0.032548305 0.029936923 0.62095588
0.034343828 0.027373258 0.62343055
0.055330347 -0.0044892188 0.62316507
0.057026919 -0.0070259366 0.6206913
0.033351894 0.024329985 0.62437934
0.035143495 0.020289183 0.62641293
0.038202249 0.016846225 0.62801486
0.040486913 0.014090739 0.62877291
0.045819253 0.0063359472 0.62871152
0.047269534 0.0030159261 0.62786329
0.04921281 -0.00084434543 0.62629509
0.052217815 -0.0041119847 0.62418866
0.034185622 0.017189132 0.62673873
0.036537245 0.014716502 0.62775791
0.039639384 0.010952285 0.62854552
0.042314652 0.0067510535 0.62849468
0.044494979 0.0026697787 0.62771392
0.0458101 -0.00055625197 0.62663186
0.058488306 0.035078004 0.57370538
0.061727002 0.032031491 0.57287711
0.064881407 0.028024629 0.57217938
0.067637056 0.02387033 0.57216889
0.070054457 0.019392841 0.5727824
0.071663365 0.015369226 0.57367557
0.051202089 0.040818222 0.57785481
0.054312877 0.039016113 0.57636774
0.05758268 0.03704384 0.57535946
0.073087521 0.013695224 0.57525808
0.073626958 0.009820058 0.57623494
0.07397835 0.0060325777 0.57760531
0.046196185 0.043436971 0.58200037
0.049248975 0.042472064 0.58037394
0.074869655 0.0038693389 0.5801819
0.074688569 0.00082465075 0.5818907
0.044110466 0.044502117 0.58508623
0.074671164 -0.0017092768 0.58465582
0.039574821 0.045065336 0.58961648
0.041959662 0.045258831 0.58849967
0.074553192 -0.0040404815 0.58803147
0.073472559 -0.0062190425 0.58934891
0.037190706 0.044956286 0.59354401
0.072462842 -0.0083679948 0.59312773
0.034482144 0.044078529 0.59767628
0.070668787 -0.010505959 0.59731299
0.032236446 0.042568807 0.60182571
0.068431027 -0.012007248 0.60155523
0.030399263 0.040360756 0.60614657
0.06572482 -0.012904923 0.60575193
0.028955393 0.037936449 0.60950142
0.029359503 0.036738116 0.61194688
0.062110495 -0.012459466 0.61158419
0.062903553 -0.013340639 0.60914403
0.028228763 0.033833332 0.61448777
0.05886098 -0.012481855 0.6141445
0.027676871 0.030903431 0.61693507
0.028380437 0.028411055 0.61933458
0.05391404 -0.01028269 0.61905885
0.055837348 -0.011997083 0.61653537
0.028075103 0.02527583 0.62098753
0.029276127 0.022163324 0.62303466
0.03083506 0.019047854 0.62485754
0.046340134 -0.0043900851 0.62468463
0.048701435 -0.0069771912 0.62285507
0.050960161 -0.0093632229 0.62071294
0.030767875 0.016413989 0.62526047
0.032895062 0.012570448 0.62649739
0.03533534 0.0080486955 0.6271143
0.038091589 0.0040134676 0.62710917
0.041176632 3.4850091e-06 0.62639701
0.043776542 -0.0032623503 0.62520355
0.052147299 0.034884214 0.57096678
0.055034176 0.033637434 0.57080501
0.058584884 0.029912746 0.56947207
0.061666213 0.025963102 0.56879848
0.064401038 0.021821309 0.56876802
0.066872284 0.017404875 0.56940782
0.068985455 0.012729531 0.57075363
0.06906873 0.0096341595 0.57092857
0.047995102 0.039369199 0.57519937
0.051102977 0.037115555 0.57302529
0.054571964 0.036150686 0.57291985
0.071347885 0.011495176 0.57308322
0.070556708 0.0076393029 0.57282948
0.071332105 0.0038265027 0.57487154
0.043035258 0.041788824 0.57905811
0.045683198 0.040816642 0.57718724
0.071846731 0.0010659732 0.57696784
0.071842611 -0.0015978264 0.57889372
0.037281614 0.042801276 0.58352023
0.040174484 0.042912006 0.58224726
0.071697436 -0.0047122799 0.58193928
0.070539795 -0.0073485766 0.58334702
0.036387093 0.043523744 0.58660024
0.039406981 0.044074092 0.58556187
0.072685406 -0.0057373159 0.58545351
0.070843816 -0.0084356647 0.58629596
0.033304013 0.043311283 0.59073544
0.069412909 -0.011295684 0.59043747
0.030574914 0.042407274 0.59503919
0.067584574 -0.013437625 0.59454679
0.028265363 0.040856857 0.59916818
0.0652439 -0.015029395 0.59878695
0.026488978 0.038753122 0.60333437
0.062566504 -0.015914638 0.60299915
0.025101945 0.035943385 0.60751927
0.026028916 0.035055965 0.61059529
0.059024021 -0.014943995 0.61029178
0.059462562 -0.016068473 0.60731453
0.023852946 0.033781141 0.60929585
0.024259461 0.032196626 0.6119135
0.055717081 -0.015456328 0.61162555
0.056879122 -0.016541153 0.60886002
0.023850655 0.028857607 0.61482263
0.024175268 0.026347468 0.61702496
0.05039347 -0.013250165 0.6168049
0.052637991 -0.014561769 0.61448747
0.024377061 0.023526333 0.61878973
0.025361242 0.0198476 0.62099195
0.044044796 -0.006816024 0.62309551
0.044916186 -0.0096458271 0.62083411
0.047796808 -0.011984518 0.61858809
0.025095731 0.016668746 0.62156075
0.027052 0.014645368 0.6231882
0.02905602 0.01008593 0.62444764
0.031374335 0.0055754022 0.62498534
0.034199461 0.0014823535 0.62501174
0.037227664 -0.0024931161 0.62431937
0.040633924 -0.0062344242 0.62293518
0.04192074 -0.0086058807 0.62147748
0.050007664 0.03336671 0.5692668
0.051637895 0.03128038 0.56807804
0.055002652 0.02764133 0.56674725
0.058159746 0.02364938 0.56607527
0.060795851 0.019523256 0.5660041
0.063356385 0.01518034 0.56668496
0.065432921 0.010482773 0.56798398
0.067129821 0.0083340947 0.56944036
0.044455677 0.037029937 0.57243121
0.047626637 0.034762904 0.57026178
0.048080035 0.031653769 0.56778097
0.064495221 0.0071466388 0.56771791
0.067004628 0.0053545032 0.57007211
0.067974061 0.001581775 0.57228917
0.039595176 0.039546758 0.57645565
0.042101353 0.038502306 0.57442224
0.068194412 -0.0011979444 0.574049
0.068450063 -0.003809128 0.57624573
0.03525126 0.041477144 0.58203328
0.036675658 0.040581435 0.57945949
0.068130985 -0.0070808139 0.57921189
0.068956606 -0.0083876792 0.58208585
0.032900289 0.041267067 0.58397126
0.033096381 0.039856575 0.5806278
0.0659042 -0.010256642 0.58039439
0.067311339 -0.010772455 0.58355284
0.029719677 0.040981777 0.58807778
0.065907001 -0.013601979 0.587726
0.027067162 0.040102415 0.59226757
0.063976422 -0.0158232 0.59195578
0.02480733 0.038574759 0.5965932
0.061759986 -0.017305411 0.59608984
0.022976482 0.036445368 0.60060608
0.05919759 -0.018141573 0.60034049
0.021604298 0.033675406 0.60474592
0.019670721 0.030841308 0.6056354
0.052481249 -0.019140851 0.60526431
0.056017067 -0.018374067 0.60453874
0.021539513 0.032262594 0.60748267
0.020627398 0.029839465 0.60906619
0.05217091 -0.017814744 0.60880995
0.055204786 -0.017630389 0.60760993
0.020543911 0.026754286 0.61219203
0.020552218 0.023936275 0.61424255
0.046737663 -0.015703361 0.61389005
0.049242549 -0.016686613 0.6120193
0.020998249 0.021273877 0.61618364
0.021821886 0.017398184 0.61829418
0.037580322 -0.011136221 0.61798519
0.041239638 -0.012042521 0.61801094
0.044471808 -0.014192829 0.61597931
0.023316162 0.015443796 0.62018627
0.02348279 0.012445997 0.62043118
0.02544966 0.0077849734 0.62166107
0.027877152 0.0032645874 0.62225431
0.030759439 -0.0009843884 0.62225747
0.033768319 -0.0048348736 0.62158388
0.03720095 -0.0085117407 0.62024146
0.040027861 -0.0099540055 0.61989737
0.048531104 0.028432032 0.56590873
0.051177341 0.025063314 0.56467062
0.054309174 0.021163763 0.56400383
0.057071246 0.016909787 0.56396478
0.059496708 0.012524631 0.56460345
0.061517283 0.0088072997 0.56576926
0.041453671 0.034441434 0.57033092
0.043718822 0.032060388 0.56820625
0.045972914 0.029328588 0.56629187
0.061399885 0.0060377531 0.56617087
0.063132517 0.0029204506 0.56809402
0.064399011 -0.00023741089 0.57021362
0.036572702 0.037094787 0.57451433
0.038531054 0.035401247 0.57200629
0.064040303 -0.0032410454 0.57175428
0.064983293 -0.005533956 0.57418483
0.033520974 0.037508845 0.57680678
0.064120002 -0.0087023526 0.57657266
0.029524116 0.038463458 0.58187348
0.030344844 0.037568845 0.57940334
0.062968925 -0.011663547 0.57916027
0.063443288 -0.0127583 0.58151561
0.026642166 0.038040422 0.58536512
0.061888002 -0.015305288 0.58498812
0.02394327 0.037138399 0.58954853
0.060107373 -0.017440919 0.58914912
0.021716321 0.035645731 0.59376061
0.057799954 -0.018980928 0.59331828
0.019871026 0.033452135 0.59797597
0.055182822 -0.01983146 0.59769183
0.018843174 0.031239172 0.60179728
0.017762452 0.029115869 0.6029864
0.050362222 -0.02012622 0.60270512
0.052759558 -0.019977722 0.60136515
0.017680448 0.026924292 0.60626942
0.048244815 -0.019360464 0.6060667
0.017683735 0.024334123 0.60917729
0.017485244 0.021312434 0.61085004
0.043044068 -0.017366236 0.61068428
0.046014979 -0.018312471 0.60910666
0.01822589 0.018798901 0.61332649
0.018758785 0.015241437 0.61490315
0.019369524 0.01147922 0.61595988
0.034913436 -0.011921216 0.61580056
0.038093254 -0.014026057 0.61456436
0.041246671 -0.015776552 0.61313862
0.020767592 0.0097295679 0.61749303
0.022273986 0.0056292536 0.61824125
0.024785234 0.0011553206 0.61892796
0.027517678 -0.0029292982 0.61892229
0.030588133 -0.0068500862 0.61823511
0.033813227 -0.0099637322 0.61734796
0.046554003 0.025705606 0.5644685
0.047771752 0.022399124 0.56335348
0.050097853 0.018363282 0.5625931
0.052816458 0.014271908 0.56256527
0.055639237 0.010469688 0.56326455
0.058229547 0.0080024656 0.56435835
0.040083624 0.029162643 0.56687385
0.043105606 0.0260629 0.56484115
0.045083072 0.022150178 0.56323487
0.05199258 0.010628629 0.56235439
0.05423037 0.0082071573 0.56308824
0.05714763 0.0048449123 0.56464118
0.058931697 0.00074163824 0.56669068
0.061533473 -0.0012289546 0.56883711
0.035305165 0.032162979 0.57042241
0.037041634 0.029406136 0.56779587
0.058117516 -0.0022326903 0.56768495
0.059686542 -0.0049107149 0.57012683
0.030797524 0.034144364 0.5747599
0.031721745 0.032116897 0.57217783
0.058666985 -0.0081880409 0.5720681
0.059939034 -0.0098386314 0.57447517
0.026666157 0.035957724 0.58104378
0.027298514 0.034375608 0.57816756
0.058842741 -0.013179176 0.57788825
0.060060993 -0.01441161 0.58075809
0.024119698 0.034898706 0.58330953
0.023825388 0.033239778 0.58107191
0.056354351 -0.016039917 0.58086061
0.058025479 -0.016373381 0.58295083
0.02135333 0.033568539 0.58679181
0.021465912 0.032097463 0.58344501
0.05576212 -0.01842976 0.58645344
0.019053785 0.03201279 0.59105748
0.017056979 0.029151313 0.59160972
0.050220925 -0.020678449 0.5912891
0.053505294 -0.019946519 0.59060115
0.01769927 0.030570496 0.59545076
0.016353369 0.028272927 0.59502554
0.048974924 -0.021033406 0.59477085
0.051501036 -0.020714078 0.59492749
0.017274968 0.029630911 0.59894413
0.015827898 0.02664176 0.599397
0.047375858 -0.020918556 0.59906137
0.050559748 -0.020778101 0.59842408
0.015404392 0.023796208 0.60337901
0.014632173 0.020636808 0.6042949
0.04145202 -0.019749139 0.60397625
0.044621296 -0.020235609 0.60309392
0.016021786 0.022558425 0.60691971
0.015307853 0.018664131 0.60753238
0.015150744 0.014866674 0.60854179
0.036196247 -0.017040852 0.60826045
0.039747521 -0.018293135 0.60740322
0.016557356 0.017076895 0.61107028
0.016297389 0.013329616 0.61107045
0.01743095 0.0086627929 0.61264908
0.018451409 0.0041630715 0.61279958
0.024972843 -0.0074651204 0.61252362
0.027650718 -0.0097864028 0.61270052
0.031467743 -0.012556927 0.61249489
0.035159517 -0.015292037 0.61096358
0.019224286 0.0072640893 0.61514026
0.020066097 0.0038308483 0.61497045
0.021954205 -0.00061591156 0.61488903
0.024768822 -0.0047712959 0.61492848
0.02808971 -0.0082699824 0.61488992
0.030975733 -0.010472286 0.61496413
0.048501022 0.015725233 0.56204093
0.050248105 0.01292679 0.56204551
0.037936494 0.026124429 0.56576735
0.039425429 0.022869971 0.5641939
0.042281896 0.019131446 0.56275159
0.045237813 0.015273552 0.56198627
0.048063148 0.011008486 0.56195128
0.050557088 0.0066293329 0.56268704
0.052858673 0.0027403198 0.56401658
0.055372953 -3.2464042e-05 0.56561923
0.032786582 0.029034957 0.56933945
0.034308437 0.026006225 0.56704926
0.036205806 0.022406247 0.56487298
0.051292676 -0.00015822612 0.56473213
0.053829063 -0.0033535417 0.5668745
0.055768251 -0.006059397 0.56910145
0.028196303 0.031280488 0.57398832
0.02920527 0.02866631 0.57133514
0.030443076 0.025647134 0.56871682
0.052068155 -0.0067523625 0.56850338
0.054313108 -0.0091126524 0.57108754
0.056259677 -0.011193816 0.5737986
0.025153913 0.030411448 0.57620299
0.025482383 0.028145701 0.57395822
0.05229108 -0.012387525 0.57369125
0.054239042 -0.013604093 0.57591486
0.021950483 0.029890483 0.57984811
0.052602015 -0.016364733 0.57953763
0.019644164 0.031153623 0.58615047
0.019197609 0.029070422 0.58398861
0.050797965 -0.018606827 0.58363789
0.052971121 -0.019002818 0.58572406
0.018368321 0.030318528 0.58851361
0.016910691 0.027484506 0.58814472
0.04831918 -0.020156793 0.58782864
0.051617935 -0.0198901 0.58805728
0.015212238 0.025402024 0.59244281
0.045803137 -0.020944338 0.59215498
0.014188245 0.023060612 0.59658134
0.013266675 0.019810142 0.59680432
0.040127166 -0.020605642 0.59638208
0.04330099 -0.020992871 0.59639138
0.014071811 0.021848889 0.60014713
0.013386797 0.018083662 0.60081595
0.012998559 0.013896571 0.60151756
0.034464389 -0.018616306 0.60098022
0.038435787 -0.019820455 0.60058177
0.042168546 -0.020654682 0.59994614
0.013825916 0.016225902 0.60433739
0.013882373 0.012171039 0.60506481
0.01435113 0.0078124749 0.60561675
0.029419713 -0.014951333 0.60551697
0.033307254 -0.017147176 0.6048128
0.036839843 -0.018665347 0.60423833
0.015022522 0.010789597 0.60837072
0.015614551 0.006921215 0.60852677
0.017231945 0.0023227036 0.60936856
0.01953679 -0.0021104524 0.61001372
0.022351604 -0.006414149 0.60991436
0.025472308 -0.01021542 0.60919768
0.02901521 -0.013418932 0.6084016
0.032359786 -0.015497038 0.60820681
0.02085904 -0.0018836912 0.6125176
0.022518924 -0.0043917485 0.61261582
0.037781678 0.019445919 0.56358969
0.039447457 0.0164125 0.56273234
0.0417335 0.012666838 0.5621289
0.04435068 0.0086535057 0.56211364
0.046926223 0.0049768654 0.56269771
0.049099386 0.0025966968 0.5634287
0.031933848 0.022798609 0.56674039
0.033864621 0.01937246 0.56495148
0.036181968 0.015472695 0.56351352
0.038800538 0.011073811 0.56269288
0.041619495 0.0067012301 0.56266642
0.04465922 0.0025088247 0.5634318
0.047379427 -0.0011157617 0.56479245
0.049900942 -0.0041885097 0.56650513
0.027274225 0.025230613 0.57065064
0.028525705 0.022243001 0.56855321
0.030298002 0.018476609 0.56639481
0.045230992 -0.0042018369 0.56629497
0.047986414 -0.0073068403 0.56841326
0.050419614 -0.0095687881 0.57044506
0.022668054 0.027119547 0.57620037
0.023896171 0.024466448 0.57328647
0.024882317 0.02136628 0.57092869
0.045841083 -0.010370355 0.57081133
0.048412487 -0.012403574 0.57305646
0.020533513 0.026404273 0.57858783
0.020557506 0.023544995 0.57664067
0.046149708 -0.015130283 0.57636523
0.048871029 -0.01633767 0.57837451
0.017977569 0.025247758 0.58213449
0.017527835 0.02218812 0.58064198
0.043773979 -0.017424783 0.58034104
0.046750814 -0.018234916 0.58184725
0.01579937 0.023737144 0.58615714
0.015225714 0.02065064 0.58494747
0.041494295 -0.019005563 0.5846892
0.044471197 -0.019668192 0.58582169
0.01429306 0.022188537 0.59032178
0.013650388 0.0188968 0.58953702
0.039270058 -0.019793842 0.58920133
0.042625673 -0.020498138 0.58991748
0.01358711 0.021024287 0.59330851
0.012847535 0.017000491 0.59379262
0.01249788 0.013013138 0.59398437
0.033592734 -0.018673271 0.59370619
0.037278943 -0.019861929 0.5936355
0.041192967 -0.020742949 0.5932526
0.012670122 0.015495065 0.59795392
0.012629129 0.011421977 0.59819156
0.013050288 0.0069462331 0.59839052
0.028041596 -0.015738726 0.5982883
0.032053083 -0.017924633 0.59780312
0.035704724 -0.019426245 0.59774452
0.013149314 0.010086935 0.60189575
0.013845898 0.0058719032 0.60213935
0.015241332 0.0012093289 0.60249543
0.017399635 -0.0034988523 0.60259223
0.020258715 -0.0077868327 0.60261983
0.023757886 -0.011654871 0.60229313
0.027405793 -0.014626225 0.60204732
0.030973336 -0.016914193 0.60169286
0.015015468 0.0045534056 0.60572773
0.016244035 0.00086328387 0.60574687
0.01827978 -0.0032689553 0.60590523
0.020818416 -0.0071609076 0.60575438
0.023719251 -0.010467028 0.60566789
0.02633472 -0.012789715 0.60567766
0.032140419 0.015559249 0.56500006
0.033853568 0.012882636 0.56416023
0.036235485 0.0090151122 0.56353164
0.038853578 0.0050374633 0.56351364
0.041452326 0.0012542224 0.5641253
0.043426707 -0.0014531314 0.5649637
0.02681217 0.018776111 0.56862324
0.028615104 0.015799236 0.56698346
0.03055427 0.011352663 0.56573689
0.032670468 0.0069646863 0.56520361
0.035550505 0.0025880821 0.56517917
0.038874082 -0.0011319071 0.56565982
0.042054694 -0.0045674779 0.56682819
0.044129744 -0.0074694082 0.56846583
0.02378598 0.018299855 0.57104218
0.024884634 0.013798097 0.5694778
0.027134435 0.010024608 0.56783843
0.029406318 0.0072549982 0.56674123
0.034413457 -0.00041598082 0.5666939
0.036291525 -0.0037156362 0.56771851
0.038944256 -0.0072977263 0.569318
0.042570904 -0.010067238 0.57084781
0.044245154 -0.012586046 0.57311344
0.019898782 0.020149715 0.575827
0.020480502 0.016767286 0.57419759
0.021416757 0.013212789 0.57266849
0.036836203 -0.01030867 0.57258874
0.039795607 -0.012575254 0.57406276
0.042758554 -0.014439005 0.57564104
0.017277412 0.018936431 0.57941842
0.017585181 0.014858468 0.57789457
0.035660546 -0.012128348 0.57507408
0.037031986 -0.014513303 0.57772052
0.040680949 -0.016471382 0.57931697
0.01515324 0.017675797 0.58340597
0.015278554 0.013320235 0.58217341
0.014850609 0.0097362958 0.58331734
0.034613505 -0.01599304 0.58192462
0.03855801 -0.017881261 0.58323449
0.013612643 0.015989939 0.58751673
0.013651941 0.012179154 0.58683974
0.013998248 0.0081411339 0.58650714
0.029396992 -0.015217219 0.5864023
0.033022352 -0.017112674 0.58658183
0.036457922 -0.018681254 0.58739245
0.012879014 0.014727215 0.59051085
0.01277224 0.010936545 0.59151453
0.013479143 0.0061621149 0.5906179
0.014607154 0.0015112385 0.5913294
0.015896667 -0.0018341038 0.59168893
0.02072585 -0.0092842337 0.59179085
0.023688816 -0.012178272 0.59116578
0.027331587 -0.014909007 0.59056026
0.031627793 -0.017524919 0.5913077
0.012609929 0.0092061339 0.5949828
0.013278306 0.0053299046 0.59555697
0.014642905 0.00075271539 0.59530699
0.016735263 -0.0037778486 0.59482795
0.01953233 -0.0080232434 0.59481537
0.022985596 -0.011851661 0.59516859
0.026754621 -0.014964852 0.59539336
0.030048035 -0.017071528 0.59483552
0.014971532 0.0002992684 0.59909588
0.016962625 -0.0038479008 0.59918118
0.019623345 -0.0078617893 0.59927481
0.02268522 -0.011381855 0.59896553
0.025072668 -0.013595022 0.59863418
0.031345733 0.0041271653 0.56643355
0.032655381 0.0023232047 0.56637233
0.023802044 0.010785373 0.57034737
0.025996611 0.0079654353 0.56895089
0.028555132 0.0041382499 0.56809914
0.03125979 1.4188699e-05 0.5680722
0.033898823 -0.0040003192 0.56888372
0.035652511 -0.0068211146 0.57000136
0.021339718 0.010430902 0.57287484
0.023014111 0.0063387454 0.57188779
0.025210068 0.0018719817 0.57144642
0.027964653 -0.0023247758 0.5714308
0.03123486 -0.0061590243 0.57185119
0.034375574 -0.0092647895 0.57273817
0.017363384 0.011849654 0.57800138
0.018514486 0.0094749751 0.57657963
0.020179786 0.004552098 0.57568008
0.022367474 5.3854659e-05 0.57525837
0.0252143 -0.0041833241 0.57517499
0.028472945 -0.0080145001 0.57559448
0.032346904 -0.011428349 0.57636321
0.034227788 -0.013430238 0.57765985
0.016294047 0.011081001 0.5799427
0.016268224 0.0079138996 0.58076459
0.017947996 0.0030121161 0.5798372
0.020189278 -0.0015586792 0.57942253
0.022947876 -0.0057811476 0.57945371
0.02627052 -0.0096168481 0.57983333
0.030109925 -0.013026848 0.5806517
0.032755025 -0.014381882 0.58029968
0.014886655 0.0060416218 0.58487362
0.016205315 0.0018815342 0.58448231
0.01844969 -0.0027972264 0.58413929
0.021259233 -0.0069398452 0.58399206
0.024573011 -0.010787558 0.58446354
0.02792397 -0.013630698 0.58474553
0.014317125 0.0042949095 0.58811665
0.015322454 0.00083814096 0.58877003
0.017325062 -0.0035890304 0.58910722
0.020052437 -0.0076757744 0.5890249
0.023252375 -0.011180837 0.58873343
0.026151957 -0.013498455 0.5878796
0.017403547 -0.0046635307 0.59190094
0.019016739 -0.0071137156 0.59189159
