# .PCD v0.7 - Point Cloud Data file format
VERSION 0.7
FIELDS x y z
SIZE 4 4 4
TYPE F F F
COUNT 1 1 1
WIDTH 1190
HEIGHT 1
VIEWPOINT 0 0 0 1 0 0 0
POINTS 1190
DATA ascii
0.020915424 0.10831754 0.61495495
-0.011367375 0.10525751 0.60687804
0.030558793 0.11114678 0.61288911
0.029627787 0.11123516 0.61210865
0.021611148 0.10925751 0.61336195
-0.011903683 0.10607266 0.60480112
-0.018324355 0.10636903 0.60068029
-0.019515077 0.10641164 0.60039258
0.027061801 0.11299787 0.60752463
0.02404312 0.11269131 0.60630512
0.018809697 0.11247891 0.60530305
-0.0064671282 0.10998001 0.5988946
-0.012497576 0.1093181 0.5970856
-0.015359046 0.10842905 0.59781575
-0.01896649 0.10690019 0.59953403
0.027188651 0.11365882 0.6060164
0.023497777 0.11306232 0.60515624
0.019558555 0.11315937 0.60374135
-0.0063842852 0.11068549 0.59735155
-0.010712372 0.10986712 0.59631366
-0.013996186 0.10974243 0.59562206
0.017188367 0.095758505 0.63042468
0.014031972 0.095730864 0.62997323
-0.010620562 0.093293838 0.6235714
-0.013136918 0.092893556 0.62271041
0.018655667 0.098802581 0.62871748
0.013906488 0.098187104 0.62832481
0.011440988 0.097319849 0.62583941
-0.0065778922 0.095252924 0.62120706
-0.0097862501 0.095569193 0.62225604
-0.014294257 0.095439836 0.62054467
0.023092849 0.10062728 0.62306958
0.020716032 0.10117269 0.62483913
0.014745281 0.10100098 0.62302011
0.012404612 0.098751523 0.62270033
-0.0061171297 0.096205205 0.61870289
-0.0088319015 0.098361962 0.61749965
-0.014749395 0.097693317 0.61601263
-0.015685102 0.096779563 0.61282134
0.023977956 0.10244174 0.62102741
0.02058256 0.10426094 0.62056333
0.015412535 0.10178844 0.61850327
-0.0076957997 0.099437982 0.61297554
-0.013460012 0.10066023 0.61242378
-0.015855806 0.098819956 0.61059034
0.026038358 0.10574771 0.61652315
0.021555286 0.10708488 0.61684239
0.01562484 0.10439298 0.61381406
-0.0062320735 0.10223362 0.60836452
-0.012790175 0.10366505 0.60840046
-0.015972847 0.10140079 0.60613459
0.031132704 0.10872825 0.61256313
0.027989428 0.10854167 0.61188531
0.022609964 0.10959776 0.6110788
0.016403617 0.10676244 0.61006969
-0.0055158678 0.10466799 0.6046344
-0.012601873 0.10627421 0.60306686
-0.016487824 0.10391992 0.60105276
-0.019330518 0.10399502 0.59989166
0.031114364 0.11031067 0.61108267
0.028529428 0.1099133 0.60806626
0.023283672 0.10930073 0.60677743
0.018212369 0.10887864 0.60503834
-0.0049944241 0.10666729 0.5991562
-0.010028714 0.1062265 0.59844875
-0.015408995 0.10551941 0.59748489
-0.018877534 0.10547122 0.59846604
0.028284682 0.1122319 0.60467374
0.02343948 0.11151931 0.60372472
0.01988511 0.11136802 0.60192287
-0.0054920129 0.10887694 0.59550679
-0.0094849039 0.10828566 0.59536827
-0.013857188 0.10824769 0.59396774
0.017858984 0.093049303 0.62942737
0.014644694 0.092645869 0.6289289
-0.010080488 0.090344675 0.62249112
-0.012826199 0.090635978 0.62194932
0.02002893 0.094219714 0.62740219
0.012685938 0.092231356 0.62714398
0.011610092 0.094091818 0.62500787
-0.0059526321 0.092517354 0.62048399
-0.0075669978 0.090199478 0.62184584
-0.013753446 0.090653017 0.61911136
0.023346135 0.099357001 0.62219983
0.022395464 0.096629106 0.62324059
0.014223253 0.096208014 0.61902332
0.012811975 0.095777802 0.62110269
-0.0053722505 0.093663611 0.61700952
-0.0056596268 0.094534628 0.61473894
-0.014402961 0.092978828 0.61392623
-0.01539083 0.095947668 0.61239052
0.024691379 0.099241972 0.61876434
0.023496225 0.097973824 0.61821085
0.015468748 0.098605111 0.61652792
-0.0060692839 0.096457437 0.6111812
-0.013930032 0.094613276 0.60951102
-0.014826601 0.095796168 0.60873908
0.026487578 0.10202269 0.61502326
0.022876585 0.099935666 0.61337674
0.017642925 0.1005338 0.61282772
-0.0065082926 0.098019049 0.60708499
-0.010999704 0.096591756 0.6049186
-0.015064789 0.097776495 0.60491318
0.027638335 0.10460872 0.61148232
0.023670906 0.10353059 0.60951078
0.019033395 0.10334207 0.60835958
-0.0062152147 0.10080087 0.60220093
-0.010598304 0.1001738 0.60102934
-0.014999038 0.10041397 0.60110253
0.027328627 0.10671052 0.60718125
0.02507427 0.10559955 0.60724014
0.019773165 0.10568762 0.60521078
-0.0057854671 0.103274 0.59879696
-0.01067148 0.1024169 0.59807259
-0.012961784 0.10270236 0.59716129
0.017734615 0.090605177 0.62784356
0.015970757 0.090396561 0.6276052
0.020929331 0.090400308 0.62479264
0.015432743 0.088806577 0.62438875
0.013269708 0.090854846 0.62240237
-0.0054158401 0.089460976 0.61767012
-0.0077662189 0.086937003 0.61849523
-0.012412241 0.086969979 0.61642665
0.022248719 0.092205979 0.62062043
0.016550992 0.091660239 0.61762607
0.013624854 0.090994246 0.61930829
-0.0042786878 0.089405939 0.61478192
-0.0058951899 0.089164376 0.61190224
-0.012588689 0.088760808 0.61219865
0.021729648 0.095093593 0.61723393
0.017838625 0.093857855 0.61666507
-0.0071671661 0.091597445 0.61019105
-0.010965725 0.091884233 0.60910112
0.020375308 0.086497992 0.62184703
0.017183268 0.085327163 0.62180263
-0.007398637 0.083028696 0.61545247
-0.010425577 0.084137693 0.6144098
0.021289764 0.087585151 0.61907715
0.017247885 0.087424703 0.61734146
0.014748001 0.088220321 0.61839324
-0.004233364 0.086490661 0.61376721
-0.0056349803 0.085383251 0.61166948
-0.010087149 0.08461275 0.61127234
0.020351136 0.086712167 0.61506015
-0.0065897796 0.084522314 0.60846698
-0.0079247002 0.084008761 0.60777706
0.020666379 0.082487226 0.61906135
0.018536968 0.0813758 0.61914492
-0.0066407062 0.079032347 0.61283928
0.02256823 0.082771011 0.61671889
0.017562607 0.082051307 0.61571783
-0.004286455 0.079904392 0.61030078
-0.0091462974 0.079623759 0.60902292
0.023166738 0.084188864 0.6131112
0.019979805 0.084022403 0.61224931
-0.004577525 0.081409328 0.6055963
-0.0083083641 0.081309594 0.60525101
0.019367466 0.077558689 0.61680764
-0.0054638647 0.075686254 0.61076725
0.023955956 0.078343228 0.61486268
0.018815856 0.077231795 0.61459422
0.017055811 0.077362038 0.61188298
-0.0010304265 0.075452439 0.60731685
-0.0043709073 0.074918687 0.60897303
-0.0085998978 0.075076848 0.60664648
0.025186181 0.080649741 0.61036903
0.019821685 0.080985405 0.60890692
0.017538581 0.078484878 0.60924554
-0.00043269992 0.076997362 0.60442448
-0.0028621946 0.079136334 0.60309601
-0.0083244201 0.077368833 0.6022107
0.025041021 0.080219261 0.6068154
0.021906223 0.080054872 0.60610104
-0.0028370041 0.077760115 0.59972894
-0.0062969942 0.077629931 0.59918237
0.025344899 0.073973417 0.61312813
0.020035647 0.07273709 0.6134873
0.017197944 0.07323382 0.61050063
0.00019699335 0.071785048 0.60624295
-0.0036595333 0.070552923 0.60738903
-0.0081569571 0.070596568 0.60463876
0.027703723 0.076335363 0.6088379
0.017344184 0.075079188 0.60682106
0.0014908146 0.073727556 0.60282451
-0.0088493954 0.072807975 0.59970927
0.026840951 0.07775411 0.60411608
0.022622786 0.077954084 0.6024912
0.01910359 0.076047495 0.60227466
0.0016010348 0.074944049 0.59834194
-0.0019641127 0.075840943 0.59624022
-0.0063103288 0.074579276 0.59581715
0.025894206 0.077053174 0.60004878
0.024763606 0.076844446 0.59991354
0.0017884877 0.074380174 0.59449542
-0.0016027037 0.07454773 0.5933072
-0.0043147057 0.074155539 0.59277791
0.025844336 0.069697909 0.61076128
0.021148145 0.068730064 0.61056972
0.018168483 0.069316529 0.60821027
0.00094669871 0.067772113 0.6040116
-0.0025712717 0.066603914 0.60445815
-0.0067688748 0.066640362 0.60245454
0.029039798 0.071903035 0.60724378
0.017996976 0.070328563 0.6044609
0.0028849747 0.068950064 0.60073096
-0.008245917 0.067818739 0.59783733
0.029527105 0.073808394 0.60258061
0.023153841 0.076337397 0.59975064
0.019077396 0.07234098 0.60037184
0.00354122 0.070976742 0.59647024
-0.0070489328 0.070558496 0.59339237
0.028298922 0.075354345 0.59793127
0.024240043 0.07520441 0.59617788
0.02105505 0.073679201 0.59680361
0.0031368546 0.072199672 0.59230566
0.00054577179 0.07298667 0.59011269
-0.0043194294 0.072025858 0.58969301
0.028447984 0.075341538 0.5936327
0.026209082 0.075399108 0.5929293
0.00018069707 0.07303796 0.58653665
-0.0024691131 0.072325073 0.58595014
0.025907092 0.067145564 0.60797393
0.022415761 0.066514969 0.6073994
0.019590408 0.066904068 0.60609508
-0.0017498359 0.064322047 0.60114563
-0.0050463621 0.064387307 0.60044497
0.027829088 0.067505285 0.60464078
0.023288954 0.065695845 0.60350162
0.019733444 0.067111418 0.60284537
0.0024947468 0.065543503 0.59886104
-0.00084415823 0.063531712 0.597471
-0.005351346 0.064430237 0.59661222
0.029798202 0.068826795 0.60074764
0.023895234 0.065795496 0.59983397
0.020360285 0.06845963 0.59852469
0.0038653053 0.06668888 0.59440023
2.3666769e-05 0.063633114 0.59360117
-0.0053067636 0.065421857 0.5919441
0.030788513 0.071513906 0.59596318
0.023124706 0.072211742 0.59361321
0.022243895 0.069801912 0.59388071
0.0041757897 0.068363376 0.5891462
0.0029953048 0.070525073 0.58901954
-0.0047481712 0.067964867 0.58726239
0.030204158 0.072939985 0.59135354
0.026087202 0.073253021 0.58960056
0.023333188 0.070870787 0.59046537
0.004576616 0.069338486 0.58585012
0.0023156945 0.071250059 0.58382571
-0.0023845416 0.069748603 0.58334678
0.02834769 0.072217308 0.58754027
0.0012386907 0.070210792 0.58093733
3.8160011e-05 0.070015758 0.58074623
0.02901049 0.065266646 0.59707308
0.025338551 0.06487377 0.59678316
0.022282984 0.064494334 0.59529829
0.0043647215 0.062520511 0.59086418
0.00089788251 0.062574007 0.59060979
-0.0023900475 0.062359743 0.58908594
0.031488709 0.066908434 0.59376764
0.026471024 0.065724038 0.59537262
0.022571757 0.06609229 0.59195405
0.0055078659 0.064434394 0.58779722
0.00064677186 0.063165136 0.58881658
-0.0033603031 0.063374825 0.58544332
0.030990642 0.068838373 0.58949381
0.026779152 0.068906613 0.58710259
0.02360056 0.067464888 0.58880877
0.0057680402 0.066019692 0.5841251
0.0033539608 0.066354707 0.58092713
-0.0014897678 0.065598302 0.58153075
0.028523751 0.071080692 0.58701986
0.0024112817 0.068557806 0.58042759
-9.983778e-05 0.068617649 0.58021009
0.021123324 0.050599679 0.61044455
0.017912019 0.050231267 0.61055142
0.01306514 0.049474381 0.60969687
0.0083749555 0.049234439 0.6086728
0.0038115922 0.049287438 0.60644221
0.001476258 0.048102811 0.60492021
0.023795817 0.051538501 0.60794866
0.0027205665 0.049595103 0.60495812
-0.00042908452 0.049940899 0.60225946
-0.0027926881 0.049878281 0.59939885
0.026331328 0.052617773 0.60573411
-0.0017061103 0.050240878 0.59881729
-0.0030345228 0.050276365 0.59755683
0.028519135 0.056957342 0.59817827
0.025734613 0.057422906 0.59888595
0.021377796 0.056744769 0.59728479
0.0053873304 0.055482537 0.59312016
0.00090529211 0.054703683 0.59254026
-0.00096322037 0.054152954 0.59064436
0.029857725 0.059886016 0.59607464
0.025623878 0.060372613 0.59773588
0.020588018 0.058956146 0.59394461
0.0077408962 0.057771541 0.59053212
0.00090723485 0.057811752 0.59136438
-0.0016951952 0.056882277 0.58798754
0.032019004 0.062235199 0.59190583
0.022154899 0.061479717 0.58966303
0.0079795308 0.059662096 0.58621955
-0.0021173395 0.058693208 0.583462
0.031032376 0.063883297 0.58894342
0.027798181 0.063559555 0.58713955
0.024393078 0.062475771 0.58683664
0.0069253389 0.061069123 0.58232498
0.0034967046 0.061404519 0.58088046
-0.00039440021 0.060737215 0.58098137
0.022950195 0.046939924 0.60956275
0.018613171 0.04645893 0.60998404
0.013534368 0.045618858 0.60924006
0.0090405531 0.045650735 0.60769063
0.0040886551 0.045041475 0.60598809
0.0016044863 0.044604503 0.60402858
0.027188811 0.050048295 0.60573822
0.024409942 0.049002033 0.60744566
0.020349015 0.047315039 0.60652912
0.014252801 0.045952339 0.60557377
0.0097379237 0.045666285 0.60443383
0.005000921 0.046836533 0.60179627
-9.5689669e-05 0.046683513 0.60142362
-0.0024092291 0.046672739 0.59816909
0.028315403 0.051743861 0.60357451
0.02502108 0.050831519 0.60192513
0.021049207 0.049866293 0.59986329
0.018516762 0.048690274 0.59816301
0.0057618227 0.048139296 0.59625787
0.001462236 0.048806634 0.59623313
-0.0030370522 0.048243213 0.59545994
0.030055191 0.053176206 0.59839588
0.026204217 0.053553216 0.59996694
0.020498211 0.053372484 0.59779775
0.018367058 0.052051358 0.59512424
0.0099696759 0.051199131 0.59319669
0.0068060979 0.051936239 0.59426874
0.0004409384 0.050861411 0.59334874
-0.0022746325 0.05048148 0.59031683
0.031659454 0.054688923 0.59481198
0.020564765 0.055206992 0.59063667
0.019227182 0.053973716 0.59255379
0.010218306 0.052939687 0.59013706
0.0098403655 0.054041438 0.58783871
-0.0018817428 0.051524218 0.58618981
0.031845812 0.057764806 0.58987772
0.028865587 0.057002366 0.58724874
0.023305126 0.056873359 0.58776981
0.0086106788 0.055259906 0.58419114
0.0037302244 0.054455362 0.5808146
-0.00029772334 0.054721408 0.58176404
0.027423918 0.05954951 0.58632648
0.025031649 0.059718169 0.58623224
0.0070538744 0.057223022 0.58129555
0.0048107188 0.057328165 0.58051902
0.00095278956 0.057273574 0.58048236
0.023870293 0.042736568 0.6079998
0.019403588 0.041308597 0.60903144
0.014354325 0.040407315 0.60844004
0.0097895544 0.040486265 0.60705757
0.0049938466 0.040349793 0.60523266
0.001343308 0.040531125 0.60222518
0.028542224 0.044378195 0.60497415
0.026574939 0.043904763 0.60668385
0.020107575 0.044410154 0.60279596
0.016010769 0.042696454 0.60251164
0.010664193 0.042802319 0.60152441
0.007613562 0.042880662 0.59863216
-0.00052217953 0.041523475 0.59952515
-0.0019393563 0.0418313 0.59681255
0.030549124 0.046262052 0.60106945
0.022908607 0.047398593 0.60248321
0.02015499 0.046366714 0.60066807
0.017826105 0.046053134 0.5976181
0.010457107 0.045466065 0.59558171
0.0066565145 0.045170922 0.59726357
-0.0025044661 0.04323541 0.59358597
0.032197718 0.049142223 0.59710157
0.018200088 0.048085824 0.59429657
0.011315737 0.047374502 0.59213495
-0.0026668254 0.045184884 0.58849829
0.033071809 0.051922809 0.59262246
0.02164121 0.049979609 0.58909827
0.019123498 0.049736805 0.58838767
0.013819962 0.049185928 0.58708227
0.010229351 0.049023062 0.58612543
-0.0016919002 0.047695309 0.58408552
0.032521456 0.053134065 0.58856428
0.028924126 0.052860495 0.58680856
0.023788251 0.052682143 0.58644009
0.018902913 0.052057676 0.5852164
0.013944467 0.051089011 0.58469081
0.0090042679 0.050968084 0.58222288
0.0044725984 0.050505597 0.58040011
0.00036917813 0.050079901 0.58143795
0.014459006 0.035531681 0.60726923
0.011190258 0.033876121 0.60577983
0.024645867 0.037997771 0.60612839
0.020203054 0.03646357 0.60720855
0.015685122 0.035980284 0.60692108
0.010580744 0.03609053 0.60578966
0.0051931012 0.034726053 0.60337454
0.0015920904 0.03573738 0.6006254
0.029270152 0.040388264 0.6029498
0.027577013 0.039102864 0.60446441
0.019048568 0.041552044 0.60059971
0.016679566 0.039347365 0.59908712
0.012122978 0.039176412 0.59797865
-0.00016814657 0.036744677 0.59810281
-0.0011856537 0.036953356 0.59537798
0.030879458 0.042343874 0.59982467
0.017783903 0.040913448 0.59606951
0.012093077 0.040041678 0.59488076
-0.0018407758 0.038827982 0.59134537
0.032431431 0.04421417 0.59489042
0.019691767 0.042536642 0.59179002
0.012054496 0.042120513 0.59022969
0.011737345 0.041287065 0.58716899
-0.0016678702 0.04124378 0.58639657
0.032919899 0.046642087 0.59096658
0.03017021 0.045491625 0.5873692
0.022467587 0.045281872 0.58874565
0.018695157 0.044963196 0.58687568
0.014338188 0.044991776 0.58512342
0.011000862 0.044184491 0.58594096
0.0032108147 0.04270611 0.58128685
2.8152019e-05 0.043318443 0.58274209
0.031726699 0.048898976 0.58799875
0.028980501 0.048160553 0.58690822
0.024248492 0.047350116 0.58552492
0.020219816 0.046885908 0.58472484
0.014989081 0.04633186 0.58384639
0.010081081 0.046048481 0.58150911
0.0056188647 0.045319356 0.58098042
0.0022703372 0.046417776 0.58066255
0.019362152 0.029244985 0.6056003
0.015886968 0.030422468 0.60535318
0.012365383 0.030049615 0.60440648
0.0086322902 0.028598845 0.60275406
0.025276154 0.033077508 0.60430145
0.02150348 0.032471552 0.60544157
0.01610929 0.031261306 0.60498065
0.010234611 0.030107439 0.60319984
0.0064443704 0.030719407 0.60196429
0.0025434997 0.031286232 0.59872621
0.030177865 0.036055252 0.60029817
0.028442703 0.034648396 0.60202473
0.00081118383 0.031702865 0.59581107
-2.9636547e-05 0.033007924 0.59337199
0.031209365 0.037622008 0.59721869
0.017403942 0.037178259 0.59368777
0.014157808 0.036967903 0.59275413
-0.00017336383 0.034472067 0.58938706
0.032030318 0.039432164 0.59298062
0.031606719 0.039100103 0.5898633
0.01924799 0.039045908 0.58983839
0.014062609 0.038431689 0.58876866
0.00080524944 0.036370307 0.58474457
0.03216007 0.042367268 0.58983177
0.030133339 0.041539557 0.58730668
0.025434911 0.041811038 0.58479875
0.020041369 0.041005701 0.58368295
0.01570579 0.040800888 0.5819816
0.01060359 0.039264753 0.58074433
0.0056222603 0.038824312 0.5808962
0.0019368436 0.039014138 0.58182615
0.025694877 0.04314778 0.58431822
0.021356832 0.042450327 0.58316338
0.015150382 0.04068967 0.58127922
0.010765512 0.041856568 0.5806157
0.007562777 0.041856743 0.58038855
0.024988566 0.02672825 0.60546196
0.021519365 0.0264441 0.60559553
0.016679129 0.025800742 0.60522199
0.011797048 0.025566772 0.60374153
0.0072836652 0.025132399 0.60197735
0.0042383205 0.02517752 0.60058242
0.027108707 0.028694823 0.60368055
0.023395682 0.028308816 0.60506725
0.010884056 0.02825794 0.60279804
0.0060066786 0.02745422 0.60091376
0.0026563052 0.026394956 0.59758395
0.03111998 0.031101625 0.59921545
0.029678687 0.03110379 0.60033417
0.0017200056 0.029482659 0.59400254
0.00088954903 0.027833339 0.59182954
0.031907529 0.033089872 0.59529352
0.0012967028 0.030464225 0.58765185
0.032147955 0.034698486 0.59225118
0.031309593 0.035004452 0.58953333
0.004660191 0.032342616 0.58257645
0.0022233725 0.032219216 0.58456379
0.029363593 0.036263339 0.58628923
0.026116051 0.036740363 0.5838334
0.021757893 0.037358321 0.58200204
0.016042341 0.037041523 0.58066791
0.011184061 0.035168454 0.57995111
0.0071016401 0.034524318 0.58095062
0.021119401 0.035884362 0.58003342
0.016935783 0.035871238 0.5791865
0.013875411 0.035061769 0.57846457
0.021834897 0.023089595 0.60373092
0.01757662 0.021601578 0.60261434
0.012896052 0.021056872 0.60167849
0.0085221706 0.021754034 0.60030556
0.027503256 0.025056817 0.60073143
0.023782842 0.022710394 0.60129404
0.019983169 0.020696223 0.60094982
0.011605659 0.019832648 0.59886658
0.0080050379 0.021056321 0.59765935
0.0047920626 0.022410102 0.59505135
0.0014012661 0.024318721 0.59380728
0.031437941 0.02785866 0.59793192
0.029246796 0.025847182 0.59729564
0.0046977177 0.02255398 0.59109926
0.0016445089 0.024853926 0.59041214
0.0321205 0.030139364 0.59385204
0.030750133 0.027300432 0.59250844
0.0052523147 0.024643447 0.58576691
0.0024116505 0.026398037 0.58703315
0.032578614 0.031102628 0.59117663
0.030962791 0.030215077 0.58824074
0.027386699 0.02941576 0.58518374
0.010848964 0.027685549 0.58096838
0.006339442 0.027228944 0.58185714
0.0030373968 0.028999642 0.58357459
0.030051112 0.032386202 0.58495289
0.026502302 0.032431446 0.58268493
0.021980882 0.031734064 0.58116943
0.016878363 0.031178828 0.57991076
0.012329573 0.030907966 0.5789634
0.0080376733 0.029962853 0.57923645
0.022403628 0.034566175 0.57967699
0.017289814 0.034117583 0.57848555
0.013786599 0.033714235 0.57791191
0.031134713 0.050926656 0.53408951
0.027377496 0.050805464 0.53334343
0.03144487 0.052666392 0.53114599
0.027881565 0.052399438 0.53052527
0.031072136 0.053625491 0.52827919
0.029257879 0.053634413 0.52785033
0.017375976 0.017155776 0.59999114
0.014844706 0.017185032 0.59958738
0.0270111 0.021956246 0.59800202
0.024194103 0.019258207 0.59824097
0.020295922 0.017997259 0.59921926
0.012771137 0.016894855 0.59719414
0.0098528322 0.017728467 0.5949744
0.0071164109 0.019069845 0.59262079
0.028261354 0.022452965 0.59501326
0.027129199 0.01962084 0.59422672
0.0085802674 0.017856102 0.58965611
0.0069379453 0.020174906 0.58960098
0.029159751 0.024867352 0.59116226
0.027378671 0.022539182 0.58897698
0.010295158 0.020982184 0.58476335
0.0075462535 0.022518054 0.58578771
0.029163904 0.026956748 0.58818489
0.026521344 0.025523029 0.58520907
0.022319863 0.024152961 0.58149427
0.017832328 0.023692422 0.5802955
0.012346344 0.024034031 0.58174562
0.0087085012 0.025144327 0.58267558
0.025186494 0.028045617 0.58272338
0.022248559 0.027172066 0.5811947
0.017927762 0.02644914 0.58010268
0.013862638 0.027064092 0.58000255
0.039290771 0.033453576 0.56639349
0.038316667 0.033099364 0.56627107
0.0096720252 0.030232809 0.55911893
0.0085843932 0.030351657 0.55890965
0.039816692 0.034733638 0.56442684
0.037043415 0.034727331 0.5630421
0.015174479 0.032935835 0.55580068
0.011755031 0.032202482 0.55683923
0.0088342624 0.031692978 0.55669165
0.039823323 0.035981443 0.56078941
0.036968913 0.036667809 0.55891913
0.034066968 0.036568619 0.5575521
0.016600249 0.03486421 0.55322415
0.013406545 0.034366019 0.55302286
0.010207102 0.03303434 0.5535512
0.036836952 0.0381568 0.55488402
0.033392768 0.038509212 0.55311918
0.031214055 0.038636185 0.55073625
0.021881502 0.037201203 0.54863322
0.018814769 0.037136756 0.54950505
0.015127808 0.036159508 0.54946411
0.032485083 0.03994352 0.54905295
0.030123243 0.040641807 0.54759246
0.023890803 0.039947733 0.54595065
0.020692497 0.038702339 0.54637367
0.033097371 0.042119417 0.54323971
0.029975915 0.042542577 0.54337549
0.025423579 0.041706998 0.54240143
0.022888053 0.040962659 0.54101539
0.033398628 0.042904317 0.54100269
0.031231651 0.045174997 0.53902745
0.026459403 0.044550087 0.53746319
0.023521813 0.042283852 0.53848809
0.031257097 0.047859631 0.53449017
0.027608387 0.047344014 0.53357846
0.031595331 0.051210649 0.53128886
0.028281875 0.051032022 0.53040278
0.031575259 0.052781895 0.52800596
0.029311126 0.052753963 0.52756923
0.018466342 0.012564281 0.59770292
0.016125713 0.012488078 0.59730834
0.024556559 0.01506497 0.59526539
0.020900588 0.013702726 0.59670478
0.014055956 0.012880104 0.59475631
0.011474098 0.013958421 0.59236717
0.02954787 0.016080584 0.59063411
0.02721606 0.016300581 0.59263909
0.0099637434 0.014859615 0.58850378
0.0092162099 0.014233245 0.58562869
0.030466218 0.017945802 0.58778828
0.027831331 0.019891385 0.58788902
0.011032674 0.018176267 0.5836938
0.009274872 0.015872886 0.58250058
0.030266941 0.019070935 0.58518988
0.027247181 0.020469353 0.58324844
0.024284067 0.022385925 0.58129126
0.016415365 0.021724639 0.57937205
0.013634706 0.019196309 0.57976466
0.010369871 0.017027268 0.58027613
0.027275354 0.020257186 0.57950222
0.023419958 0.021698676 0.57863218
0.018634427 0.02138681 0.57762676
0.015495369 0.01916446 0.57650411
0.04079932 0.030123644 0.56683427
0.037712321 0.030901708 0.565588
0.010908946 0.028150477 0.55895162
0.0076348502 0.026857182 0.55866885
0.042311691 0.032641042 0.5633381
0.035922013 0.031652283 0.56293315
0.033653378 0.031457789 0.56006008
0.016548293 0.029741257 0.55601972
0.01322148 0.029409684 0.5575524
0.007505741 0.029131107 0.55481184
0.041792013 0.033814095 0.55844438
0.039693635 0.03613396 0.557087
0.032440312 0.033461764 0.55658144
0.019316863 0.032144524 0.55323482
0.011804789 0.033287261 0.55032873
0.009945957 0.030611612 0.55054277
0.041212849 0.033707041 0.55507749
0.039024759 0.035643116 0.55300725
0.032049347 0.035778485 0.55311292
0.030924445 0.035577834 0.55054837
0.022725854 0.034643129 0.54875505
0.020577107 0.035039052 0.5505715
0.014273442 0.033365935 0.5470801
0.011875152 0.03099107 0.54804736
0.037411656 0.035915859 0.54977804
0.034772776 0.037646268 0.54731548
0.029089382 0.037059091 0.54605061
0.025996579 0.036773201 0.54556561
0.020114103 0.036324948 0.54354447
0.017175496 0.034403142 0.5448271
0.034398995 0.039442666 0.54254532
0.028601451 0.038107987 0.54168808
0.028400701 0.038198657 0.54119146
0.022319306 0.038311534 0.53963125
0.035296582 0.04108265 0.53809863
0.031019064 0.041620299 0.53695887
0.028095391 0.041172393 0.53599799
0.023529766 0.040007357 0.53534114
0.036062047 0.042739559 0.53365993
0.032141186 0.044240229 0.53303033
0.02880857 0.043185107 0.53194457
0.024782946 0.042034753 0.53075016
0.035953052 0.043698937 0.53052348
0.033470564 0.045140013 0.52805036
0.029042616 0.045095328 0.52705574
0.025706215 0.043227151 0.52773541
0.033976294 0.047063038 0.52379781
0.030164575 0.047263045 0.52311683
0.034652635 0.048626922 0.52018267
0.030781727 0.048904933 0.51946318
0.019482538 0.00793791 0.59594107
0.016692296 0.0078474153 0.59525937
0.029423516 0.0097597856 0.5931254
0.025332885 0.010187577 0.59375614
0.022167521 0.0097368658 0.5948934
0.014753835 0.0089911781 0.59318197
0.012126995 0.0089324247 0.59040761
0.0090546235 0.0080910586 0.58805925
0.030631565 0.012217499 0.5909301
0.027439455 0.013083026 0.592776
0.010521481 0.011398023 0.58871013
0.0087186564 0.010081297 0.58557993
0.031844866 0.015159218 0.5866341
0.030047745 0.017626889 0.5850125
0.010808483 0.015567269 0.58038592
0.0089937327 0.012685455 0.58097333
0.032054886 0.015940405 0.5823167
0.030023972 0.017874382 0.58108705
0.012719067 0.016203661 0.57673049
0.01075303 0.013797345 0.57710189
0.029295957 0.017690875 0.5773586
0.024916597 0.018674541 0.5751828
0.019684914 0.018268554 0.57397413
0.01488727 0.016410567 0.57399583
0.025535492 0.017100111 0.57238591
0.02108166 0.01696004 0.5715906
0.044850379 0.022508156 0.56834269
0.042092018 0.022899278 0.56870836
0.010599315 0.019414848 0.5598194
0.0073982384 0.019508455 0.55996335
0.0051904954 0.018584503 0.55856419
0.045641176 0.024439789 0.56590301
0.04250703 0.025751792 0.56690806
0.037785571 0.02521272 0.56397498
0.012395171 0.022455338 0.55798125
0.0070392974 0.02224575 0.55802387
0.0050499178 0.020436663 0.55594188
0.045455121 0.026661407 0.56334412
0.043144837 0.027986996 0.56081331
0.037721951 0.026920661 0.55958283
0.034928888 0.028541349 0.55847675
0.017071625 0.026720311 0.55402195
0.014160283 0.024501417 0.5537585
0.0085856449 0.024652481 0.55236405
0.0058685374 0.022535777 0.55356067
0.042795073 0.030640494 0.55703825
0.039026488 0.028212234 0.55582237
0.034303695 0.029541083 0.55461973
0.019430077 0.028213881 0.55057698
0.014598564 0.025820319 0.54971898
0.010270137 0.027459379 0.54902971
0.041697249 0.031993598 0.55449843
0.039328873 0.03186221 0.55178469
0.035103928 0.03117007 0.55010945
0.031843081 0.033063821 0.54856521
0.022995427 0.031853519 0.5470627
0.020300323 0.029717874 0.5465194
0.015476215 0.029551663 0.54587853
0.012010697 0.029422212 0.5473727
0.034524214 0.034017622 0.5460974
0.031646911 0.033486251 0.54416126
0.02553919 0.03298194 0.54280204
0.022180211 0.032967437 0.54250771
0.018026868 0.032310747 0.54400611
0.035237174 0.034896586 0.54073334
0.029870912 0.034319151 0.54044199
0.028564338 0.034251556 0.54006696
0.023128893 0.033517271 0.53762633
0.036102228 0.037026376 0.53625232
0.031114452 0.036802657 0.53458065
0.029476652 0.036552511 0.53440267
0.023914881 0.035719231 0.53327501
0.036241189 0.038601264 0.53287911
0.034621861 0.039267648 0.53096575
0.03074393 0.038128909 0.530128
0.025275959 0.037957445 0.52930987
0.033987723 0.040375296 0.5276137
0.029160794 0.03982852 0.52609789
0.026906811 0.037782896 0.52578741
0.021032987 0.0036016498 0.59414953
0.017190356 0.0031543877 0.59334463
0.029861353 0.0065398151 0.59183258
0.026994402 0.0054017249 0.59288305
0.023505693 0.0050829463 0.59403574
0.014692267 0.0040359441 0.59188652
0.012114284 0.0039259782 0.58911556
0.0098779444 0.0047130585 0.58673972
0.03176875 0.0078795422 0.5895372
0.010171983 0.006746687 0.58702606
0.0091353301 0.0057738684 0.58396757
0.034353077 0.010405255 0.58535689
0.008421218 0.0074531557 0.5791381
0.03734035 0.010610176 0.58064228
0.034935392 0.012944426 0.58024389
0.0096042994 0.010357436 0.57408506
0.0080505367 0.0080171153 0.5727483
0.034140605 0.013221066 0.57584465
0.031186085 0.015547372 0.57465428
0.014870754 0.01399483 0.57087302
0.012402598 0.011209594 0.57063001
0.044745684 0.016410157 0.5710454
0.04213798 0.016840516 0.57118201
0.033889294 0.013258439 0.57227039
0.03147608 0.015144428 0.57050687
0.02608238 0.015435498 0.56891292
0.021713473 0.015164435 0.56794995
0.016810782 0.013771594 0.56689632
0.012577413 0.012226492 0.56487501
0.0075966641 0.013205647 0.56235439
0.0054630246 0.012403676 0.56086665
0.046145611 0.019655127 0.5689438
0.041809384 0.019871954 0.56962264
0.038322799 0.018133886 0.56659395
0.030320454 0.014700104 0.5667603
0.019379944 0.013572397 0.56381571
0.012393744 0.015716292 0.56020385
0.0072122999 0.016129887 0.56117332
0.0043840166 0.015518831 0.55854833
0.046731498 0.021652173 0.56555074
0.04446058 0.020886403 0.56209463
0.037247006 0.02075528 0.56271529
0.0145222 0.018303929 0.55722523
0.0083152521 0.017198022 0.55326205
0.0048071202 0.01761779 0.55526197
0.045793179 0.02426108 0.56275254
0.042639486 0.023213845 0.56005442
0.039040595 0.022667408 0.5592044
0.013971071 0.020083087 0.55290198
0.010409271 0.020464268 0.5520696
0.0062551629 0.020521685 0.55302602
0.035888769 0.031158723 0.53821492
0.032608666 0.02964627 0.53835917
0.028258298 0.029330306 0.5370267
0.024433687 0.030115239 0.53533888
0.035843782 0.031663463 0.53595722
0.034368873 0.032569461 0.53289795
0.029949125 0.032162007 0.53116858
0.02567911 0.031453587 0.53176212
0.036622114 0.036103379 0.53083527
0.034683306 0.033778004 0.5291968
0.029730564 0.033658471 0.52835178
0.026313504 0.034472689 0.52764082
0.035370924 0.036309645 0.52457559
0.030515458 0.036459535 0.52318478
0.027442828 0.036493752 0.52358574
0.036030479 0.037525862 0.51992244
0.03150915 0.037803024 0.51878768
0.036918249 0.03888439 0.51566517
0.032527149 0.038848188 0.51453668
0.021749616 -0.00069256825 0.59272724
0.017575581 -0.0011622342 0.59186685
0.030521732 0.0030077528 0.58969927
0.027989874 0.0011527902 0.59067494
0.024176508 -8.9343637e-05 0.59149903
0.016127236 -0.0011944491 0.58948034
0.01317504 -0.00038344041 0.58693951
0.011327928 1.6356818e-05 0.58426327
0.037224442 0.0035401918 0.58628893
0.033032108 0.0033934833 0.58748645
0.011868568 -0.0016370765 0.58353078
0.0098308781 0.0011743577 0.58178037
0.0067019202 0.00046481192 0.5786652
0.038903471 0.0055079199 0.58379716
0.035642888 0.0069481749 0.58502501
0.0080565996 0.0043574367 0.57800049
0.0060461238 0.0021961983 0.5757888
0.039197046 0.0081814434 0.5796178
0.0071843136 0.0049854619 0.57188469
0.045342028 0.0096840076 0.57348859
0.040383607 0.0090096854 0.57389015
0.036472362 0.0098626669 0.57367796
0.011812708 0.0073575117 0.56754053
0.0084222816 0.0057408484 0.56619197
0.004669223 0.0055150669 0.56360018
0.046584956 0.012592034 0.57141465
0.041354164 0.013013806 0.57190257
0.036919847 0.011328526 0.5695281
0.033870898 0.013118804 0.56919074
0.025852446 0.01223579 0.56516725
0.024891814 0.01164647 0.56482369
0.015555706 0.011109767 0.56452405
0.013096206 0.0091443732 0.56367815
0.0075677875 0.0094177611 0.56348419
0.0039501023 0.0083436929 0.56094617
0.04709696 0.014947612 0.56757587
0.038276721 0.013669502 0.56531894
0.032919679 0.012488291 0.56515825
0.028217006 0.011703122 0.56430274
0.022925187 0.01135882 0.56295997
0.017941497 0.011433488 0.56156737
0.013814622 0.01135917 0.55932122
0.0048034582 0.010944255 0.55729061
0.046421222 0.016061988 0.5641225
0.043679208 0.016397718 0.56185579
0.03939341 0.016264861 0.56080902
0.014254863 0.013531141 0.55458438
0.0097881779 0.013289843 0.55359191
0.0065198466 0.012150213 0.55454135
0.042021669 0.019571912 0.55982029
0.040296022 0.019011261 0.55916077
0.029906217 0.016112138 0.55114174
0.027539361 0.016012155 0.55048674
0.013701105 0.016148906 0.55258739
0.011647396 0.01656496 0.55230516
0.031855643 0.018957775 0.54824322
0.027286181 0.018469671 0.54704291
0.031672999 0.01977773 0.54582995
0.027959678 0.019177774 0.54504424
0.036288843 0.028540704 0.53583962
0.034327209 0.026610374 0.53499383
0.028889615 0.026472583 0.53374952
0.026367711 0.027298838 0.53310412
0.036431007 0.028519269 0.53464574
0.034394246 0.027430277 0.53129363
0.030042971 0.026960775 0.53007197
0.026652407 0.028030105 0.53116041
0.03401012 0.027050603 0.52772558
0.030578647 0.02722979 0.5271455
0.036969569 0.035852578 0.51816154
0.032009855 0.036490064 0.51565254
0.037415776 0.036808401 0.51466888
0.032963634 0.03725975 0.51366293
0.021491438 -0.0039407262 0.59087491
0.019122647 -0.0042521898 0.59030008
0.028296575 -0.0023423862 0.58815217
0.024049748 -0.0040954784 0.58801049
0.018753432 -0.004924038 0.58684635
0.014584799 -0.0036973353 0.58462358
0.037146155 0.0017213337 0.58532035
0.034502104 -0.00068935147 0.58534694
0.030551944 -0.0027473457 0.5857811
0.013627348 -0.0042331135 0.58149827
0.010279725 -0.0029987125 0.57933927
0.0075062532 -0.0011183447 0.5783509
0.039206922 0.0019902028 0.58170915
0.037196621 -0.0003582621 0.58190769
0.0093903262 -0.002954592 0.5750913
0.0073267892 -0.0010252548 0.5738678
0.044312619 0.0025668088 0.57611156
0.04225646 0.0031489376 0.57846606
0.0059733484 -0.00026224507 0.56948262
0.0053625032 -0.00090148812 0.56645256
0.046290152 0.0060382113 0.57338881
0.042306919 0.0065450976 0.5746032
0.036970191 0.008207716 0.57118434
0.013157188 0.0059001036 0.5652076
0.0071666464 0.0031974763 0.56610042
0.004341891 0.0018704133 0.56335533
0.048576474 0.0084597729 0.57024908
0.03717139 0.0084269401 0.56841063
0.026075445 0.0063489955 0.56207579
0.014159383 0.0061491467 0.56255376
0.0032110829 0.0040927371 0.55923986
0.048695959 0.010334579 0.56571782
0.037816584 0.010052606 0.56304789
0.034118876 0.008436691 0.56250745
0.028836429 0.0079672188 0.56178653
0.024297293 0.0075949924 0.5605256
0.019465458 0.0070550172 0.5586043
0.015716968 0.0078075081 0.55785424
0.0048862845 0.0062753428 0.55480808
0.047476746 0.011853669 0.56246984
0.044707973 0.011687124 0.56081402
0.040707022 0.011424692 0.56055719
0.030242614 0.0096472241 0.55370116
0.027092364 0.009462256 0.55307978
0.013976005 0.0089327525 0.55398893
0.010393248 0.0082968697 0.55241334
0.0072064232 0.0078259371 0.55258417
0.03442926 0.012929998 0.55117434
0.031149164 0.012236124 0.55243725
0.026199371 0.012005961 0.55086905
0.024246844 0.011030696 0.54789948
0.035590928 0.015057705 0.54845154
0.033705674 0.016778056 0.54845637
0.025482669 0.015402606 0.54652691
0.023821136 0.012973521 0.54495728
0.03791184 0.016729403 0.54354972
0.033332102 0.017828824 0.54279816
0.027946562 0.017214565 0.5415771
0.023779644 0.01540561 0.54031748
0.03707147 0.016356479 0.54065973
0.032893874 0.017239979 0.53931606
0.029071206 0.016543334 0.53853184
0.025596347 0.015894458 0.53815812
0.034821168 0.024266303 0.528943
0.030976893 0.023812179 0.52797127
0.035617102 0.024745982 0.52502847
0.031989522 0.024760544 0.52411377
0.035760231 0.025015265 0.52160466
0.032515414 0.024978194 0.52064276
0.023817727 -0.0068702111 0.58428103
0.020800957 -0.0075042122 0.5837568
0.034327243 -0.0043549198 0.58245325
0.030766722 -0.0058170995 0.58227116
0.026024552 -0.0075348369 0.58230311
0.019777143 -0.0085018668 0.58072585
0.015919942 -0.007272095 0.57863748
0.01251875 -0.0064630299 0.57702166
0.0392875 -0.0010173847 0.57874393
0.036698654 -0.0035485458 0.5794093
0.032939687 -0.0065249437 0.57928425
0.015512285 -0.0081596272 0.57489711
0.011727083 -0.0060269185 0.57315069
0.0092550656 -0.0038813511 0.57139254
0.044819839 0.0012315195 0.57540572
0.042110361 -0.00087826792 0.57633841
0.038791928 -0.0036098412 0.57661623
0.010801814 -0.0060725464 0.56958967
0.0078505147 -0.004225668 0.56795377
0.0054006428 -0.0027341321 0.56553286
0.046073534 0.0024158685 0.57264119
0.043995589 0.00013599172 0.57081342
0.0084982757 -0.00336954 0.56197554
0.005267892 -0.0016149282 0.5627498
0.047997959 0.003855695 0.56780297
0.044156473 0.00080389157 0.5675754
0.039316788 0.0018263943 0.5632515
0.033736661 0.0019635586 0.56328082
0.031949792 0.0022908151 0.56189352
0.022550238 0.001565041 0.55923545
0.020537864 0.00064982381 0.55965519
0.015368698 -0.00060654711 0.55721134
0.0094178654 -0.0024969131 0.55880618
0.0057031959 -0.00032875687 0.55729842
0.048205022 0.0058644302 0.56380463
0.045121264 0.004478598 0.56116754
0.039892163 0.0045292117 0.5609948
0.03463266 0.005291692 0.5620383
0.03069533 0.0046138624 0.5593164
0.024596475 0.004118531 0.5573684
0.019973479 0.0035756119 0.55835193
0.015654283 0.002141702 0.55491048
0.011030959 0.0011942834 0.55283749
0.0068875812 0.0016629808 0.55371249
0.047304634 0.009017095 0.56170011
0.044851508 0.00773957 0.56034523
0.041720122 0.0076592807 0.55965048
0.034601394 0.0054626651 0.55310929
0.0310962 0.0060560331 0.55449772
0.026186889 0.005479184 0.55340737
0.024136681 0.0045510055 0.55053312
0.01431179 0.0050453348 0.55302584
0.011029882 0.0044070911 0.55207288
0.035931036 0.0083047468 0.55073732
0.033073217 0.0084780231 0.55244625
0.025423553 0.0078000259 0.55034089
0.023723129 0.007028779 0.54753208
0.038518779 0.010818113 0.54696846
0.023219265 0.0094281267 0.54312813
0.040682912 0.013908129 0.5437752
0.040032782 0.013268493 0.54314029
0.023702268 0.011915036 0.53881466
0.0382687 0.014049914 0.53887737
0.034816276 0.014724646 0.53601307
0.029834803 0.013988737 0.53502119
0.026227109 0.013234489 0.53633243
0.03595319 0.022288751 0.52281278
0.033185381 0.022210333 0.52184129
0.036512952 0.022660252 0.52065092
0.03316287 0.022699641 0.51962632
0.02948636 -0.0074765519 0.57888293
0.025194388 -0.0090687964 0.57974195
0.021924905 -0.0095558371 0.57914317
0.018967535 -0.0086841891 0.57676357
0.036088664 -0.0057886224 0.57676321
0.032288697 -0.0072465902 0.57634842
0.02711517 -0.0090296976 0.57482886
0.022663034 -0.0096629513 0.57354236
0.017399808 -0.0086013414 0.57269055
0.013994515 -0.008006339 0.57101279
0.041545361 -0.0037491061 0.57302672
0.038127329 -0.0053028492 0.57300198
0.033475764 -0.0069895587 0.57126683
0.02855828 -0.0083393808 0.56994647
0.023927875 -0.0089297714 0.56869608
0.018696189 -0.0083053783 0.56764305
0.013792829 -0.0076624677 0.56693572
0.010225576 -0.0067845709 0.56522369
0.042148679 -0.0025736559 0.57029849
0.038850598 -0.0042640194 0.56830251
0.035480514 -0.0060482249 0.56699717
0.02733851 -0.0077329734 0.56577361
0.026124984 -0.0082504973 0.56647927
0.019115768 -0.0077551096 0.5630877
0.014725087 -0.0065615075 0.56236356
0.010586943 -0.0055752946 0.5624252
0.047205307 0.00198201 0.56490415
0.043969639 0.00078443997 0.56550336
0.039781809 -0.00083512999 0.56432337
0.034878884 -0.0019410793 0.56208664
0.033004709 -0.003945624 0.55983925
0.02428278 -0.0047026649 0.55750227
0.020525703 -0.0035907691 0.55848002
0.015429433 -0.0032406123 0.55813324
0.011207577 -0.0025333441 0.55751514
0.0081988983 -0.0017456757 0.55519623
0.047435805 0.0026758322 0.56377918
0.045571145 0.002375342 0.56258768
0.033428483 -0.00073500071 0.55921203
0.032960579 -0.00090977177 0.55691582
0.025120232 -0.0021350048 0.55495715
0.023038872 -0.0018042913 0.55652189
0.010168493 -0.00099063944 0.55404168
0.035081305 0.0015646778 0.55281049
0.033763882 0.0014770292 0.55447924
0.024673121 0.0015362836 0.5520426
0.024255792 0.0003110515 0.55020696
0.038593017 0.0044156797 0.54869938
0.022901975 0.0031382209 0.54502422
0.039635688 0.0053427406 0.54554749
0.023281304 0.0040720021 0.54163581
0.039834179 0.0081109516 0.54063511
0.025245503 0.0069012092 0.53696245
0.039589185 0.010112643 0.53621006
0.036765944 0.010808233 0.53316355
0.030072046 0.010062493 0.53171647
0.02689831 0.0086462125 0.53303725
0.035013549 0.01030344 0.53193349
0.032513484 0.010292793 0.53144032
0.029315876 -0.0083106551 0.5676102
0.024222497 -0.0087490305 0.56630129
0.033379029 -0.0067571928 0.56572688
0.030154316 -0.0072600944 0.56500679
0.02459259 -0.0077823889 0.56360859
0.021333698 -0.0077899159 0.56247681
0.033705678 -0.0055464907 0.56301481
0.030274685 -0.0052518141 0.56044281
0.026238006 -0.0056616738 0.55950314
0.022157056 -0.0066429153 0.56011683
0.031424459 -0.0034697969 0.55561978
0.02738025 -0.0038566645 0.55430835
0.035952698 -0.0018288442 0.5509178
0.033290043 -0.0037232493 0.55170435
0.027300149 -0.004136737 0.5504899
0.024993524 -0.0028424943 0.54811686
0.041813441 -0.00051216967 0.5453589
0.039512865 0.00026807003 0.54686958
0.023563337 -0.0011685318 0.5432089
0.021987099 -0.0013096668 0.54110503
0.041721754 0.00039819814 0.54521847
0.040243793 0.0017753569 0.54376805
0.023912344 0.00036885962 0.53974736
0.022001764 -0.00091320695 0.54056942
0.040063091 0.0036840346 0.53838646
0.026345221 0.0025333483 0.53518772
0.040118344 0.0055831494 0.53433806
0.036964424 0.006057905 0.53132689
0.031712204 0.0054579852 0.53010219
0.027956273 0.0041739224 0.53141195
0.035754535 0.0084480122 0.53133607
0.033400979 0.0081287362 0.53070217
0.033305187 -0.0058412785 0.54783446
0.02935328 -0.0061352728 0.54687876
0.038184699 -0.0041601844 0.54464221
0.035027608 -0.0065705422 0.54434079
0.029452473 -0.0070137596 0.54312444
0.026315363 -0.0052812751 0.54184449
0.039866071 -0.0028942209 0.54095852
0.028905733 -0.0072268853 0.53944975
0.026155826 -0.0041247793 0.53751296
0.039994024 -0.00078716036 0.53658468
0.03902005 -0.0019004429 0.53356099
0.030291628 -0.0024848888 0.53117514
0.027778767 -0.0019214479 0.53343749
0.039737307 0.0017289016 0.53356147
0.037418224 0.0007324852 0.53126055
0.03260551 0.00031082332 0.53000301
0.029041737 0.00044114795 0.53108191
0.034260221 -0.0076226294 0.54116851
0.031855538 -0.0078254035 0.54096848
0.038790084 -0.0055869538 0.53953236
0.035985213 -0.0078313332 0.53649545
0.032714818 -0.0083087794 0.53557241
0.028686482 -0.0065823495 0.53594387
0.039377708 -0.0045118313 0.53674382
0.036601778 -0.0064791106 0.53306133
0.033213243 -0.0067148544 0.53184128
0.029217321 -0.0053004734 0.53351372
0.036263835 -0.002731055 0.53128195
0.033656165 -0.0032258388 0.53072852
0.02947744 -0.020811338 0.5461157
0.028003342 -0.021252716 0.54588664
0.030231312 -0.020072052 0.54451442
0.035636652 -0.010657085 0.53385967
0.034573466 -0.011059741 0.5334754
0.036759816 -0.010152357 0.53164232
0.034258489 -0.010261932 0.5308919
0.036369428 -0.0083569903 0.52898055
0.035477616 -0.0085185356 0.5288198
0.028485835 -0.024437729 0.54923189
0.02730277 -0.024702352 0.54896152
0.030315399 -0.023197412 0.54613763
0.027608573 -0.02305392 0.54602551
0.034965433 -0.021567237 0.54149437
0.031556752 -0.021304868 0.54195291
0.028569588 -0.022035234 0.54284644
0.036408886 -0.021148471 0.53817403
0.033211194 -0.021271789 0.53827941
0.037657853 -0.017452449 0.5329197
0.035627183 -0.017225262 0.53187871
0.038269196 -0.014933687 0.52967834
0.035626348 -0.015034318 0.52922022
0.035796203 -0.024053454 0.53977847
0.033126719 -0.02452907 0.53992677
0.037605241 -0.023366611 0.53634703
0.034350321 -0.023581751 0.53588688
0.038757905 -0.021682167 0.53178728
0.036015026 -0.020880578 0.53190219
0.038456738 -0.019132994 0.52907032
0.036725145 -0.018877124 0.52928507
