# .PCD v0.7 - Point Cloud Data file format
VERSION 0.7
FIELDS x y z
SIZE 4 4 4
TYPE F F F
COUNT 1 1 1
WIDTH 1294
HEIGHT 1
VIEWPOINT 0 0 0 1 0 0 0
POINTS 1294
DATA ascii
0.30325356 -0.13033403 0.83603007
0.30274737 -0.13292357 0.83585048
0.30274191 -0.13792148 0.83605802
0.30270734 -0.14290249 0.83629918
0.30271471 -0.14789972 0.83669925
0.30269068 -0.15288624 0.83698678
0.30269554 -0.15782543 0.83728886
0.30269533 -0.16303356 0.83741516
0.30268732 -0.16801889 0.83788288
0.30270541 -0.17295361 0.8380127
0.30268294 -0.17774209 0.83824974
0.3028537 -0.18099749 0.83851653
0.30305088 -0.1300876 0.8412053
0.30266047 -0.13268599 0.84135956
0.30266047 -0.13765387 0.8415041
0.30266047 -0.14255726 0.84166342
0.30266047 -0.1475935 0.84201437
0.30266047 -0.15265924 0.8421821
0.30266047 -0.15759954 0.84219688
0.30266047 -0.16265067 0.84265631
0.30266047 -0.1676701 0.84302789
0.30266047 -0.17260963 0.84306353
0.30266047 -0.17754835 0.84337735
0.30297872 -0.180765 0.84328383
0.30316743 -0.12986673 0.84584326
0.30266047 -0.13241903 0.8461886
0.30266047 -0.13728715 0.84654492
0.30266047 -0.14230467 0.84668887
0.30266047 -0.14743729 0.84683049
0.30266047 -0.15235271 0.84709078
0.30266047 -0.15720442 0.84732789
0.30266047 -0.16235146 0.84761101
0.30266047 -0.16733235 0.8477717
0.30266047 -0.17225373 0.84810567
0.30266047 -0.17738876 0.84816158
0.30290908 -0.18051501 0.84858608
0.30305684 -0.12962681 0.85088187
0.30266047 -0.13208488 0.85102797
0.30266047 -0.13700329 0.85157758
0.30266047 -0.14191629 0.8517437
0.30266047 -0.147211 0.85164672
0.30266047 -0.15216213 0.85223329
0.30266047 -0.15700202 0.85233688
0.30266047 -0.1621504 0.85254472
0.30266047 -0.1670779 0.85274357
0.30266047 -0.1719268 0.85320973
0.30266047 -0.17714773 0.85325009
0.3029606 -0.18040103 0.85343575
0.30315152 -0.12937228 0.85622674
0.30266047 -0.1318897 0.85606325
0.30266047 -0.13703464 0.85654908
0.30266047 -0.14199349 0.85673422
0.30266047 -0.1468208 0.8568542
0.30266047 -0.15180784 0.85720849
0.30266047 -0.15669258 0.85729456
0.30266047 -0.1618107 0.85744578
0.30266047 -0.16660826 0.85787684
0.30266047 -0.17183223 0.8580544
0.30266047 -0.17707726 0.85831052
0.30282509 -0.18005438 0.85865414
0.30310196 -0.1291621 0.86064065
0.30266047 -0.13177502 0.86115491
0.30266047 -0.13668264 0.86137408
0.30266047 -0.14160526 0.86174518
0.30266047 -0.1467118 0.86210823
0.30266047 -0.1514978 0.86221784
0.30266047 -0.15652092 0.8621999
0.30266047 -0.16164657 0.86267996
0.30266047 -0.16668501 0.862831
0.30266047 -0.17164834 0.86290413
0.30266047 -0.17631787 0.86332971
0.30284122 -0.17964455 0.86382514
0.30305776 -0.12891367 0.86585778
0.30266047 -0.13136116 0.86601847
0.30266047 -0.13624966 0.86649382
0.30266047 -0.14124076 0.86667359
0.30266047 -0.14635266 0.86710334
0.30266047 -0.15145348 0.86697876
0.30266047 -0.15630212 0.86756623
0.30266047 -0.16155611 0.8676967
0.30266047 -0.16655184 0.86776942
0.30266047 -0.17152415 0.86805969
0.30266047 -0.17635366 0.86818188
0.30283713 -0.17959967 0.86874384
0.30319679 -0.12864888 0.87141818
0.30266047 -0.13114491 0.87105221
0.30266047 -0.13629067 0.87169564
0.30266047 -0.14116247 0.87182587
0.30266047 -0.14617176 0.8719579
0.30266047 -0.15104836 0.87210816
0.30266047 -0.15619425 0.87243539
0.30266047 -0.16122952 0.87265873
0.30266047 -0.16616395 0.8728705
0.30266047 -0.17130758 0.87295806
0.30266047 -0.17631316 0.87321669
0.30299813 -0.17947645 0.87336725
0.30320135 -0.12841052 0.8764239
0.30266047 -0.13087419 0.87624359
0.30266047 -0.13591206 0.87639922
0.30266047 -0.14101376 0.87651563
0.30266047 -0.14597541 0.87689769
0.30266047 -0.15102334 0.87709528
0.30266047 -0.15593381 0.87727898
0.30266047 -0.16114758 0.87759179
0.30266047 -0.16599795 0.87787193
0.30266047 -0.17086393 0.87800735
0.30266047 -0.17588337 0.87825149
0.30286425 -0.17909849 0.87849402
0.30300847 -0.12817565 0.88135618
0.30266047 -0.13060878 0.88110894
0.30266047 -0.13567355 0.88146484
0.30266047 -0.14056875 0.88165396
0.30266047 -0.14567719 0.88193631
0.30266047 -0.15058616 0.88190776
0.30266047 -0.15561353 0.88218302
0.30266047 -0.16069947 0.88255131
0.30266047 -0.16559017 0.88283223
0.30266047 -0.17059091 0.88303697
0.30266047 -0.17579907 0.88328636
0.3029626 -0.17894706 0.8836652
0.30328861 -0.12794746 0.88614792
0.30266047 -0.1304353 0.88609147
0.30266047 -0.13541175 0.88658321
0.30266047 -0.14029023 0.88671881
0.30266047 -0.14531414 0.88690996
0.30266047 -0.15060902 0.88698614
0.30266047 -0.15536128 0.88713396
0.30266047 -0.16040014 0.8878057
0.30266047 -0.16539434 0.88782793
0.30266047 -0.17036337 0.88821423
0.30266047 -0.17536137 0.88826656
0.30296147 -0.17864212 0.88881791
0.30339122 -0.12770803 0.89117622
0.30266047 -0.12995502 0.89108598
0.30266047 -0.13515005 0.89154637
0.30266047 -0.13994174 0.89171934
0.30266047 -0.1450443 0.89200991
0.30266047 -0.1502533 0.89198488
0.30266047 -0.15524438 0.89243418
0.30266047 -0.16023231 0.89281791
0.30266047 -0.16514464 0.89275271
0.30266047 -0.17011112 0.89305925
0.30266047 -0.17514108 0.89323086
0.30298027 -0.1784192 0.89324325
0.30314857 -0.12746121 0.89635944
0.30266047 -0.12982917 0.89599115
0.30266047 -0.13494907 0.89637959
0.30266047 -0.14005123 0.89651644
0.30266047 -0.14504711 0.89689916
0.30266047 -0.15003356 0.89702153
0.30266047 -0.15486957 0.89713144
0.30266047 -0.15989369 0.89761496
0.30266047 -0.16513 0.89797884
0.30266047 -0.16994052 0.8979044
0.30266047 -0.17509314 0.89830387
0.30289328 -0.17807946 0.89837408
0.30318835 -0.12723993 0.9010064
0.30266047 -0.12993908 0.90121007
0.30266047 -0.13493237 0.90135771
0.30266047 -0.13960297 0.9017483
0.30266047 -0.14454733 0.90190738
0.30266047 -0.14965005 0.90213418
0.30266047 -0.15478532 0.90240365
0.30266047 -0.15980673 0.90246588
0.30266047 -0.16479149 0.90292925
0.30266047 -0.16981426 0.90296078
0.30266047 -0.17465745 0.90345138
0.30291611 -0.17786661 0.90324146
0.30322874 -0.12700127 0.9060182
0.30266047 -0.12921974 0.90604019
0.30266047 -0.13438232 0.90636009
0.30266047 -0.13938393 0.90669477
0.30266047 -0.14450383 0.90694803
0.30266047 -0.14929032 0.90704489
0.30266047 -0.1544008 0.90728873
0.30266047 -0.15936013 0.90762758
0.30266047 -0.16437207 0.90769964
0.30266047 -0.16932578 0.90811974
0.30266047 -0.17448729 0.90836388
0.30290991 -0.17766362 0.90864658
0.30302972 -0.12675402 0.91121036
0.30266047 -0.12942249 0.91102189
0.30266047 -0.13425654 0.91149962
0.30266047 -0.1393456 0.91168076
0.30266047 -0.14424403 0.91214186
0.30266047 -0.14909606 0.91188604
0.30266047 -0.15405884 0.91205692
0.30266047 -0.15903829 0.91260672
0.30266047 -0.16432783 0.91286802
0.30266047 -0.16910693 0.91303128
0.30266047 -0.17414105 0.91356927
0.30283588 -0.17740792 0.91332012
0.30297676 -0.12652527 0.91601402
0.30266047 -0.12920776 0.91613311
0.30266047 -0.13396792 0.91620398
0.30266047 -0.13897018 0.91674083
0.30266047 -0.14400995 0.91685098
0.30266047 -0.14925466 0.91696334
0.30266047 -0.15418771 0.91722345
0.30266047 -0.15914556 0.91762304
0.30266047 -0.16403607 0.91781431
0.30266047 -0.16931975 0.91819751
0.30266047 -0.17381611 0.91832
0.30289856 -0.17717873 0.91827917
0.30318949 -0.12631114 0.92051089
0.30266047 -0.12894221 0.9211278
0.30266047 -0.13388513 0.92139339
0.30266047 -0.13904937 0.92164516
0.30266047 -0.14389221 0.92204237
0.30266047 -0.14880781 0.92226434
0.30266047 -0.15405077 0.92233539
0.30266047 -0.15882465 0.92268413
0.30266047 -0.16360898 0.92285424
0.30266047 -0.16865589 0.92275059
0.30266047 -0.17382045 0.92327154
0.30291107 -0.1769101 0.92329991
0.30313492 -0.12604004 0.92620373
0.30266047 -0.12856294 0.92614263
0.30266047 -0.13353457 0.92651623
0.30266047 -0.13852094 0.92641109
0.30266047 -0.14352526 0.92692322
0.30266047 -0.14859298 0.92697489
0.30266047 -0.15352206 0.92738646
0.30266047 -0.1584419 0.92756629
0.30266047 -0.16352151 0.9277128
0.30266047 -0.16859749 0.9279229
0.30266047 -0.17346287 0.92819977
0.30294272 -0.17685804 0.92803311
0.30326465 -0.12581062 0.93102157
0.30266047 -0.12827019 0.93098336
0.30266047 -0.13313913 0.93139297
0.30266047 -0.1381426 0.93146396
0.30266047 -0.14338188 0.93173653
0.30266047 -0.14815921 0.93211657
0.30266047 -0.15330592 0.93253952
0.30266047 -0.15838081 0.93253773
0.30266047 -0.16317692 0.93268073
0.30266047 -0.16829152 0.93305618
0.30266047 -0.17311424 0.93332642
0.3028906 -0.17644151 0.93320882
0.30326238 -0.12557095 0.93605471
0.30266047 -0.12804623 0.93623972
0.30266047 -0.13315493 0.93630952
0.30266047 -0.13823603 0.93676847
0.30266047 -0.14298886 0.93663448
0.30266047 -0.14831439 0.93712145
0.30266047 -0.15314217 0.93745804
0.30266047 -0.15819973 0.93738556
0.30266047 -0.16304949 0.93778402
0.30266047 -0.16812846 0.93805122
0.30266047 -0.17293595 0.93829978
0.30299488 -0.17626646 0.93821108
0.30326149 -0.12533242 0.94106406
0.30266047 -0.12798053 0.94105232
0.30266047 -0.13266098 0.94140714
0.30266047 -0.13783997 0.94152009
0.30266047 -0.14287908 0.94173342
0.30266047 -0.14788207 0.94218934
0.30266047 -0.15279065 0.94229972
0.30266047 -0.15773274 0.94256741
0.30266047 -0.16293055 0.94286031
0.30266047 -0.16775182 0.94326723
0.30266047 -0.17279558 0.94321847
0.30290288 -0.17603488 0.94338357
0.30316976 -0.12507863 0.94639349
0.30266047 -0.12757218 0.94614649
0.30266047 -0.13250144 0.94643688
0.30266047 -0.13731934 0.94668144
0.30266047 -0.14258021 0.94692791
0.30266047 -0.14749792 0.94733322
0.30266047 -0.15243675 0.94744164
0.30266047 -0.15750295 0.94749558
0.30266047 -0.16245128 0.94793707
0.30266047 -0.16752835 0.94805312
0.30266047 -0.17263003 0.94811863
0.30288967 -0.1757451 0.94836867
0.30324614 -0.12487827 0.9506011
0.30266047 -0.1273385 0.95119649
0.30266047 -0.13230594 0.95126766
0.30266047 -0.13719097 0.95179951
0.30266047 -0.14241301 0.95172858
0.30266047 -0.1474213 0.95223159
0.30266047 -0.15239191 0.95223236
0.30266047 -0.1572378 0.95257396
0.30266047 -0.16229272 0.95279211
0.30266047 -0.16720228 0.95299017
0.30266047 -0.17242095 0.95319986
0.30287775 -0.17564783 0.95315051
0.30309868 -0.12458631 0.95673215
0.30266047 -0.12735516 0.95595545
0.30266047 -0.13221627 0.95623678
0.30266047 -0.13700648 0.95667064
0.30266047 -0.14218614 0.95675266
0.30266047 -0.14713766 0.9570111
0.30266047 -0.15199229 0.95737231
0.30266047 -0.15703097 0.95743561
0.30266047 -0.16194053 0.9579342
0.30266047 -0.16719422 0.95817542
0.30266047 -0.17183036 0.95830727
0.30294865 -0.17522576 0.95858914
0.30313063 -0.12437423 0.96118581
0.30266047 -0.1270363 0.96099597
0.30266047 -0.13177182 0.96136576
0.30266047 -0.13692889 0.96141642
0.30266047 -0.14205021 0.96172255
0.30266047 -0.14709193 0.96207559
0.30266047 -0.15195481 0.96242177
0.30266047 -0.15692213 0.96246755
0.30266047 -0.16185161 0.96290028
0.30266047 -0.16687234 0.96294457
0.30266047 -0.17202869 0.96324742
0.30288896 -0.17512888 0.96306866
0.30294985 -0.12414078 0.96608841
0.30266047 -0.12676649 0.96609437
0.30266047 -0.1316241 0.96640593
0.30266047 -0.13671139 0.96654797
0.30266047 -0.14168012 0.96693921
0.30266047 -0.14672361 0.96694708
0.30266047 -0.15167829 0.96744347
0.30266047 -0.15679775 0.96751076
0.30266047 -0.16163845 0.96767282
0.30266047 -0.16655365 0.96813089
0.30266047 -0.17163913 0.96808314
0.30297109 -0.17487003 0.96880496
0.30315959 -0.12390156 0.97111207
0.30266047 -0.12626579 0.97125131
0.30266047 -0.13149658 0.9712379
0.30266047 -0.13638707 0.97164774
0.30266047 -0.1414156 0.97195429
0.30266047 -0.14635199 0.97197121
0.30266047 -0.15139593 0.97222388
0.30266047 -0.15635641 0.97252452
0.30266047 -0.16151892 0.97292387
0.30266047 -0.16644862 0.97315782
0.30266047 -0.171244 0.97340363
0.30286455 -0.17461398 0.97312742
0.30313662 -0.12368161 0.9757309
0.30266047 -0.12625973 0.97619486
0.30266047 -0.13143629 0.97641444
0.30266047 -0.13620371 0.97663271
0.30266047 -0.14107078 0.97678399
0.30266047 -0.1461214 0.97709394
0.30266047 -0.15102658 0.97706735
0.30266047 -0.15612394 0.97741842
0.30266047 -0.16111518 0.97781599
0.30266047 -0.16620097 0.97807282
0.30266047 -0.17103449 0.97817349
0.3028954 -0.17431027 0.97807348
0.30291697 -0.12345581 0.9804728
0.30266047 -0.12624414 0.9810822
0.30266047 -0.13083768 0.98116124
0.30266047 -0.13575442 0.98140836
0.30266047 -0.14069745 0.98169678
0.30266047 -0.14583544 0.98197806
0.30266047 -0.15090625 0.98216897
0.30266047 -0.15580755 0.98250228
0.30266047 -0.1607306 0.9827224
0.30266047 -0.1658556 0.98299944
0.30266047 -0.17098649 0.98320341
0.3029879 -0.17416236 0.98371893
0.30315164 -0.12321975 0.98543
0.30267107 -0.12570964 0.98629463
0.30266047 -0.13067243 0.986072
0.30266047 -0.13578904 0.98662138
0.30266047 -0.14080113 0.98671305
0.30266047 -0.14587167 0.98692113
0.30266047 -0.15070714 0.9873386
0.30266047 -0.15560429 0.98730284
0.30266047 -0.16067305 0.98760104
0.30266047 -0.16567069 0.98782808
0.30268708 -0.17056653 0.98822439
0.30284011 -0.17383446 0.98813581
0.30310518 -0.12503727 0.98854125
0.30325669 -0.13082048 0.98881668
0.30316371 -0.13551459 0.9890402
0.30312976 -0.14060508 0.98928261
0.30333519 -0.14561456 0.98952115
0.30317411 -0.15028709 0.98974365
0.30310702 -0.15548331 0.98999107
0.30323499 -0.16022912 0.99021709
0.30332556 -0.1656595 0.99047565
0.30313244 -0.16998342 0.99068159
0.30273327 -0.17338869 0.99084371
0.30629253 -0.13033104 0.83609307
0.30606455 -0.13292511 0.83374125
0.30630243 -0.13788687 0.83397758
0.30615395 -0.14288284 0.83421546
0.30622983 -0.14791241 0.83445495
0.30588904 -0.15293115 0.83469397
0.30601135 -0.1579887 0.83493477
0.30631575 -0.16311988 0.83517915
0.30614263 -0.1677433 0.83539927
0.3063491 -0.17286177 0.83564299
0.30620021 -0.17796455 0.835886
0.30614263 -0.18125845 0.83845252
0.3061212 -0.130098 0.84098667
0.30623665 -0.181023 0.84377635
0.30615047 -0.12985307 0.84613019
0.30611876 -0.18079883 0.8484835
0.3061505 -0.12961605 0.85110772
0.30628535 -0.1805622 0.85345286
0.30604452 -0.12937519 0.85616583
0.30607823 -0.18032581 0.85841715
0.30636263 -0.12914734 0.86095065
0.30621585 -0.18007597 0.86366397
0.306283 -0.12889048 0.86634445
0.30604243 -0.17984065 0.8686052
0.30619067 -0.12867066 0.87096089
0.30625463 -0.17961796 0.87328196
0.3059361 -0.12842821 0.87605238
0.30632305 -0.17937011 0.87848651
0.30603719 -0.12818439 0.88117248
0.30638018 -0.17914106 0.88329619
0.30639997 -0.1279455 0.8861894
0.30634335 -0.17889848 0.88839024
0.30626523 -0.1277196 0.89093322
0.30629233 -0.1786468 0.89367521
0.3062622 -0.12747459 0.89607835
0.30622101 -0.17842291 0.89837706
0.30630907 -0.12723897 0.90102631
0.30608007 -0.1781884 0.90330184
0.30617511 -0.12699881 0.90606976
0.30600291 -0.17794998 0.90830868
0.30605525 -0.12675887 0.91110843
0.30604428 -0.17771687 0.91320401
0.30620003 -0.12652119 0.91609991
0.30609992 -0.17747077 0.91837198
0.30619347 -0.1262812 0.92113948
0.30615294 -0.17723352 0.92335415
0.30636686 -0.12604786 0.9260397
0.30607346 -0.17698893 0.92849076
0.30621985 -0.1258135 0.93096143
0.30613074 -0.17674886 0.93353224
0.3061091 -0.12557028 0.93606889
0.30634215 -0.17651562 0.93843025
0.30640313 -0.12533498 0.94101024
0.30611256 -0.17628011 0.94337595
0.30618158 -0.12509452 0.94605994
0.30597615 -0.17603838 0.94845223
0.30633751 -0.12486296 0.95092261
0.30621421 -0.17580087 0.95343989
0.30626312 -0.1246339 0.95573282
0.30617747 -0.17556252 0.95844531
0.30625263 -0.1243821 0.96102065
0.30599049 -0.17532183 0.96349984
0.30604744 -0.1241442 0.96601647
0.30632088 -0.17508462 0.96848118
0.30594164 -0.1239059 0.97102094
0.30615035 -0.17485249 0.97335577
0.30617645 -0.12367661 0.97583604
0.30615181 -0.1746152 0.9783389
0.3060289 -0.12344304 0.9807409
0.30632377 -0.1743724 0.98343778
0.30627882 -0.12319551 0.98593891
0.30447775 -0.12912935 0.98873615
0.30748025 -0.1473915 0.98960578
0.30712563 -0.15255025 0.98985142
0.30501461 -0.16118255 0.99026245
0.30419371 -0.16464871 0.99042749
0.30744213 -0.17017344 0.99069059
0.30595395 -0.17412584 0.98861563
0.30598211 -0.12555473 0.98856592
0.30644482 -0.13063297 0.98880774
0.30631736 -0.13584845 0.98905611
0.30610934 -0.14068101 0.98928618
0.30623302 -0.14524968 0.98950374
0.30615014 -0.15029344 0.98974395
0.30642021 -0.15537697 0.98998606
0.30614987 -0.16054814 0.99023223
0.30643454 -0.1654844 0.99046731
0.30601758 -0.17078599 0.9907198
0.30619431 -0.17360917 0.99085426
0.31108981 -0.13033012 0.83611244
0.31084591 -0.13307698 0.83374852
0.31120235 -0.13793932 0.83398002
0.31118786 -0.14294471 0.83421838
0.31101561 -0.1479433 0.83445644
0.31122646 -0.15305242 0.83469969
0.31115967 -0.15820694 0.8349452
0.31112474 -0.16293877 0.83517051
0.31119806 -0.16809592 0.83541608
0.3114734 -0.1728923 0.83564448
0.31119609 -0.17794758 0.83588523
0.31109843 -0.18124549 0.83843911
0.31127372 -0.13009256 0.84110081
0.31092787 -0.181036 0.84350288
0.31093091 -0.1298562 0.84606463
0.31114301 -0.1808009 0.84844029
0.3112956 -0.12960702 0.85129726
0.31104594 -0.18055841 0.8535322
0.31121466 -0.12937149 0.85624349
0.31096351 -0.18031895 0.8585611
0.31142327 -0.12914045 0.86109531
0.3112219 -0.18009329 0.86329985
0.31129524 -0.12890366 0.86606789
0.31100932 -0.17985165 0.86837405
0.31126079 -0.12866056 0.87117302
0.31118262 -0.17961329 0.87337971
0.31104168 -0.12842716 0.87607443
0.31136671 -0.17937937 0.87829185
0.3110652 -0.12820068 0.88083047
0.31120655 -0.17913872 0.8833456
0.3114748 -0.12796311 0.88581932
0.31135258 -0.1789058 0.88823676
0.31125057 -0.12771539 0.89102161
0.31119922 -0.1786612 0.89337325
0.31124631 -0.12747431 0.89608431
0.31125572 -0.1784181 0.89847797
0.31116036 -0.12724762 0.90084475
0.31113663 -0.178188 0.90331012
0.31122494 -0.12699848 0.90607655
0.31130734 -0.1779471 0.908369
0.31115004 -0.12676398 0.91100121
0.31121615 -0.17770638 0.91342443
0.311014 -0.1265225 0.91607225
0.31119108 -0.17746894 0.91841042
0.31112635 -0.12629263 0.92089939
0.31102931 -0.17723358 0.92335314
0.31138733 -0.12605645 0.92585945
0.3112967 -0.17699018 0.92846453
0.3112036 -0.12581173 0.9309985
0.31110322 -0.17675355 0.93343389
0.31109107 -0.12558617 0.93573523
0.31097376 -0.17650622 0.93862778
0.31136414 -0.12533788 0.94094914
0.31119359 -0.17627645 0.94345307
0.31113419 -0.12510017 0.94594139
0.31120589 -0.17603953 0.94842815
0.31137523 -0.12486316 0.95091844
0.31137273 -0.17580512 0.95335078
0.31126803 -0.12462371 0.95594692
0.31113583 -0.17555949 0.95850891
0.31128767 -0.12439144 0.96082461
0.31105784 -0.17532177 0.96350098
0.31131414 -0.12414825 0.96593148
0.31100625 -0.17509174 0.96833175
0.31116259 -0.12390546 0.97103024
0.31122291 -0.17484812 0.97344756
0.31114224 -0.12366121 0.97615951
0.31124023 -0.17461379 0.97836864
0.31136021 -0.12343137 0.98098594
0.311189 -0.17436728 0.98354524
0.31110001 -0.12318895 0.98607689
0.31138161 -0.14895479 0.98968017
0.31160134 -0.15670198 0.99004912
0.31179848 -0.16032436 0.99022162
0.30927262 -0.16537637 0.99046218
0.30921292 -0.17031658 0.99069744
0.31109238 -0.17413366 0.98845136
0.31119931 -0.12593554 0.98858404
0.31126243 -0.13094486 0.98882258
0.31109864 -0.13573977 0.98905092
0.31135142 -0.14042819 0.98927414
0.31125638 -0.14557391 0.98951924
0.31104425 -0.15080351 0.98976827
0.31105116 -0.15540254 0.98998725
0.31098816 -0.16053233 0.99023151
0.31131729 -0.16556001 0.99047095
0.31155705 -0.17046463 0.99070448
0.31083959 -0.17346984 0.99084759
0.31630519 -0.13033363 0.83603847
0.3160806 -0.13317837 0.83375335
0.31617141 -0.13781315 0.83397406
0.31612307 -0.14299183 0.83422065
0.31616235 -0.14790338 0.83445454
0.31626299 -0.15280588 0.83468801
0.31645685 -0.15785179 0.83492827
0.31636614 -0.16279332 0.83516359
0.31626296 -0.16784781 0.83540428
0.3161445 -0.17277586 0.83563894
0.31614801 -0.17793384 0.83588457
0.31600985 -0.18124655 0.83845419
0.31626651 -0.1300952 0.84104556
0.31582496 -0.18103337 0.84355772
0.31599662 -0.12985417 0.84610701
0.31603664 -0.18079099 0.84864807
0.31631222 -0.12961927 0.85104024
0.3159425 -0.18055999 0.85349882
0.31632119 -0.12938184 0.85602635
0.31587645 -0.18032436 0.85844713
0.31634808 -0.12913711 0.8611654
0.31591383 -0.18008596 0.86345333
0.31621027 -0.12889729 0.86620158
0.31596231 -0.17984308 0.86855388
0.3164463 -0.12866588 0.87106144
0.31588557 -0.17960793 0.87349212
0.31619802 -0.12842481 0.87612367
0.31579641 -0.17936915 0.87850672
0.31616375 -0.12819564 0.88093626
0.31578213 -0.17913522 0.88341916
0.31642628 -0.12795155 0.88606226
0.31596392 -0.17890179 0.88832092
0.31619808 -0.12771189 0.8910951
0.31597278 -0.17865616 0.89347911
0.31623203 -0.12747924 0.8959806
0.3161009 -0.17842349 0.89836484
0.31627452 -0.12723698 0.90106833
0.3160882 -0.17818028 0.90347248
0.31617469 -0.12700748 0.90588748
0.316322 -0.17795044 0.90829909
0.31605068 -0.12675537 0.91118199
0.31612787 -0.17771417 0.91326088
0.3163158 -0.126513 0.91627169
0.31612951 -0.17747211 0.9183439
0.31634593 -0.1262878 0.92100084
0.31612131 -0.17722844 0.92346096
0.31619772 -0.1260418 0.92616707
0.31614548 -0.17699409 0.92838234
0.31608272 -0.12581487 0.93093258
0.31613281 -0.17675325 0.93344009
0.31636819 -0.12556884 0.93609905
0.31612125 -0.17652383 0.93825763
0.31616259 -0.12533917 0.94092226
0.31607962 -0.17628434 0.94328707
0.3162685 -0.12510547 0.94583005
0.31635675 -0.17604424 0.94832927
0.31617424 -0.12485981 0.95098883
0.31614202 -0.1758005 0.95344752
0.31628701 -0.12462018 0.95602107
0.31599903 -0.17557262 0.95823336
0.31623802 -0.12437793 0.96110833
0.31618947 -0.17533034 0.96332121
0.31623858 -0.12414447 0.96601093
0.31627184 -0.17509414 0.96828115
0.31605336 -0.12390509 0.97103786
0.31616551 -0.17485338 0.97333717
0.31614247 -0.12366731 0.97603106
0.31622249 -0.17461716 0.97829783
0.3163017 -0.1234258 0.98110294
0.31622359 -0.17437668 0.98334795
0.31639668 -0.12318742 0.98610884
0.31539711 -0.14795998 0.98963284
0.31583095 -0.15024069 0.98974144
0.31681708 -0.16624458 0.99050355
0.31766126 -0.17208494 0.99078166
0.31612036 -0.17413768 0.98826534
0.31617218 -0.12567686 0.98857176
0.31609473 -0.13031033 0.98879236
0.31613263 -0.13556679 0.9890427
0.31631231 -0.14050508 0.98927784
0.31641161 -0.14540033 0.98951095
0.31583798 -0.15066731 0.98976171
0.31617457 -0.15564702 0.98999888
0.31616455 -0.16052005 0.99023092
0.31618407 -0.16531469 0.9904592
0.31609678 -0.17039955 0.99070138
0.31607029 -0.17341349 0.99084491
0.32145831 -0.13032621 0.8361944
0.32110932 -0.13291851 0.83374095
0.32109961 -0.13803704 0.83398467
0.32116398 -0.14306298 0.83422405
0.32126045 -0.14810687 0.83446419
0.32121223 -0.15290472 0.83469272
0.32133758 -0.15801947 0.83493626
0.32128927 -0.16295366 0.83517122
0.32127833 -0.16796313 0.83540976
0.3213886 -0.17301223 0.83565021
0.32114494 -0.17800295 0.83588785
0.32119313 -0.18118063 0.83804125
0.32124704 -0.13008872 0.8411817
0.32108745 -0.18104033 0.84341139
0.32110143 -0.12986143 0.8459549
0.32122669 -0.18079841 0.84849143
0.32122731 -0.12961884 0.85104907
0.32097256 -0.18056025 0.85349303
0.32127297 -0.12938251 0.85601205
0.32107297 -0.18031898 0.85855949
0.32127723 -0.12914565 0.86098605
0.32095575 -0.1800839 0.86349624
0.32135296 -0.12890211 0.86610061
0.32094932 -0.1798358 0.86870652
0.3213312 -0.12866656 0.87104684
0.32087466 -0.17960387 0.87357688
0.32127756 -0.12842423 0.87613606
0.32117116 -0.17937323 0.87842011
0.32137161 -0.12819108 0.88103211
0.32098565 -0.17913598 0.88340259
0.32136884 -0.1279604 0.88587642
0.32093301 -0.17888771 0.88861638
0.32097247 -0.12772246 0.89087313
0.32106894 -0.17865053 0.89359725
0.32104996 -0.12747388 0.89609349
0.32112676 -0.17841893 0.89846051
0.32131097 -0.12724164 0.90097028
0.321179 -0.17818213 0.9034338
0.32124412 -0.12699825 0.9060815
0.32103482 -0.17794222 0.9084717
0.32113934 -0.12676072 0.91106975
0.32105732 -0.17770883 0.91337287
0.32091412 -0.12652056 0.9161132
0.32104301 -0.17747116 0.91836387
0.32121435 -0.12627983 0.92116833
0.32107815 -0.17723729 0.92327517
0.32117581 -0.12604254 0.92615151
0.32119316 -0.17699155 0.92843574
0.32087761 -0.12579893 0.93126738
0.32108432 -0.17675775 0.93334526
0.3212038 -0.12556748 0.9361276
0.32118788 -0.17651337 0.93847728
0.32125065 -0.12533659 0.94097656
0.32108852 -0.17627475 0.94348854
0.32119831 -0.12509407 0.94606924
0.3210938 -0.17605025 0.94820303
0.32118165 -0.1248525 0.95114231
0.32135183 -0.17580579 0.9533366
0.32123914 -0.12462115 0.95600051
0.32130089 -0.17556876 0.95831406
0.32104012 -0.12438734 0.96091068
0.32113913 -0.1753231 0.96347308
0.32117131 -0.12414481 0.96600366
0.32145455 -0.17509675 0.96822631
0.32126954 -0.12390648 0.97100872
0.32117304 -0.17486104 0.97317648
0.32112652 -0.12367007 0.97597331
0.32097745 -0.17462161 0.97820425
0.32124507 -0.12343249 0.98096251
0.32124478 -0.17439222 0.98302162
0.32121834 -0.12319458 0.98595852
0.32259792 -0.13757816 0.98913848
0.3205435 -0.14239834 0.98936796
0.32181644 -0.14533156 0.98950768
0.32190406 -0.16006184 0.9902091
0.32026887 -0.16552432 0.99046922
0.32083014 -0.17131206 0.99074483
0.32117963 -0.17410225 0.98840469
0.32122403 -0.12584578 0.98857975
0.32121074 -0.13059469 0.98880589
0.32104406 -0.13545655 0.98903745
0.32133457 -0.14039554 0.98927259
0.32113558 -0.14536995 0.98950946
0.32096115 -0.15056607 0.98975694
0.32121912 -0.15552922 0.98999327
0.3212806 -0.16055934 0.99023283
0.3211692 -0.1656401 0.9904747
0.32127187 -0.17031328 0.99069726
0.32117432 -0.17346913 0.99084759
0.32627568 -0.13032778 0.83616161
0.32614565 -0.132926 0.83374131
0.32611051 -0.13812542 0.8339889
0.32620466 -0.14296255 0.83421928
0.3262946 -0.14791209 0.83445495
0.32619229 -0.15277271 0.8346864
0.32596809 -0.1579989 0.83493525
0.32629588 -0.1630193 0.83517432
0.326298 -0.16785304 0.83540452
0.32654607 -0.17307234 0.83565307
0.32655337 -0.17785467 0.83588076
0.32610849 -0.18115363 0.83768636
0.32614538 -0.13009544 0.84104067
0.32618627 -0.181042 0.8433761
0.32603461 -0.12985931 0.8459993
0.32627022 -0.18079469 0.84856975
0.32621744 -0.12961738 0.85107994
0.32606724 -0.18056324 0.85343021
0.32620281 -0.12938008 0.85606319
0.32621127 -0.18031639 0.85861403
0.32637984 -0.12913683 0.86117148
0.32624689 -0.1800797 0.86358464
0.32632649 -0.12890527 0.86603427
0.32608762 -0.17984404 0.86853349
0.32611459 -0.12867552 0.87085885
0.3259041 -0.17960973 0.87345397
0.32625487 -0.12842374 0.87614632
0.32630411 -0.1793766 0.87834972
0.32629833 -0.12818609 0.88113695
0.32586917 -0.17913403 0.88344377
0.32636455 -0.12795189 0.88605499
0.32591349 -0.17889434 0.88847727
0.3260006 -0.12771553 0.89101857
0.32603976 -0.17866144 0.89336812
0.32608789 -0.12747513 0.89606702
0.32605439 -0.17841697 0.89850187
0.32610962 -0.12723936 0.90101808
0.32610118 -0.17818187 0.90343887
0.3259567 -0.12700726 0.90589219
0.32617578 -0.17794685 0.90837431
0.32612813 -0.12676223 0.91103792
0.32610217 -0.17770591 0.91343409
0.32599533 -0.12652951 0.91592485
0.32632878 -0.17746519 0.91848928
0.3260695 -0.12628193 0.92112434
0.32614088 -0.17722555 0.92352188
0.32591558 -0.12604558 0.92608762
0.32608011 -0.17698996 0.928469
0.32613719 -0.12580523 0.93113482
0.32611683 -0.17674908 0.93352765
0.32617486 -0.12557417 0.93598706
0.32615998 -0.17650954 0.9385578
0.32623848 -0.12533738 0.94095981
0.32611829 -0.17627153 0.94355631
0.32607594 -0.12511234 0.94568551
0.32607511 -0.1760388 0.94844329
0.32622117 -0.12485673 0.95105362
0.32624403 -0.17580006 0.95345688
0.32621849 -0.12461986 0.95602775
0.32606223 -0.17555599 0.95858252
0.32626852 -0.12437987 0.96106762
0.32618353 -0.17532939 0.96334112
0.32625687 -0.1241431 0.9660396
0.32628572 -0.1750842 0.96849012
0.32609457 -0.1239029 0.97108388
0.32627574 -0.17485031 0.97340149
0.32615003 -0.12366872 0.97600162
0.32593083 -0.17460996 0.97844905
0.32618326 -0.12343466 0.98091692
0.32605207 -0.17438133 0.98325038
0.32616466 -0.12319838 0.98587871
0.32837281 -0.12842 0.98870236
0.32548943 -0.1354111 0.98903525
0.32367349 -0.14082263 0.98929298
0.32776389 -0.16547948 0.99046707
0.32688713 -0.16913 0.99064094
0.32615694 -0.17413786 0.98836327
0.3262451 -0.12560342 0.98856825
0.32629022 -0.13074528 0.9888131
0.32645565 -0.13564907 0.98904657
0.32644552 -0.14062926 0.98928374
0.32611942 -0.14545403 0.98951352
0.32613856 -0.15043642 0.98975074
0.32624346 -0.15550429 0.98999208
0.32620034 -0.16056362 0.990233
0.32598659 -0.165747 0.99047989
0.32620844 -0.17070888 0.99071616
0.32591906 -0.17342964 0.99084568
0.33100876 -0.13033906 0.83592457
0.33119002 -0.13305306 0.83374739
0.33127582 -0.13804638 0.83398515
0.33095136 -0.14305341 0.83422357
0.33114359 -0.14807695 0.83446282
0.33122256 -0.15307334 0.8347007
0.33104965 -0.15792273 0.83493161
0.33119586 -0.16299176 0.83517301
0.33103642 -0.16804908 0.83541387
0.33125809 -0.1727238 0.83563644
0.33128056 -0.17781711 0.83587897
0.33103305 -0.1811496 0.83774704
0.3313055 -0.13009453 0.84105968
0.33120501 -0.18103078 0.84361196
0.33110464 -0.12986177 0.84594756
0.3310163 -0.1807922 0.84862214
0.33123544 -0.12961593 0.85111004
0.33113617 -0.18055829 0.85353398
0.33107978 -0.12937859 0.85609436
0.33126161 -0.18032716 0.85838783
0.33113611 -0.12914246 0.86105311
0.33101308 -0.18008637 0.86344433
0.33123317 -0.12890115 0.86612052
0.33110031 -0.17983824 0.86865509
0.33106598 -0.12865855 0.87121528
0.33084476 -0.17959949 0.87366879
0.33100784 -0.12842748 0.87606776
0.33130634 -0.17937656 0.87835056
0.3311595 -0.12819661 0.88091594
0.33120552 -0.17914386 0.88323706
0.33104876 -0.12795837 0.88591909
0.33116361 -0.17889997 0.88835883
0.33109915 -0.12770934 0.89114851
0.33095366 -0.17865039 0.89359987
0.33117533 -0.12748137 0.89593589
0.33134946 -0.17841701 0.89850104
0.33104125 -0.12724002 0.90100437
0.3310855 -0.17818296 0.90341628
0.33108622 -0.12699935 0.90605861
0.33112463 -0.17794043 0.90850925
0.33096182 -0.1267592 0.91110152
0.3312228 -0.17770824 0.91338509
0.33086929 -0.12652455 0.9160291
0.33112639 -0.17747322 0.91832078
0.33127877 -0.12627877 0.92119044
0.3312436 -0.17722818 0.92346656
0.33106023 -0.12605329 0.92592585
0.33114493 -0.17699626 0.92833668
0.33128211 -0.12581448 0.93094081
0.33112335 -0.17675453 0.93341297
0.3314091 -0.12556805 0.93611586
0.33121014 -0.17650983 0.93855184
0.33116844 -0.12534177 0.9408676
0.33098745 -0.17628756 0.94321954
0.33120123 -0.12509254 0.94610167
0.3312276 -0.17604409 0.94833231
0.3312107 -0.12484937 0.95120794
0.33113936 -0.17580946 0.95325953
0.33129275 -0.12461475 0.95613515
0.33093587 -0.17556962 0.95829618
0.33115765 -0.12438062 0.96105176
0.33103347 -0.17532757 0.96337944
0.33119494 -0.12414464 0.96600747
0.33121467 -0.17508736 0.96842355
0.33127886 -0.12390897 0.97095639
0.33117819 -0.17484631 0.97348583
0.33106735 -0.12367126 0.97594833
0.3310639 -0.1746159 0.97832423
0.33111775 -0.12342646 0.98108906
0.33105314 -0.17437387 0.98340726
0.33132166 -0.12318835 0.98608929
0.33194384 -0.12500334 0.98853964
0.33091047 -0.12994428 0.98877496
0.33312961 -0.16502665 0.99044549
0.32907075 -0.17008421 0.99068636
0.33123246 -0.17414038 0.98831034
0.33099517 -0.12568013 0.98857188
0.33111393 -0.13072048 0.98881191
0.33112997 -0.1353614 0.98903286
0.3312096 -0.14040446 0.98927307
0.33129352 -0.14549787 0.9895156
0.33127624 -0.150443 0.9897511
0.33125964 -0.15554866 0.98999423
0.33109128 -0.16037919 0.99022424
0.33120194 -0.16556315 0.99047112
0.33143756 -0.17058825 0.9907105
0.33133492 -0.1734288 0.99084562
0.33614668 -0.1303304 0.83610636
0.33805248 -0.13296084 0.83557069
0.33807775 -0.13786933 0.83581698
0.33795455 -0.14291264 0.83592212
0.3378669 -0.14777632 0.8362177
0.33780605 -0.15298878 0.83632374
0.33775854 -0.15797529 0.83651304
0.33773386 -0.16280137 0.83667368
0.33740732 -0.16774891 0.83665758
0.33742994 -0.17287858 0.83685708
0.33735907 -0.17785133 0.83714485
0.33684385 -0.18098482 0.83777028
0.33632857 -0.13008738 0.84120977
0.33866048 -0.13273333 0.84122783
0.33866048 -0.1375602 0.84140116
0.33866048 -0.14256935 0.84160042
0.33866048 -0.14758436 0.84193802
0.33866048 -0.15257043 0.84205306
0.33866048 -0.1575287 0.84244621
0.33866048 -0.16270649 0.84264129
0.33866048 -0.16755104 0.84303862
0.33866048 -0.17255619 0.8431654
0.33866048 -0.17771815 0.84341294
0.3369582 -0.18085915 0.84348565
0.33614433 -0.12985647 0.84605902
0.33866048 -0.13253762 0.84617299
0.33866048 -0.13740391 0.84652054
0.33866048 -0.14221799 0.84668875
0.33866048 -0.14735943 0.84686244
0.33866048 -0.15221195 0.84698635
0.33866048 -0.15736617 0.84744316
0.33866048 -0.16235659 0.84759074
0.33866048 -0.16737293 0.84816033
0.33866048 -0.1723448 0.84809124
0.33866048 -0.1774393 0.84838492
0.3370235 -0.18063438 0.84857458
0.33610404 -0.12962383 0.85094422
0.33866048 -0.13222146 0.85136867
0.33866048 -0.13682249 0.85135019
0.33866048 -0.14199476 0.85174906
0.33866048 -0.14710137 0.85195488
0.33866048 -0.1522246 0.85213274
0.33866048 -0.15710798 0.85243911
0.33866048 -0.16224378 0.85238981
0.33866048 -0.16706955 0.85287577
0.33866048 -0.17211789 0.85307813
0.33866048 -0.17707312 0.85334492
0.33720666 -0.18033966 0.85354733
0.33612925 -0.129373 0.8562119
0.33866048 -0.13167161 0.8562603
0.33866048 -0.13666633 0.85626876
0.33866048 -0.14183417 0.8567248
0.33866048 -0.14686349 0.85694814
0.33866048 -0.15187599 0.85718679
0.33866048 -0.15691568 0.85739779
0.33866048 -0.1618817 0.85736156
0.33866048 -0.16693693 0.85764509
0.33866048 -0.171937 0.85818028
0.33866048 -0.17678633 0.85845172
0.33728373 -0.18010016 0.85840029
0.33614022 -0.12914047 0.86109483
0.33866048 -0.1314624 0.86108243
0.33866048 -0.13647681 0.8613109
0.33866048 -0.14144994 0.8616339
0.33866048 -0.1463879 0.86198229
0.33866048 -0.1515896 0.86222583
0.33866048 -0.15665805 0.86225498
0.33866048 -0.16183257 0.86266434
0.33866048 -0.16678137 0.86284703
0.33866048 -0.1716983 0.86337608
0.33866048 -0.17661668 0.863316
0.33731815 -0.1798884 0.86353034
0.33598265 -0.1288994 0.86615741
0.33866048 -0.13127543 0.86622989
0.33866048 -0.13637131 0.86622518
0.33866048 -0.1412911 0.86660546
0.33866048 -0.14632225 0.86695194
0.33866048 -0.15159307 0.86722779
0.33866048 -0.15644942 0.86731589
0.33866048 -0.16152322 0.86757189
0.33866048 -0.16642219 0.86789203
0.33866048 -0.17151129 0.86829048
0.33866048 -0.17618369 0.86838526
0.33719695 -0.17961271 0.86862451
0.33615813 -0.12866907 0.87099427
0.33866048 -0.13104321 0.87125134
0.33866048 -0.13617136 0.87122667
0.33866048 -0.14111108 0.87162501
0.33866048 -0.14603677 0.87182689
0.33866048 -0.15121847 0.87205589
0.33866048 -0.15626569 0.87233436
0.33866048 -0.16127278 0.8725602
0.33866048 -0.16626963 0.87269688
0.33866048 -0.17121938 0.87314755
0.33866048 -0.17616285 0.87321854
0.33710915 -0.17940912 0.87348109
0.33583748 -0.12842494 0.87612092
0.33866048 -0.13073294 0.87609506
0.33866048 -0.13586369 0.87627435
0.33866048 -0.14080016 0.87668306
0.33866048 -0.14604664 0.87697762
0.33866048 -0.1509113 0.87727344
0.33866048 -0.15586147 0.87723684
0.33866048 -0.16117333 0.87784207
0.33866048 -0.16599958 0.87776726
0.33866048 -0.17099059 0.87812918
0.33866048 -0.17594744 0.87835485
0.33710751 -0.17918263 0.87858146
0.33588517 -0.12818968 0.88106132
0.33866048 -0.13066977 0.88108009
0.33866048 -0.13565643 0.88143826
0.33866048 -0.14073552 0.88136846
0.33866048 -0.14567383 0.8820219
0.33866048 -0.15064286 0.88220119
0.33866048 -0.15592654 0.88229144
0.33866048 -0.16089304 0.88260865
0.33866048 -0.16564965 0.88290185
0.33866048 -0.17056373 0.883057
0.33866048 -0.17573971 0.88329971
0.33733708 -0.17890701 0.88341904
0.33612174 -0.1279579 0.88592893
0.33866048 -0.13039917 0.88612914
0.33866048 -0.13551974 0.88634789
0.33866048 -0.14047138 0.88645083
0.33866048 -0.14548853 0.88692278
0.33866048 -0.15040623 0.8870582
0.33866048 -0.15555052 0.88752973
0.33866048 -0.16063839 0.88768554
0.33866048 -0.1655174 0.88781375
0.33866048 -0.17035839 0.88792789
0.33866048 -0.17548634 0.88817191
0.33700514 -0.17869383 0.88860053
0.33619273 -0.12771934 0.89093852
0.33866048 -0.13033189 0.89108247
0.33866048 -0.1352386 0.89151847
0.33866048 -0.14023826 0.89160597
0.33866048 -0.14528297 0.89202309
0.33866048 -0.15027884 0.89221865
0.33866048 -0.15517761 0.8924315
0.33866048 -0.16007681 0.89257413
0.33866048 -0.16510549 0.89288807
0.33866048 -0.17008276 0.89310265
0.33866048 -0.17512761 0.89347661
0.33715263 -0.17847119 0.89324564
0.33624971 -0.12747751 0.89601707
0.33866048 -0.13009633 0.89614028
0.33866048 -0.13510023 0.89624929
0.33866048 -0.13995485 0.89653951
0.33866048 -0.14493783 0.89676714
0.33866048 -0.15010008 0.89715487
0.33866048 -0.15514523 0.8973648
0.33866048 -0.15984985 0.89745158
0.33866048 -0.16503373 0.89789277
0.33866048 -0.16978583 0.89795876
0.33866048 -0.17492095 0.89812237
0.33702901 -0.1781987 0.89859056
0.33611238 -0.12723653 0.90107763
0.33866048 -0.12992868 0.90138012
0.33866048 -0.13452281 0.9012863
0.33866048 -0.13956442 0.90168267
0.33866048 -0.14464349 0.90172237
0.33866048 -0.14984132 0.9020313
0.33866048 -0.1547561 0.902376
0.33866048 -0.1598607 0.90254653
0.33866048 -0.16450851 0.90279239
0.33866048 -0.16979164 0.90302581
0.33866048 -0.17481814 0.90344453
0.33725893 -0.17799741 0.90357709
0.33601266 -0.12699768 0.9060936
0.33866048 -0.12929422 0.90618795
0.33866048 -0.1344568 0.9064123
0.33866048 -0.13939738 0.90672755
0.33866048 -0.14442411 0.90677565
0.33866048 -0.14953496 0.90725714
0.33866048 -0.15454903 0.90745038
0.33866048 -0.15945172 0.90749019
0.33866048 -0.16442579 0.90782708
0.33866048 -0.16954838 0.90819222
0.33866048 -0.17456469 0.90831953
0.33702895 -0.17776553 0.90847051
0.33602983 -0.12675837 0.9111191
0.33866048 -0.12937394 0.91109222
0.33866048 -0.13436237 0.91139889
0.33866048 -0.13942426 0.91157544
0.33866048 -0.14434883 0.91189551
0.33866048 -0.14933357 0.91205084
0.33866048 -0.15433683 0.91227317
0.33866048 -0.15920655 0.91277862
0.33866048 -0.16425104 0.91293937
0.33866048 -0.16930144 0.91299474
0.33866048 -0.17433059 0.91344303
0.33741713 -0.17744592 0.91341233
0.33628044 -0.12652875 0.91594088
0.33866048 -0.12920122 0.91599381
0.33866048 -0.13401146 0.9162395
0.33866048 -0.13916105 0.91664219
0.33866048 -0.14419369 0.91693449
0.33866048 -0.14917725 0.91706222
0.33866048 -0.15405291 0.91730648
0.33866048 -0.15904939 0.91743523
0.33866048 -0.16389123 0.91805828
0.33866048 -0.16911778 0.91809905
0.33866048 -0.17407167 0.91832161
0.33732218 -0.1771999 0.91835278
0.33618015 -0.12629816 0.92078346
0.33866048 -0.12876664 0.92117369
0.33866048 -0.13374138 0.92151678
0.33866048 -0.13880529 0.92159361
0.33866048 -0.14395483 0.92176777
0.33866048 -0.14883856 0.9220956
0.33866048 -0.15388045 0.92228156
0.33866048 -0.15878753 0.92258984
0.33866048 -0.16386087 0.92281502
0.33866048 -0.16869774 0.92310292
0.33866048 -0.17385563 0.92318833
0.3371819 -0.17700641 0.923379
0.33602542 -0.12605636 0.92586118
0.33866048 -0.12858337 0.92617106
0.33866048 -0.13365473 0.92647803
0.33866048 -0.1387465 0.92676044
0.33866048 -0.14362626 0.92696893
0.33866048 -0.14860168 0.92708701
0.33866048 -0.15375805 0.92714798
0.33866048 -0.15857336 0.92749882
0.33866048 -0.16362152 0.92779827
0.33866048 -0.16849503 0.92822504
0.33866048 -0.17353252 0.92827779
0.33712211 -0.17674237 0.92846
0.33604571 -0.12581453 0.93093956
0.33866048 -0.12833335 0.93149012
0.33866048 -0.13342428 0.93133199
0.33866048 -0.13838562 0.931669
0.33866048 -0.14336409 0.9318831
0.33866048 -0.14833023 0.93209589
0.33866048 -0.15331325 0.93240595
0.33866048 -0.15842991 0.93254846
0.33866048 -0.1633354 0.93272841
0.33866048 -0.16839436 0.93304753
0.33866048 -0.17327261 0.93317842
0.33715492 -0.1765167 0.93368298
0.33624485 -0.12557732 0.93592131
0.33866048 -0.12812097 0.93625468
0.33866048 -0.13295554 0.93645954
0.33866048 -0.13813522 0.93664986
0.33866048 -0.14300975 0.93688691
0.33866048 -0.14807726 0.93710566
0.33866048 -0.15312251 0.93728888
0.33866048 -0.15811685 0.93744618
0.33866048 -0.16287847 0.93765521
0.33866048 -0.1681561 0.93813366
0.33866048 -0.172984 0.9382937
0.33711016 -0.17629541 0.93849462
0.33607236 -0.12534313 0.94083899
0.33866048 -0.12786351 0.94117951
0.33866048 -0.13271704 0.94140267
0.33866048 -0.13758372 0.94161946
0.33866048 -0.14273511 0.94187468
0.33866048 -0.14806969 0.94208598
0.33866048 -0.15291135 0.94222379
0.33866048 -0.15799934 0.9424668
0.33866048 -0.16293199 0.94284821
0.33866048 -0.16790974 0.94313878
0.33866048 -0.17289478 0.94322455
0.3369813 -0.17608643 0.94362658
0.33640444 -0.12509865 0.94597328
0.33866048 -0.12772256 0.94631201
0.33866048 -0.13261366 0.94641328
0.33866048 -0.13762158 0.94662803
0.33866048 -0.14247987 0.94687998
0.33866048 -0.14753824 0.94708133
0.33866048 -0.15250841 0.94739115
0.33866048 -0.15773723 0.94763249
0.33866048 -0.16249311 0.94799376
0.33866048 -0.16755767 0.94807124
0.33866048 -0.17264816 0.94820195
0.33715689 -0.17578898 0.94843543
0.33608663 -0.12486547 0.9508698
0.33866048 -0.12726375 0.95124346
0.33866048 -0.1321696 0.95146871
0.33866048 -0.13714957 0.95154661
0.33866048 -0.1420871 0.95173043
0.33866048 -0.14733072 0.95214385
0.33866048 -0.15243328 0.95234305
0.33866048 -0.15751541 0.95258063
0.33866048 -0.16246101 0.95281422
0.33866048 -0.16735502 0.95309103
0.33866048 -0.17208248 0.95313662
0.33729088 -0.17557275 0.95351684
0.33609232 -0.12462513 0.955917
0.33866048 -0.12699406 0.95623052
0.33866048 -0.13208133 0.95633018
0.33866048 -0.13701536 0.95668805
0.33866048 -0.14202248 0.95675111
0.33866048 -0.14712819 0.95722067
0.33866048 -0.15214349 0.9573276
0.33866048 -0.15717995 0.9575727
0.33866048 -0.16222103 0.95773113
0.33866048 -0.16735187 0.95807725
0.33866048 -0.17210215 0.95818251
0.3368496 -0.17539945 0.9585517
0.33608735 -0.12438905 0.96087468
0.33866048 -0.1271368 0.96113551
0.33866048 -0.13194649 0.96128106
0.33866048 -0.13700178 0.96152979
0.33866048 -0.14195307 0.96164358
0.33866048 -0.146761 0.96203452
0.33866048 -0.15191612 0.96223122
0.33866048 -0.15698932 0.96234834
0.33866048 -0.16176631 0.96277994
0.33866048 -0.16676266 0.96304119
0.33866048 -0.17183785 0.96335375
0.33718976 -0.1751207 0.96336299
0.33604446 -0.12415045 0.96588516
0.33866048 -0.12678824 0.96621931
0.33866048 -0.13160571 0.96626574
0.33866048 -0.13659661 0.96651304
0.33866048 -0.14164953 0.96696711
0.33866048 -0.14669943 0.96695364
0.33866048 -0.1515789 0.96713263
0.33866048 -0.15668899 0.96770358
0.33866048 -0.16161861 0.9676246
0.33866048 -0.16658232 0.9679724
0.33866048 -0.1715022 0.96820927
0.33700693 -0.17485535 0.96841359
0.33633298 -0.12389977 0.97114968
0.33866048 -0.126551 0.97116554
0.33866048 -0.13148747 0.9711653
0.33866048 -0.13646808 0.97146082
0.33866048 -0.14130926 0.97188258
0.33866048 -0.1463944 0.97205746
0.33866048 -0.15131497 0.97224438
0.33866048 -0.15636709 0.97247136
0.33866048 -0.16138679 0.97267622
0.33866048 -0.1664446 0.97285938
0.33866048 -0.17126369 0.97317964
0.33724999 -0.17461653 0.97350138
0.33599156 -0.12366267 0.9761287
0.33866048 -0.12631586 0.97604251
0.33866048 -0.13118216 0.97625971
0.33866048 -0.13611867 0.9765572
0.33866048 -0.14116128 0.97691715
0.33866048 -0.14610474 0.97710252
0.33866048 -0.15122339 0.97729599
0.33866048 -0.15626964 0.97750819
0.33866048 -0.1612294 0.97779775
0.33866048 -0.16632523 0.97812337
0.33866048 -0.17104504 0.97821617
0.33706069 -0.17441174 0.97834688
0.33606422 -0.12343068 0.98100066
0.33866048 -0.12599176 0.98109651
0.33866048 -0.13090764 0.98126888
0.33866048 -0.13583978 0.9817909
0.33866048 -0.14102481 0.98179615
0.33866048 -0.14580192 0.98213774
0.33866048 -0.15109731 0.98229218
0.33866048 -0.15604264 0.9826588
0.33866048 -0.16079406 0.98272777
0.33866048 -0.16583487 0.98329097
0.33866048 -0.17075475 0.98332828
0.3372592 -0.17420024 0.9832983
0.33630461 -0.12319002 0.98605436
0.33851725 -0.12567835 0.98618376
0.33849618 -0.13061909 0.98633057
0.33866048 -0.13553321 0.98662055
0.33866048 -0.14057332 0.98670292
0.33866048 -0.1459713 0.98699778
0.33866048 -0.15061124 0.98728555
0.33866048 -0.15573697 0.98734641
0.33866048 -0.16069858 0.98766506
0.33859688 -0.16555461 0.98815167
0.33858672 -0.17065223 0.98828584
0.33694896 -0.17393403 0.98845011
0.33619812 -0.12572625 0.98857409
0.33596566 -0.13056335 0.9888044
0.33617592 -0.13549539 0.9890393
0.33643425 -0.14075862 0.98928994
0.33627132 -0.14568102 0.9895243
0.33628944 -0.15065913 0.98976141
0.33618253 -0.15575874 0.9900043
0.33612379 -0.16072565 0.99024081
0.33615088 -0.16565792 0.99047565
0.33623096 -0.17059296 0.99071062
0.33683175 -0.17362174 0.9908548
