# .PCD v0.7 - Point Cloud Data file format
VERSION 0.7
FIELDS x y z
SIZE 4 4 4
TYPE F F F
COUNT 1 1 1
WIDTH 1190
HEIGHT 1
VIEWPOINT 0 0 0 1 0 0 0
POINTS 1190
DATA ascii
0.042342015 0.10383661 0.61067235
0.036063261 0.085962355 0.63820183
0.039355569 0.10942493 0.60260278
0.038599469 0.10889019 0.60339409
0.040518973 0.10442236 0.61018395
0.033837996 0.085803866 0.63873899
0.029916991 0.08224155 0.64423716
0.029642474 0.081719816 0.64531183
0.03371264 0.10796537 0.60583705
0.032695509 0.10613057 0.60834557
0.031871006 0.10357456 0.61295265
0.026910231 0.089463905 0.63445872
0.025485311 0.085952699 0.63953
0.026498489 0.084288463 0.64192069
0.028664472 0.082088202 0.6448822
0.032068755 0.1081129 0.60577822
0.031493764 0.10587607 0.6088416
0.030164607 0.10396677 0.61232251
0.025218893 0.089621708 0.63445258
0.024557311 0.086886764 0.63799679
0.023977976 0.085270658 0.64088297
0.061177846 0.096374482 0.61135125
0.060790565 0.094967708 0.61418647
0.055809528 0.081158087 0.63514245
0.055157006 0.079552397 0.63719904
0.058529571 0.099046111 0.61092377
0.058410484 0.096523508 0.61501151
0.056386359 0.094024256 0.61664397
0.052886266 0.083698452 0.63186038
0.053795397 0.083039522 0.6350593
0.052268811 0.080617845 0.63894165
0.05255777 0.10059458 0.60681802
0.054060221 0.10068686 0.60942805
0.052459758 0.097619638 0.61462599
0.052939687 0.094654888 0.61589921
0.050203573 0.083916381 0.63147855
0.048366815 0.084334984 0.63462824
0.04724621 0.080963463 0.63963342
0.044559751 0.078803957 0.63975376
0.050014872 0.10186952 0.60642534
0.0489939 0.10196082 0.61016738
0.047936656 0.09714444 0.61374104
0.043735202 0.084291235 0.63341892
0.042854577 0.082907692 0.63910532
0.041772209 0.079799682 0.64039242
0.044640295 0.10412255 0.60520029
0.044529133 0.10361552 0.60986054
0.042641517 0.098006517 0.6139304
0.038437881 0.085835114 0.6325388
0.038046882 0.084504679 0.63910657
0.03670777 0.080585092 0.64090496
0.039860696 0.1074582 0.60113251
0.039313916 0.10584816 0.60386807
0.038246244 0.10439235 0.6091069
0.038309999 0.099184871 0.61362952
0.034098431 0.08704941 0.63232142
0.032143936 0.085159034 0.63923913
0.031078488 0.080964133 0.64168203
0.02998581 0.079546735 0.64417839
0.037932932 0.1083537 0.60155421
0.035251353 0.10604684 0.6034053
0.034292281 0.10305014 0.60783857
0.032843571 0.1001453 0.61212623
0.028262433 0.087262318 0.63190216
0.027790591 0.084679723 0.63627779
0.027170537 0.081650481 0.64084023
0.028141294 0.080552995 0.64413399
0.031277329 0.10688923 0.60407043
0.030668292 0.10407028 0.60814071
0.029055398 0.1019762 0.61112678
0.024085715 0.087830469 0.63272703
0.024190843 0.085705951 0.63616031
0.022924691 0.083514184 0.63999081
0.061148498 0.093983814 0.60959971
0.060844459 0.092214763 0.61234212
0.055784322 0.078482658 0.63341105
0.055200566 0.077484652 0.63597631
0.058827616 0.095212698 0.60778773
0.059322126 0.09052597 0.61376512
0.05669279 0.09104006 0.61518079
0.053124301 0.081353247 0.63017499
0.055203594 0.079142943 0.63096529
0.052532151 0.076243788 0.63648015
0.052166112 0.099323362 0.60600269
0.054075703 0.096918881 0.60598969
0.05032203 0.092017531 0.61281866
0.052437052 0.091743648 0.61421591
0.049461834 0.081481233 0.62963414
0.047033161 0.081408098 0.62993908
0.046872169 0.076370448 0.6372959
0.044432703 0.0780655 0.63911909
0.048959583 0.098674357 0.60429317
0.048877776 0.096934706 0.60484987
0.047152504 0.093795404 0.61225522
0.043038812 0.081791729 0.63058758
0.042160373 0.07658273 0.63691819
0.041042227 0.077010065 0.63808703
0.044483077 0.10060917 0.60321057
0.043670841 0.096868768 0.60554636
0.042998943 0.095155358 0.61051255
0.038659982 0.081682608 0.63106108
0.037143476 0.07800293 0.63438725
0.036774531 0.077426612 0.63856584
0.040266514 0.1021848 0.60267389
0.038810726 0.099074066 0.6056729
0.03783248 0.096726194 0.60972232
0.033120885 0.082668513 0.63121796
0.032269329 0.080035284 0.63486737
0.032296441 0.078535393 0.6390121
0.035511196 0.10252902 0.60320431
0.03596215 0.10070099 0.60487008
0.034069933 0.098055512 0.60952288
0.029077843 0.083906054 0.63131917
0.028729357 0.08101669 0.63540113
0.027795766 0.080076694 0.63749933
0.060484726 0.091325477 0.60860449
0.060346678 0.090376794 0.61011857
0.057653904 0.091446802 0.60520917
0.057861488 0.087781399 0.60961795
0.055319339 0.088077307 0.61212194
0.051503751 0.078039631 0.62818974
0.053154107 0.075193301 0.62951273
0.051237706 0.072745487 0.63353783
0.053105354 0.092216179 0.60414749
0.050522573 0.088564038 0.60880792
0.052357033 0.087366045 0.61146033
0.048793934 0.077532455 0.62676239
0.046179745 0.075783983 0.62779826
0.046655048 0.072896317 0.63383889
0.048947223 0.093444303 0.60527784
0.048864134 0.090667784 0.60832328
0.043758679 0.076849222 0.6296609
0.042669985 0.07526122 0.63312387
0.05620499 0.086931854 0.60389495
0.056587316 0.084650949 0.60638756
0.051607449 0.071005046 0.62733674
0.050278593 0.07044585 0.6304028
0.053222585 0.087361321 0.60311306
0.051679436 0.085088432 0.60655218
0.052422896 0.085123196 0.60927886
0.048823394 0.074712366 0.6255067
0.047235813 0.072545648 0.62611997
0.047162175 0.070004433 0.62987632
0.049745295 0.084976688 0.60314792
0.044521131 0.070420757 0.62627614
0.044057254 0.069235429 0.62722564
0.054935567 0.082705677 0.60178322
0.055408806 0.080934137 0.60333705
0.05049137 0.067029074 0.6248228
0.052618019 0.082963333 0.59984744
0.051963866 0.080058813 0.604056
0.047786508 0.067911431 0.62266588
0.046722196 0.065356776 0.6268695
0.048738275 0.083291337 0.59937453
0.048011892 0.081623748 0.6021347
0.042853024 0.067620546 0.62290609
0.042595178 0.065958947 0.62625587
0.054491162 0.077228203 0.60085773
0.049661156 0.063949645 0.62223387
0.052354489 0.079099819 0.59668827
0.052523382 0.076033905 0.6009661
0.049943395 0.074603185 0.60229361
0.046453044 0.064407617 0.61763889
0.04822205 0.063152805 0.6207183
0.046016812 0.060896154 0.62437439
0.047335014 0.080166027 0.59585512
0.045893602 0.077887699 0.60072947
0.047077481 0.074935317 0.60193849
0.043203589 0.06506969 0.61730355
0.04125239 0.065545768 0.62016863
0.041065264 0.06159256 0.62442082
0.044137221 0.078621268 0.59538347
0.043548521 0.077022299 0.59811497
0.038548186 0.063309282 0.61921108
0.038108744 0.061664667 0.62227529
0.052185886 0.075325087 0.59356481
0.052989166 0.072281763 0.59803009
0.050035842 0.070657536 0.60045063
0.046670351 0.061383795 0.61500847
0.048199791 0.059162382 0.61823815
0.04563687 0.056568194 0.62204528
0.047329001 0.07694684 0.59174013
0.045947969 0.07115455 0.60054398
0.04278519 0.062498007 0.61411566
0.040256564 0.056659374 0.62288982
0.042413425 0.07635124 0.59247166
0.040854383 0.074355274 0.59622115
0.041326236 0.071255848 0.5987187
0.038154408 0.062185314 0.6139071
0.035905309 0.060898703 0.61725646
0.035972305 0.057966571 0.62072897
0.038830705 0.074096262 0.59257191
0.038784102 0.073428869 0.59351665
0.034723081 0.060564127 0.61304331
0.033578504 0.059002403 0.61607504
0.033237129 0.057430904 0.61835599
0.051398259 0.071083546 0.59121525
0.051586986 0.068340391 0.59514809
0.049194966 0.066934839 0.5978111
0.045919329 0.057510141 0.6125437
0.04676576 0.055257481 0.61539841
0.044905316 0.053009372 0.61902058
0.047314152 0.073141381 0.58865952
0.045325816 0.066564843 0.59787709
0.042416371 0.058260303 0.61079043
0.040174898 0.051997341 0.62024039
0.042277284 0.073515564 0.58833861
0.038816474 0.072306558 0.59478718
0.040787805 0.067445025 0.59712261
0.037715808 0.058932114 0.6104098
0.035055198 0.053440176 0.61960542
0.037390199 0.072908953 0.58946258
0.035826974 0.070632875 0.59291911
0.036959715 0.068258882 0.59535694
0.033386722 0.058522467 0.61071658
0.031080086 0.057495233 0.61311793
0.031053327 0.054620102 0.61718023
0.033347566 0.071606949 0.58878303
0.032686148 0.070555493 0.59077495
0.027700424 0.056273315 0.61302531
0.02741299 0.054431166 0.61512238
0.049636632 0.068027437 0.5898571
0.049340248 0.065929279 0.59276003
0.048006475 0.064745054 0.59533954
0.044411715 0.052568551 0.61337787
0.043759774 0.051108737 0.61634541
0.046360873 0.068047613 0.58780712
0.04594072 0.064341038 0.59116411
0.044876665 0.063960239 0.59487879
0.041810855 0.054575883 0.60964501
0.041212164 0.051088005 0.61179078
0.040140737 0.049822602 0.6161623
0.042232722 0.068741664 0.58600247
0.042449776 0.063514084 0.59018505
0.040349118 0.064015344 0.59426469
0.037213326 0.054704156 0.60825396
0.037528053 0.050301954 0.61054653
0.035411883 0.049231518 0.61590707
0.036813103 0.069951162 0.58549541
0.034434259 0.066802904 0.59250772
0.03550804 0.064457998 0.59245241
0.031699896 0.054623794 0.60793561
0.030860951 0.05598795 0.60981119
0.030141503 0.05017896 0.61575603
0.03199809 0.069506556 0.58598775
0.030279413 0.067607895 0.5896703
0.03192278 0.064737782 0.5914222
0.02826478 0.054589283 0.60751832
0.02573392 0.054716647 0.61005658
0.025832485 0.05142054 0.61375821
0.028669979 0.066954866 0.58694804
0.023376215 0.052488212 0.61029792
0.023273021 0.051787607 0.61130506
0.039984204 0.064201668 0.58493942
0.039876908 0.062327262 0.58813268
0.038634963 0.060331676 0.59061468
0.035289086 0.050188135 0.60579807
0.035062656 0.048791293 0.60897362
0.033730287 0.046834841 0.61172605
0.036296394 0.065557197 0.58285964
0.038251977 0.063064516 0.58723205
0.034945082 0.060776245 0.5905267
0.03174578 0.051328711 0.60507703
0.033177458 0.048640404 0.6092006
0.029967766 0.04618695 0.6125409
0.031626467 0.065687403 0.58350253
0.029390626 0.063339636 0.58710086
0.031511921 0.061379496 0.58969915
0.027751815 0.051648147 0.60496956
0.024650428 0.049984396 0.60691392
0.025517438 0.047615591 0.61116076
0.028562602 0.065878451 0.58629721
0.023444436 0.051360786 0.60853964
0.023242008 0.050356802 0.61084348
0.057594627 0.052623332 0.58839458
0.057848409 0.051075764 0.59122306
0.057343282 0.048247535 0.59529018
0.056502491 0.045874413 0.59938478
0.054426149 0.043425549 0.60332102
0.053414814 0.041005682 0.60483599
0.054904453 0.053701904 0.58597529
0.052935202 0.042796485 0.60425317
0.050306704 0.041009579 0.60694033
0.047656722 0.039127965 0.60873222
0.05243291 0.054936346 0.58376956
0.046977185 0.039686006 0.60779566
0.045790799 0.0387986 0.60887253
0.043835942 0.057174634 0.58243102
0.044369649 0.056704242 0.58525324
0.043130822 0.053902354 0.58880574
0.039780896 0.045216393 0.60251576
0.039538369 0.042598847 0.60627359
0.037956797 0.040792964 0.60754895
0.040854719 0.059571479 0.58202916
0.042291712 0.05884872 0.5863111
0.039247155 0.054454189 0.58993858
0.036550719 0.047307447 0.60088164
0.037381649 0.044916403 0.60728365
0.03454078 0.042029671 0.60890728
0.036118187 0.061142657 0.58039653
0.034350917 0.05590694 0.58890337
0.031851046 0.047681134 0.60082769
0.0296735 0.042007867 0.6094045
0.032782122 0.061248902 0.58154762
0.03122269 0.059131067 0.58417475
0.031334266 0.056760442 0.5868634
0.027719751 0.047259845 0.60183436
0.02627762 0.045747992 0.604931
0.026632866 0.043672953 0.60827225
0.057984784 0.049902134 0.58523995
0.058582611 0.047913343 0.58910078
0.058211673 0.044956725 0.59336394
0.056782886 0.042730793 0.59731358
0.05543074 0.039722625 0.60142624
0.053756375 0.03775299 0.60330212
0.053297177 0.053054303 0.58202356
0.055282488 0.051593494 0.58440197
0.0550262 0.048251059 0.58739185
0.054642044 0.044376388 0.59236908
0.053706244 0.041995984 0.5962708
0.050870955 0.040316574 0.60073245
0.050617523 0.038063273 0.60531461
0.047578879 0.036122486 0.60703051
0.050677877 0.054283284 0.58134937
0.049463227 0.051681634 0.58383161
0.047884393 0.048638396 0.58686548
0.046704151 0.046092495 0.58854258
0.045211446 0.040002797 0.59982574
0.045001253 0.038881093 0.60402459
0.044504192 0.036382262 0.60785443
0.045304455 0.054579362 0.57963604
0.046690196 0.053884149 0.58351374
0.044760782 0.050803259 0.58842111
0.04271001 0.047984209 0.58955342
0.041259002 0.043340601 0.59671503
0.042047247 0.043070201 0.60003263
0.041601509 0.039349645 0.60536891
0.038900703 0.037001647 0.60734463
0.041405998 0.055392273 0.57827675
0.037400696 0.050166551 0.58814812
0.039633662 0.049176704 0.58915782
0.037789106 0.043981943 0.5967527
0.035257183 0.044063885 0.59722352
0.034660667 0.036761556 0.60685593
0.035721209 0.056574557 0.5786351
0.033531226 0.053918444 0.58076191
0.034115016 0.051784094 0.58589131
0.031423565 0.043488171 0.59835207
0.02856124 0.039813764 0.60211676
0.029400986 0.038757902 0.60603809
0.031815566 0.055263203 0.5829218
0.031691346 0.05443871 0.58517241
0.028049117 0.043663446 0.60015321
0.027302843 0.042628471 0.60215765
0.027321286 0.041052788 0.60567969
0.057925619 0.046140753 0.58263111
0.059418969 0.043474223 0.58633441
0.0592121 0.040524248 0.59056664
0.057925127 0.038363498 0.59461999
0.056296669 0.035786893 0.59875
0.053437572 0.033563949 0.6017977
0.054481532 0.048446577 0.57856935
0.056268197 0.047800645 0.58041543
0.052496221 0.044473719 0.58606362
0.052844293 0.041292582 0.58915561
0.051927283 0.038971785 0.59398729
0.049206059 0.03693191 0.59645939
0.050577898 0.032840323 0.60354507
0.047933582 0.031697452 0.60462344
0.050152134 0.049637828 0.57693815
0.051167186 0.048059512 0.58456355
0.049832117 0.04551515 0.58648336
0.047088414 0.043370869 0.58812606
0.045436159 0.039326601 0.59442747
0.047152814 0.038105123 0.5980221
0.044427525 0.031675655 0.60526294
0.045429949 0.051529367 0.57600003
0.043272234 0.044231739 0.58812463
0.041539796 0.040231366 0.5939185
0.038982075 0.031699251 0.60550267
0.040267162 0.052869789 0.57567286
0.037709191 0.045589406 0.58501673
0.037144948 0.044166472 0.58715206
0.03614999 0.041195169 0.59165943
0.035336636 0.039342139 0.59478021
0.033972099 0.032866687 0.60499036
0.03604345 0.052426051 0.57612282
0.034515686 0.050223906 0.5791086
0.034275167 0.047934607 0.58371794
0.033378191 0.045089781 0.58782357
0.03325519 0.042137939 0.59195542
0.031017579 0.039316073 0.5961436
0.029498857 0.036562208 0.59990954
0.030656241 0.034906652 0.60365337
0.059756398 0.035984367 0.58850586
0.058943246 0.032800745 0.59070748
0.05775832 0.041762978 0.57991689
0.059333019 0.039029282 0.58356464
0.059266213 0.03674487 0.5875023
0.058209803 0.034477815 0.59209484
0.056446053 0.030421935 0.5962373
0.053549215 0.02901683 0.5995813
0.053917732 0.044649217 0.576159
0.055792674 0.043348152 0.5774259
0.051404297 0.040897857 0.58569676
0.050746724 0.03758619 0.58686346
0.049802054 0.035298739 0.59085041
0.050850514 0.028403204 0.60125965
0.048224639 0.027327981 0.60193211
0.050301351 0.045990877 0.57501769
0.047367718 0.038426444 0.58605462
0.046594396 0.035062145 0.59081298
0.043801859 0.027424362 0.60272896
0.045011707 0.046668317 0.57367092
0.042774566 0.039235834 0.58437037
0.041515004 0.035383258 0.59104174
0.038918819 0.033577386 0.59063965
0.038326517 0.028026361 0.60285169
0.040494092 0.047726657 0.57363623
0.037521698 0.044521827 0.57528526
0.038957 0.041743923 0.58246112
0.037338518 0.039398078 0.58557671
0.035718709 0.037159424 0.58937395
0.036790796 0.035406172 0.59224355
0.032979708 0.029604238 0.59827226
0.034170989 0.029338829 0.60160881
0.036949135 0.0482761 0.5752036
0.036196809 0.046215739 0.57731664
0.035211101 0.043220393 0.58119202
0.034651019 0.040983923 0.5846228
0.034058265 0.038172528 0.5891155
0.031998172 0.035263937 0.59322983
0.031786904 0.032713253 0.5969944
0.031146625 0.032246009 0.60044289
0.060265638 0.031955507 0.58144486
0.05966641 0.031529006 0.58504808
0.058932923 0.029524833 0.58802837
0.057901304 0.026284419 0.5907129
0.057695478 0.037185214 0.57727408
0.059007 0.035536028 0.58065939
0.059030384 0.032224372 0.58510989
0.057796799 0.028358124 0.58985806
0.056461141 0.027008697 0.59341645
0.053257048 0.024948068 0.59680915
0.052877851 0.040429126 0.57337701
0.054993652 0.039073106 0.5746637
0.050388176 0.02371173 0.59819251
0.047659244 0.023743171 0.59914708
0.049441028 0.041221891 0.5726276
0.046391387 0.034301378 0.58471316
0.045612816 0.032550041 0.58750242
0.043415409 0.023700859 0.59932667
0.044833418 0.04177846 0.57201761
0.042015497 0.040346246 0.57189327
0.042121038 0.035431962 0.58323258
0.041368198 0.032526355 0.58763719
0.038396031 0.02426859 0.59855396
0.040877055 0.043377358 0.57259881
0.038798347 0.041072376 0.5738377
0.036388345 0.038672131 0.57794493
0.035658617 0.035505056 0.58246386
0.034165345 0.03308909 0.58616078
0.033565529 0.029366884 0.59012419
0.033901878 0.027075216 0.59455878
0.034745999 0.026082069 0.59813428
0.035482146 0.039778676 0.57814425
0.034669757 0.037107613 0.5817281
0.033546835 0.032554064 0.58654207
0.032567449 0.031629995 0.59092569
0.032382261 0.030299466 0.59384191
0.060935311 0.031949528 0.57531613
0.061188098 0.030381773 0.57841647
0.06109722 0.027805265 0.58257997
0.059826687 0.025218587 0.5867961
0.058353443 0.022514604 0.59056306
0.057052623 0.020918189 0.59320527
0.05857534 0.033923406 0.57387733
0.060044125 0.032565173 0.57732064
0.058037683 0.026889045 0.588521
0.056579489 0.023685055 0.59246987
0.053833485 0.020406848 0.59473866
0.053523958 0.036178809 0.57052821
0.054588992 0.035965156 0.57199407
0.049427997 0.021582626 0.59630281
0.04794753 0.019148553 0.59617949
0.049153995 0.036975387 0.57005489
0.043123171 0.020270627 0.59626353
0.045745105 0.037504941 0.57005304
0.043091267 0.036586404 0.57059795
0.037681662 0.021623041 0.59323657
0.039615601 0.021182142 0.59567964
0.039630167 0.035890635 0.57245064
0.037186764 0.034254879 0.57530707
0.035293423 0.03250026 0.5793153
0.034196042 0.029560212 0.5842852
0.034197688 0.02580614 0.58796376
0.03539256 0.023958012 0.59160203
0.033944327 0.030357376 0.57910645
0.03318917 0.028435092 0.58284205
0.03281055 0.026305512 0.58526361
0.060563643 0.027021524 0.57664227
0.060053624 0.023710635 0.57986277
0.059398785 0.021105636 0.58384591
0.057910297 0.019557212 0.58795547
0.057025328 0.030008767 0.57178903
0.058380853 0.02669473 0.57440501
0.058771364 0.023351951 0.57710433
0.057177491 0.018657479 0.58422405
0.055660136 0.017920129 0.58783972
0.052777003 0.01700788 0.5909723
0.050991703 0.016933396 0.59464586
0.053408675 0.033098329 0.56886601
0.053509049 0.030298699 0.5700509
0.049009703 0.015854359 0.59061825
0.047613338 0.016425654 0.59419703
0.048792254 0.034056801 0.56857854
0.048499081 0.030642755 0.56861174
0.043280192 0.016204007 0.59022039
0.043904632 0.017000861 0.5936448
0.045944721 0.03422942 0.56818181
0.043495927 0.031905327 0.56896913
0.040920842 0.028848641 0.57157654
0.037686173 0.019527134 0.58560884
0.038717296 0.017638369 0.58969587
0.039765049 0.018409368 0.59360689
0.03967616 0.032390859 0.57020563
0.037558187 0.030322503 0.57320154
0.036407936 0.027466152 0.57690895
0.035456598 0.024584778 0.58123571
0.034697194 0.022264617 0.58519834
0.035311911 0.019845951 0.58882606
0.034042679 0.029611278 0.5773896
0.033118747 0.026838753 0.58177495
0.032746475 0.024932567 0.58477366
-0.014467869 0.032870706 0.56975967
-0.015095465 0.031054344 0.57307553
-0.017828725 0.033572 0.56975496
-0.018290833 0.031745277 0.57285392
-0.020847522 0.033354238 0.57009667
-0.021237902 0.032513924 0.5717144
0.059088577 0.018966191 0.57806128
0.058721334 0.017869374 0.58034891
0.055508412 0.026278872 0.57074392
0.056670047 0.022914601 0.57235771
0.058051687 0.020599224 0.57559389
0.056585509 0.016051888 0.58184779
0.054240867 0.014927868 0.58456403
0.051597118 0.014272165 0.58728564
0.052516479 0.026261412 0.56940573
0.052743167 0.023121811 0.56929219
0.049203821 0.012868105 0.58511627
0.048383236 0.014208883 0.587484
0.048068371 0.027492136 0.56899828
0.046814136 0.02409373 0.56949425
0.043527447 0.014707841 0.58409315
0.043997303 0.015275821 0.5873214
0.044560235 0.028364632 0.56940109
0.042267539 0.025152277 0.57092375
0.039271798 0.021149928 0.57381099
0.03833935 0.018611023 0.57761514
0.039637886 0.017204342 0.58296776
0.040170614 0.017025363 0.58684278
0.039087854 0.026027001 0.57278067
0.037970513 0.023636907 0.57496488
0.037225693 0.020970332 0.57853121
0.03696011 0.01987187 0.5824855
0.021765482 0.031119689 0.5597868
0.021778643 0.030392118 0.56053501
0.016272306 0.014405979 0.58490729
0.016044922 0.014015311 0.5859254
0.019477325 0.031815253 0.55953455
0.018201046 0.030284572 0.56190872
0.012186803 0.017863762 0.58044112
0.013442647 0.016211495 0.58344144
0.013502013 0.014576359 0.58591837
0.015632337 0.031754229 0.55953866
0.013665766 0.030637797 0.56218499
0.012438662 0.028981816 0.56464505
0.0090976246 0.019281961 0.57952702
0.0091050863 0.017532429 0.58225238
0.010080915 0.015289424 0.58476347
0.0093662292 0.030605849 0.56235671
0.0076170154 0.029002022 0.56543398
0.0053509064 0.027506921 0.5671863
0.0039399713 0.021936884 0.57496852
0.0048097484 0.020949025 0.57787311
0.0051344074 0.018641889 0.5808934
0.0033136196 0.028608024 0.56629461
0.0017242953 0.027824238 0.56854379
0.00046940893 0.024258301 0.57380968
0.0013168789 0.022057226 0.57633877
-0.0028981715 0.028904084 0.56581581
-0.0028854124 0.028084993 0.56886041
-0.0034790672 0.025267057 0.57261246
-0.0045094155 0.023191642 0.57449263
-0.0052714497 0.02899852 0.56555164
-0.0078781843 0.029488597 0.56814355
-0.0090965405 0.026580945 0.57210249
-0.0073400438 0.023789153 0.57408643
-0.013055705 0.030394133 0.56855363
-0.013706878 0.028227597 0.57160193
-0.017203763 0.032417994 0.56909168
-0.017947704 0.030682538 0.57196063
-0.020824194 0.03273727 0.56928533
-0.021205522 0.031685725 0.57130194
0.058476418 0.014708638 0.57506043
0.058151744 0.013598533 0.57713461
0.055282898 0.018499179 0.57008857
0.057130575 0.016336273 0.57312202
0.055635966 0.012322243 0.57886446
0.053046256 0.011488821 0.58134145
0.05053632 0.019885521 0.56529886
0.052369885 0.019788206 0.56777561
0.049119208 0.010460798 0.58258277
0.046631634 0.0087229311 0.58267683
0.047219567 0.02096507 0.564794
0.046680704 0.021641975 0.56795466
0.043462217 0.012237236 0.58223498
0.043133117 0.0091808774 0.58284295
0.044395715 0.021043258 0.5650717
0.042123102 0.020454822 0.56812668
0.039660159 0.020331509 0.57132077
0.038147733 0.016063407 0.57806861
0.039396323 0.012908328 0.57973146
0.040639725 0.0099106692 0.58198839
0.038668748 0.01910642 0.56755298
0.037397452 0.018562995 0.57152635
0.036599383 0.016096083 0.57568407
0.036321744 0.012588793 0.57760102
0.02329177 0.028973568 0.55721325
0.02188359 0.02804083 0.56018567
0.016807208 0.013040286 0.58297265
0.017007383 0.010546461 0.58546525
0.01913731 0.030646127 0.55632412
0.01914742 0.027152002 0.56177944
0.016529456 0.025189865 0.56343329
0.013459913 0.015712023 0.57801425
0.015044238 0.014598526 0.581141
0.012610208 0.011249859 0.58594936
0.014139883 0.029919125 0.55662709
0.012097415 0.030672658 0.55925161
0.012589302 0.025352541 0.56486064
0.010002162 0.01800321 0.57601655
0.006948255 0.015124518 0.5829857
0.0080703199 0.012148544 0.58372378
0.011012457 0.028541841 0.55669844
0.0084295161 0.028704617 0.55917317
0.0085456856 0.026111942 0.56565005
0.0062099285 0.024691083 0.56628865
0.0049113147 0.020096499 0.57325357
0.0065063834 0.020164018 0.57560402
0.0038421266 0.015143311 0.58033895
0.005576279 0.012451623 0.58177942
0.0053126365 0.027292214 0.56035393
0.0024339557 0.026976824 0.56311733
0.0014927872 0.023837499 0.56796545
0.0011605956 0.022222035 0.5706417
-0.00053747743 0.018887054 0.57563007
0.0013452433 0.016473431 0.57777572
-0.0026590414 0.026884682 0.56353408
-0.0029630326 0.023182461 0.56825942
-0.0034592599 0.023025967 0.56841564
-0.0049113333 0.020242397 0.57385385
-0.0074062087 0.027258825 0.56276405
-0.0086222477 0.025683638 0.5667547
-0.0093490519 0.023845281 0.56915551
-0.0095327757 0.020836983 0.57283658
-0.012150351 0.027598161 0.56212282
-0.013214793 0.027155619 0.56620848
-0.013850357 0.024592489 0.56874323
-0.014549822 0.021640444 0.57186604
-0.015425406 0.027399685 0.56218839
-0.018217638 0.02689245 0.56469876
-0.01909899 0.024800442 0.56862873
-0.017798282 0.022087455 0.57108462
-0.022874139 0.027418081 0.56441885
-0.023548543 0.025878288 0.56791276
-0.026810996 0.027900528 0.56392789
-0.027547419 0.026392795 0.56750047
0.058372073 0.010557026 0.57218057
0.057786051 0.0091676414 0.57462692
0.055017553 0.015156414 0.5633679
0.055503324 0.014115648 0.56736726
0.056754287 0.012838528 0.57025176
0.055461846 0.0087416358 0.57657576
0.052894104 0.006786936 0.57862186
0.050995685 0.0041144695 0.5808391
0.052110314 0.017066149 0.56289905
0.053583767 0.017138464 0.56638753
0.0504779 0.0077534346 0.580805
0.047992859 0.0049239071 0.58157992
0.04706239 0.018736696 0.562343
0.044718593 0.019653454 0.56471258
0.0412324 0.0088559035 0.58105445
0.042775087 0.0058363099 0.58172178
0.042733204 0.018138906 0.56190109
0.040940743 0.018625595 0.56433564
0.037559912 0.0090094935 0.57907784
0.038740024 0.0062735192 0.58003455
0.037500191 0.017010193 0.56447011
0.035159312 0.01545514 0.56859112
0.034205735 0.012667647 0.57309854
0.034896862 0.0091823228 0.57681942
0.033053312 0.013459796 0.56708509
0.032392021 0.011337757 0.57102823
0.027247954 0.024458859 0.5508377
0.027484676 0.023827039 0.55356532
0.020578003 0.0056417836 0.58010852
0.020710507 0.0045091584 0.58310449
0.019725563 0.0024032956 0.58461469
0.024292197 0.025673177 0.55052572
0.024822909 0.025890131 0.55402219
0.022286845 0.022646893 0.55779517
0.01780472 0.0083983969 0.5793612
0.017963603 0.006124652 0.5842126
0.016633086 0.0031253565 0.58510655
0.021134961 0.026716534 0.55120504
0.018325897 0.026159097 0.55350679
0.017576689 0.022718932 0.55794108
0.016013134 0.02267397 0.56097502
0.012595609 0.012679942 0.57615668
0.013123352 0.0095349066 0.57797301
0.011809841 0.0070356391 0.58298022
0.013675511 0.0045136977 0.58483875
0.013879634 0.027129494 0.55434555
0.013589464 0.02316745 0.55675286
0.01205093 0.022081183 0.56144005
0.0088276416 0.013816491 0.57411426
0.0088720135 0.0095788091 0.57755649
0.0077083334 0.0090768728 0.58206099
0.011042006 0.027069781 0.55554175
0.0085535347 0.025172975 0.55733073
0.0072484985 0.022387573 0.5607475
0.0051845349 0.022257101 0.56425852
0.0042585768 0.017260442 0.5717538
0.0044928677 0.014184518 0.57336736
0.0039890893 0.011942782 0.5776605
0.0054701082 0.010937316 0.58098537
0.0025156774 0.023360841 0.56184036
0.00089875236 0.021162393 0.56404543
-0.00015541166 0.017898202 0.5693028
-0.0003974475 0.016472466 0.57234883
0.0012718327 0.014742233 0.57611001
-0.0028360561 0.022716736 0.56084156
-0.002867125 0.020016167 0.56552356
-0.003185574 0.019326236 0.56665272
-0.0051858462 0.015788142 0.57107091
-0.0077807382 0.023490584 0.56027979
-0.0092337541 0.020811176 0.56457305
-0.0093020871 0.019895118 0.56596327
-0.010032091 0.016634006 0.57062501
-0.011488758 0.023847204 0.56031728
-0.013500169 0.023185635 0.56181526
-0.013869189 0.020413682 0.56485116
-0.014532283 0.017858572 0.56971216
-0.017023504 0.02284112 0.56239194
-0.018222161 0.019994698 0.56643635
-0.017803088 0.017243125 0.567707
0.058137029 0.0068568923 0.568914
0.057565037 0.0047067096 0.5721795
0.054884713 0.012140039 0.56160295
0.056283556 0.010358993 0.56394583
0.057507396 0.009073602 0.56717873
0.055917256 0.004028474 0.57462251
0.053369608 0.0020498065 0.57660508
0.050887644 0.0011047181 0.57865745
0.052254725 0.013327204 0.56006169
0.050467443 0.0030676648 0.57918125
0.047926884 0.00085913297 0.57938898
0.047443941 0.015213663 0.55810446
0.042820629 0.00051332731 0.58006752
0.042910747 0.015085228 0.55484456
0.041768741 0.01603172 0.55787623
0.037073128 0.00190196 0.57943058
0.036619626 -0.0011511417 0.5798192
0.037542023 0.014577124 0.55815977
0.035662226 0.015052006 0.56159472
0.032774068 0.0061077652 0.57554311
0.033508435 0.0026539993 0.57674336
0.031852767 0.019996423 0.54899818
0.031859286 0.01938583 0.55157328
0.03416767 0.013388447 0.55795759
0.031892344 0.013515718 0.56065899
0.03034218 0.011145964 0.56552708
0.029566584 0.0088914763 0.56932235
0.029089401 0.0054292027 0.57317871
0.027746916 0.0017947266 0.57624185
0.025088439 -0.00010894611 0.58087093
0.023978252 -0.0021080635 0.58234745
0.028765975 0.022691339 0.54865819
0.029370476 0.021386784 0.55281073
0.027138384 0.017562922 0.55498928
0.028526697 0.011501094 0.56108707
0.026234344 0.0053001288 0.57035691
0.022173252 0.0032718237 0.57712764
0.022992371 0.0018962044 0.58216697
0.020753628 -0.00056809466 0.58421105
0.024892675 0.023582295 0.54843974
0.02191896 0.020942517 0.54980969
0.022611979 0.018187573 0.55647063
0.018476613 0.0054098181 0.57576299
0.015175866 0.00076921377 0.58056146
0.0169477 0.00038039545 0.58419359
0.021386102 0.024589408 0.54992515
0.019228777 0.021597248 0.55209666
0.018645588 0.019443015 0.55509537
0.01381164 0.0053733494 0.57639229
0.012931325 0.0040408764 0.579705
0.013849288 0.0027573137 0.58366537
-0.0039493702 0.018952062 0.55853361
-0.0032732189 0.016400548 0.56100345
-0.0043815747 0.013998538 0.56471866
-0.0062010251 0.012643078 0.56831658
-0.0062442981 0.018661771 0.55848074
-0.0094164759 0.017904293 0.55979186
-0.010866817 0.015271345 0.56348711
-0.010030672 0.013166435 0.56722307
-0.012571868 0.021196678 0.55877995
-0.013310965 0.017910358 0.55949044
-0.014021512 0.015594278 0.56389368
-0.014935136 0.014731064 0.56725001
-0.018521711 0.018917713 0.55922413
-0.019837812 0.016701369 0.56357014
-0.01944451 0.015648611 0.56645805
-0.023317881 0.018767226 0.55848908
-0.024439 0.016872641 0.56260741
-0.02779153 0.018953767 0.55764687
-0.028802067 0.016841542 0.5615294
0.05824279 0.0029811524 0.56647593
0.057629086 0.00066386675 0.57003081
0.054064289 0.0086775944 0.55941182
0.055631939 0.0063853236 0.56116998
0.056861348 0.00407115 0.56431592
0.055406846 -0.00068273302 0.57105184
0.052767996 -0.0019404031 0.57375062
0.050130662 -0.0031614373 0.57526314
0.050614748 0.010702655 0.55302119
0.051828906 0.0093033463 0.55697078
0.049995042 -0.0046076858 0.57405788
0.047416065 -0.0035288725 0.57676071
0.044751886 -0.0063504279 0.57898319
0.047589749 0.012281051 0.55189949
0.04828801 0.012629088 0.55558801
0.042799111 -0.0026624687 0.57910609
0.041465711 -0.006015094 0.57987189
0.042750433 0.01339479 0.5521037
0.036838777 -0.0043828078 0.57937711
0.036419246 0.015185315 0.54624748
0.037069365 0.012778915 0.55060506
0.036616515 0.011911474 0.55449259
0.031907417 -0.0018768166 0.57546282
0.031214723 -0.0050304662 0.57780844
0.028885324 -0.0075150365 0.58085054
0.033473741 0.017536007 0.54592961
0.033837281 0.015996851 0.55095714
0.032211587 0.01205135 0.55410856
0.031316575 0.012293685 0.5575372
0.027899941 0.0071144439 0.56407672
0.02778432 0.0061195754 0.56469721
0.027767204 0.0018905904 0.57304329
0.027657103 -0.0010405546 0.57446581
0.027431721 -0.0030390364 0.57962638
0.025438299 -0.0061865738 0.58223444
0.029060433 0.018567797 0.54585701
0.027447086 0.013286462 0.5532074
0.027742878 0.01010876 0.55767214
0.027245084 0.0073124859 0.56159598
0.026145007 0.0045125503 0.56616491
0.024853781 0.0021802224 0.57060057
0.022801887 -0.00021192152 0.57408613
0.021111619 -0.0047513181 0.58196229
0.025439816 0.018180922 0.54646176
0.023217602 0.016681217 0.54882443
0.022315709 0.014552539 0.55258429
0.017606013 0.00035102852 0.57389867
0.016793463 -0.0019254494 0.57779121
0.018101325 -0.0038973736 0.58048993
0.020244369 0.018133502 0.55127734
0.019828517 0.016763389 0.55257231
0.013353813 0.007655004 0.56004047
0.012792297 0.0064322706 0.56209737
0.0148471 0.0017685611 0.5751341
0.014459327 0.0012319637 0.57714212
0.0096469969 0.009970706 0.55894667
0.00872311 0.0073752664 0.56281567
0.0071003512 0.0098498296 0.55911845
0.0065967999 0.0076245479 0.56221044
-0.005304005 0.016101198 0.5568924
-0.0054302998 0.013396163 0.55787033
-0.006506145 0.010748293 0.5626626
-0.0073701292 0.010268059 0.56520861
-0.006421648 0.01576376 0.55660433
-0.0091903992 0.012969378 0.55765152
-0.010142587 0.01046912 0.56132418
-0.0094490573 0.010401729 0.56497639
-0.012416776 0.011370037 0.55741674
-0.012992542 0.0099934619 0.56056589
-0.024418257 0.017137628 0.55678147
-0.026950583 0.014950596 0.56126523
-0.028032333 0.017042562 0.55629069
-0.029091664 0.015366159 0.56042647
0.057599131 -0.00050891936 0.56527036
0.05718457 -0.0018899906 0.56726021
0.054435663 0.0026934091 0.55926907
0.054932602 -0.00053598871 0.56250221
0.054164335 -0.0037000794 0.56691706
0.051695243 -0.0049769911 0.57092905
0.050318331 0.008795945 0.55229378
0.051181465 0.005681335 0.55382913
0.05232073 0.0024858918 0.55674785
0.048943415 -0.0067976802 0.57121855
0.04652442 -0.0077250744 0.57448655
0.044983767 -0.0075009586 0.57761401
0.046810325 0.0087048803 0.55004758
0.047808565 0.0059472136 0.551045
0.042519461 -0.009370327 0.57478929
0.040734593 -0.0088985618 0.57725286
0.041301556 0.009453427 0.54486811
0.043339238 0.0098871756 0.54727018
0.03636178 -0.010148106 0.57823318
0.033731449 -0.011892012 0.57817733
0.037548535 0.012376156 0.54400378
0.038555883 0.011629188 0.54800695
0.034824267 0.0098941661 0.55310577
0.030192098 -0.0033400436 0.57339138
0.031999063 -0.0077508879 0.57800299
0.029889146 -0.010870271 0.5797618
0.033754926 0.014382109 0.54241192
0.032137915 0.0092919245 0.55265558
0.026977167 0.0011442685 0.56128985
0.027601261 -0.003563938 0.57223082
0.025275139 -0.010686485 0.58111531
0.028855832 0.014626682 0.54243428
0.026535714 0.0092668589 0.55199766
0.026606089 0.0062467363 0.55472714
0.026133522 0.0035375645 0.5593186
0.025113204 0.0010351753 0.56319535
0.023530662 -0.001934601 0.56719607
0.022604043 -0.0029937634 0.57082921
0.020351741 -0.0095329639 0.57983458
0.025296716 0.01444035 0.54371536
0.023819331 0.01268784 0.54599172
0.023702143 0.010807199 0.54954022
0.017943734 0.0030039223 0.55764073
0.01744963 0.001410272 0.56039035
0.018601624 -0.0039194273 0.57236588
0.017365625 -0.006372408 0.57522565
0.017714094 -0.007978837 0.57800138
0.014419008 0.006693786 0.55469948
0.015871439 0.0052008759 0.55761445
0.01451759 0.0025633015 0.56188333
0.012069736 2.043508e-05 0.56294328
0.011127215 0.0081344871 0.55408418
0.010567412 0.008881392 0.55645961
0.0092898421 0.0038536005 0.56326562
0.0086480714 0.00060828263 0.56369108
0.0059282407 0.0089528188 0.55196047
0.0048905239 0.0078661647 0.55648702
0.0039970726 0.0048343092 0.56105673
0.0034600049 0.0012370814 0.56405568
0.0033418201 0.0073927827 0.5522325
0.0018161424 0.0060917549 0.55623472
0.0013476536 0.0037403889 0.55939144
0.0012462772 0.0016959542 0.56229752
-0.010337587 0.0096650124 0.55578512
-0.011064291 0.0074558686 0.55902863
-0.014190998 0.0091635361 0.55474246
-0.015024282 0.0074625397 0.55796868
-0.017505579 0.0083776265 0.55428296
-0.018369354 0.0067676753 0.55713207
0.052362073 -0.0041959798 0.56121427
0.052109931 -0.0060946825 0.56368589
0.049697947 0.0015363535 0.55226105
0.050052483 -0.0011844425 0.55496657
0.050705321 -0.0045235525 0.55869001
0.049603537 -0.0083109932 0.56387603
0.047257122 -0.0094205942 0.56761962
0.045493476 -0.010566103 0.57084626
0.04503493 0.0052065086 0.54848105
0.046539452 0.0022100322 0.55000061
0.047461003 -0.0018794551 0.55233115
0.044040311 -0.011522185 0.56719553
0.041710027 -0.011715814 0.57125247
0.039352633 -0.011385641 0.57410532
0.04108382 0.0082773352 0.54381555
0.042698663 0.0056814998 0.54563665
0.043912716 0.0021032877 0.5477038
0.038382232 -0.013237065 0.57164061
0.03624507 -0.013315102 0.5748381
0.033484641 -0.013749512 0.57734382
0.038070634 0.008925885 0.5427587
0.037139226 0.0055647297 0.54359037
0.030323556 -0.014197417 0.57381386
0.030488439 -0.013708249 0.57753503
0.033013374 0.009407891 0.54092097
0.033864647 0.0051885992 0.54328638
0.029493054 0.002811701 0.54757637
0.029524276 0.00074525597 0.55276155
0.028124074 -0.00011009118 0.55435288
0.025951752 -0.005267845 0.5623917
0.026673999 -0.0067182845 0.5639531
0.024844732 -0.01060385 0.56793147
0.027037628 -0.014076738 0.57289732
0.024919396 -0.014137059 0.57693243
0.028569823 0.0099699516 0.54097944
0.026583688 0.0067318305 0.54296798
0.026450885 0.0046651959 0.54777288
0.027222466 0.0035836119 0.55302334
0.024924984 0.00059508486 0.55605006
0.023313543 -0.0028427145 0.56122899
0.024464047 -0.0048209364 0.5654
0.021748181 -0.0088389274 0.56840581
0.02015866 -0.012126444 0.5720439
0.020860948 -0.013075924 0.5761376
0.025532113 0.011679683 0.54271954
0.024710536 0.0091856979 0.54432911
0.0241118 0.0076668775 0.54709125
0.018761335 0.00091578625 0.55199879
0.019899011 0.00048618205 0.55561644
0.019111658 -0.002285054 0.55977857
0.016738473 -0.0047957166 0.56095785
0.019005528 -0.0074492078 0.57048708
0.018353635 -0.0095904507 0.5731473
0.015556883 0.0031500338 0.55153936
0.017132327 0.0027125692 0.55444527
0.015448404 -0.0015422832 0.5609622
0.013080634 -0.0037592517 0.56188655
0.011137452 0.0051563364 0.54962587
0.0081297196 -0.0032665238 0.56269354
0.0070687681 0.0076751234 0.5483889
0.0066931471 0.0066673914 0.54866868
0.0032255203 -0.002281677 0.56263721
0.0024328716 0.0053106761 0.55004871
-0.00045993552 0.0036369758 0.55311614
-0.0011002347 0.00073082186 0.55729759
0.00042099506 -0.000927913 0.56049734
-0.015449144 0.0064765764 0.55324
-0.016312197 0.0050154645 0.55563396
-0.017614365 0.006338995 0.55259341
-0.018561989 0.0047340598 0.55555999
0.04743569 -0.0041857231 0.5551011
0.048820544 -0.0069796871 0.55856085
0.048450794 -0.0088741835 0.56131035
0.045943253 -0.010030864 0.56405669
0.044811338 -0.00079640094 0.54939514
0.044947516 -0.0036807922 0.5522933
0.044166107 -0.0077330996 0.55619484
0.043209136 -0.010434883 0.55989105
0.0420959 -0.011854464 0.56501937
0.040346354 -0.013206011 0.5681622
0.040556803 0.0019386942 0.5446713
0.041089024 -0.00075582368 0.54723138
0.040067449 -0.0045872759 0.55066198
0.039324887 -0.0081019085 0.55451465
0.038388964 -0.010825431 0.55839527
0.037233815 -0.012673607 0.56330639
0.036394812 -0.014268151 0.56796581
0.034518857 -0.015449678 0.57135874
0.037586559 0.0023351917 0.54421359
0.036308646 -0.0010490827 0.54636586
0.035713069 -0.0043259477 0.54863566
0.035203572 -0.0093675815 0.55534017
0.036053412 -0.010070454 0.55635118
0.032756858 -0.01346324 0.56255591
0.03171137 -0.014385579 0.56694722
0.031473249 -0.015141135 0.5711273
0.030925239 0.0065669091 0.54058838
0.031922776 0.0044478066 0.54319167
0.031396843 0.0010310095 0.54629046
0.02970928 -0.0025548548 0.55010599
0.028288113 -0.0057296818 0.5508005
0.026422545 -0.010547179 0.55824482
0.027000772 -0.010756661 0.56223601
0.026601721 -0.012566864 0.56700873
0.025818834 -0.013809806 0.57107675
0.023397211 -0.015040192 0.57384652
0.029630013 0.0069039566 0.54049444
0.028626844 0.0055369958 0.54194772
0.026609348 -0.0029853801 0.55152959
0.024511453 -0.0040413113 0.55160737
0.023152191 -0.0087979976 0.55811387
0.024531798 -0.0088393595 0.5603466
0.022037888 -0.013975696 0.57217276
0.019792743 -0.0023578918 0.55006665
0.02140471 -0.002427761 0.55145401
0.019172836 -0.006716155 0.55952936
0.017862855 -0.0085153934 0.55922651
0.014928885 0.00019606436 0.54738677
0.012042072 -0.0082316576 0.56087703
0.011639901 0.00041766744 0.54637951
0.0085341521 -0.0083393417 0.56045258
0.0060795769 0.0013457155 0.54661471
0.0031623952 -0.0065892269 0.55911702
0.0012408271 0.0015899613 0.54703277
-0.001836136 0.00012448756 0.54950672
-0.0028861761 -0.0036064163 0.55520201
-0.0011362135 -0.0056636459 0.55775708
-0.0028075799 -0.0013869908 0.55077577
-0.0032457188 -0.0025340775 0.55300868
0.037109572 -0.008512672 0.55353653
0.036071394 -0.011305232 0.5578922
0.034775831 -0.0061637801 0.55014449
0.034296926 -0.0080924463 0.55283171
0.033207215 -0.011169735 0.55757552
0.032173797 -0.012812993 0.56042737
0.031811401 -0.0058405208 0.54995638
0.0293219 -0.0077424664 0.55289894
0.028612178 -0.0099789388 0.55633986
0.029557783 -0.01223894 0.55980283
0.02417032 -0.0072645633 0.55190295
0.02310301 -0.0096008424 0.55531287
0.01915006 -0.0055421055 0.54776329
0.020554215 -0.0079792682 0.54960334
0.019604562 -0.011073187 0.55480438
0.016954565 -0.011606734 0.55711085
0.013420921 -0.0038449559 0.54217046
0.014599737 -0.0036010183 0.54476553
0.011782646 -0.012263358 0.55843598
0.0098643452 -0.013665644 0.5595693
0.012982037 -0.0031383624 0.54257667
0.011164933 -0.0029847585 0.54426754
0.0080022626 -0.011884288 0.55825531
0.0092261918 -0.013485412 0.55963665
0.0054567903 -0.0030959183 0.54447216
0.0029578395 -0.010488639 0.55625516
0.0010044798 -0.0027040141 0.54462308
-0.0019616336 -0.0044792541 0.54732311
-0.0028645359 -0.0074474323 0.5517751
-0.0011644065 -0.0096227871 0.55491334
-0.002749607 -0.002886612 0.54932785
-0.0032173023 -0.0042870012 0.55129337
0.017627431 -0.011018649 0.54831553
0.016862668 -0.013126709 0.55171973
0.014011368 -0.008649393 0.54405677
0.014570259 -0.012068439 0.54602289
0.013625178 -0.015025545 0.55083126
0.011863343 -0.015163752 0.55420142
0.010101695 -0.0080507193 0.54252213
0.010243576 -0.016578399 0.55079472
0.0073973611 -0.015586957 0.55423748
0.0052721687 -0.007552701 0.54264301
0.0028112344 -0.0098470561 0.54274505
0.00084138289 -0.014533307 0.55025357
0.0028027855 -0.014324206 0.55305707
0.0015791394 -0.0064284354 0.54343903
-0.00022898987 -0.0089237941 0.5449118
-0.0012269616 -0.011575416 0.54902208
-0.00022366643 -0.012525395 0.55248219
0.011946958 -0.014275324 0.54593927
0.011848766 -0.015458904 0.54804951
0.0096787661 -0.011248591 0.54232889
0.0076039396 -0.015244503 0.54369086
0.0069258027 -0.017232856 0.54640418
0.0067282133 -0.017208282 0.55079806
0.006685812 -0.010963894 0.54184067
0.0039095134 -0.014911637 0.54319859
0.0028712414 -0.016830819 0.5460735
0.0040032342 -0.016654715 0.550484
0.00097161531 -0.012364143 0.54468429
0.00064127147 -0.013990847 0.54682809
0.021101564 -0.026000306 0.54603755
0.021048319 -0.027033281 0.54719961
0.019337989 -0.025567718 0.54541981
0.0060810074 -0.018651046 0.54262787
0.0058649033 -0.019537723 0.54340714
0.0038135611 -0.018469363 0.54150605
0.0031666756 -0.019783221 0.54367101
0.00070536137 -0.017907005 0.54220146
0.00061662123 -0.018447755 0.54294103
0.025268434 -0.02854576 0.54598683
0.02511397 -0.029324524 0.54694206
0.021920862 -0.02772592 0.54438013
0.021791097 -0.028701479 0.54690826
0.016958391 -0.025946459 0.54013187
0.017331857 -0.026916098 0.54342103
0.018446317 -0.028441336 0.54600686
0.013679016 -0.026059408 0.53854549
0.013848476 -0.027390273 0.54145265
0.0074740276 -0.024023838 0.53811806
0.0064357184 -0.024952818 0.53993958
0.0035669766 -0.0226244 0.53808969
0.0031934306 -0.023894412 0.5404247
0.016175969 -0.028307049 0.53822631
0.016500153 -0.02972118 0.54052186
0.012698196 -0.028079454 0.53638989
0.012366947 -0.029689722 0.53924471
0.0078273118 -0.02760209 0.53538781
0.0076892674 -0.027951811 0.53822291
0.0044117235 -0.026370537 0.53627533
0.0045429245 -0.026762877 0.53798968
