# .PCD v0.7 - Point Cloud Data file format
VERSION 0.7
FIELDS x y z
SIZE 4 4 4
TYPE F F F
COUNT 1 1 1
WIDTH 157
HEIGHT 1
VIEWPOINT 0 0 0 1 0 0 0
POINTS 157
DATA ascii
0.0052775294 0.099058837 0.59635717
0.011853788 0.099599473 0.59607995
0.03505211 0.1021627 0.59792173
0.041404132 0.10280602 0.59810835
0.0031638183 0.092234276 0.60615349
0.011524476 0.093339756 0.60582024
0.035663638 0.096143104 0.60657495
0.043659348 0.09736298 0.60842413
-0.0065859016 0.087713353 0.61817932
0.0015585609 0.085831963 0.61887693
0.010709431 0.086700894 0.61907834
0.036045153 0.089721523 0.6205951
0.045060355 0.090891309 0.62156641
0.0065507516 0.083169475 0.62681395
0.0097205713 0.08310394 0.62658155
0.037482161 0.086750753 0.628613
0.043018047 0.087222271 0.628914
0.0079684965 0.088705994 0.59070235
0.012056336 0.089252032 0.5907988
0.037829045 0.092790961 0.59268486
0.041795362 0.093653597 0.59350705
0.0073555447 0.08418183 0.59514338
0.013034709 0.085728236 0.59517121
0.037426565 0.08785148 0.59674346
0.043011252 0.088036075 0.59686422
0.011041831 0.080429181 0.58632243
0.012640484 0.079695687 0.58574063
0.040379245 0.083124302 0.58775789
0.0083199963 0.07038483 0.58790326
0.016303897 0.07098227 0.58784038
0.037876312 0.073523529 0.58946961
0.046014417 0.074322037 0.59062713
0.010238949 0.060723368 0.59540021
0.015980396 0.060451392 0.59383166
0.039083946 0.064231627 0.59543568
0.045697283 0.064486936 0.59617484
0.010493118 0.058593795 0.58317965
0.017787702 0.057991471 0.58324575
0.04014707 0.061419334 0.5846507
0.047115732 0.06246569 0.58555722
0.01093886 0.049836531 0.59107333
0.018139105 0.050428193 0.59147638
0.04045533 0.052779675 0.59224945
0.047763851 0.054066435 0.59351885
0.014797393 0.050697029 0.56201762
0.023346826 0.055628456 0.56039047
0.037804995 0.057194646 0.56185907
0.047423806 0.054360714 0.56472051
0.012857664 0.045248259 0.57155359
0.023748491 0.046925578 0.57256609
0.038176481 0.048809085 0.5732162
0.049589191 0.049856685 0.57344884
0.013297353 0.039520077 0.58055979
0.022819828 0.039368644 0.58085048
0.039595108 0.041565951 0.58181477
0.04897048 0.043841418 0.58310479
0.017736372 0.041311175 0.55523485
0.025053192 0.0453289 0.5497632
0.039851863 0.047033608 0.55028033
0.048555974 0.04390464 0.55571747
0.015620526 0.034708902 0.56171733
0.02699687 0.034906704 0.56495041
0.038640957 0.036659326 0.56542993
0.050946865 0.038510341 0.56476635
0.016103398 0.033707697 0.57321644
0.026916232 0.031504717 0.57124251
0.038920518 0.033248652 0.57200587
0.042924326 0.040630713 0.57796597
0.019475285 0.038066167 0.55128276
0.026939917 0.032988541 0.54154652
0.041986529 0.034801912 0.54220158
0.050483424 0.036738925 0.54986322
0.018134248 0.028101712 0.55429661
0.026943866 0.023384959 0.55591261
0.043084916 0.024697348 0.55677235
0.050528992 0.031322531 0.55660337
0.029835735 0.023284145 0.56468195
0.039100233 0.028056003 0.56836194
0.018592034 0.0017883033 0.57453322
0.02513532 0.0011113063 0.57764286
0.047168005 0.0024744794 0.57848203
0.05348948 0.0051152408 0.57592225
0.030812059 -0.0065664798 0.58752006
0.042694125 -0.0047883093 0.58807522
0.051799763 -0.0015646517 0.58188939
0.033781368 -0.014164396 0.60111982
0.039071072 -0.012841456 0.60158598
0.03508335 -0.02184692 0.60995853
0.039144184 -0.021429583 0.61056155
0.028379034 0.020198897 0.53401875
0.04395901 0.021860152 0.53454649
0.021514129 0.006928362 0.54036134
0.026573073 0.013987787 0.54851848
0.04674923 0.014163986 0.54910231
0.053309191 0.010592833 0.54295945
0.017033864 -0.00246571 0.55756736
0.029871959 0.00051432103 0.55375361
0.045732353 0.0026324391 0.5551663
0.057167474 0.0025717244 0.5601002
0.018588822 -0.0034336224 0.56937772
0.025594 -0.0055869073 0.56948435
0.048465032 -0.0023373365 0.5706737
0.056471888 -0.0010190606 0.57095581
0.021509569 -0.0074593797 0.57906133
0.032147165 -0.01401896 0.58383739
0.04336844 -0.011388257 0.58437347
0.052403133 -0.0043181702 0.58054894
0.034447569 -0.022882089 0.59398472
0.041691665 -0.022039339 0.59503794
0.036281381 -0.032008491 0.60382628
0.041222353 -0.031957619 0.60456526
0.02205091 0.0064818263 0.53084671
0.03146277 0.0077515468 0.5270592
0.045955975 0.010023877 0.52746457
0.054349903 0.0100483 0.53296334
0.019618783 -0.0020692572 0.53640568
0.025452774 0.001040332 0.53686988
0.052449074 0.0010716766 0.53417969
0.057867575 0.0024311915 0.53856122
0.017547492 -0.011145979 0.54861391
0.030219633 -0.0097402334 0.54961288
0.047240008 -0.0072502866 0.55072004
0.059839565 -0.0047434121 0.55172306
0.021344546 -0.01075916 0.55908656
0.034002636 -0.017998971 0.56198597
0.044045199 -0.016863436 0.56216818
0.055904116 -0.0068358779 0.56069118
0.034371067 -0.026039183 0.56991881
0.044593085 -0.023166806 0.57024902
0.037724067 -0.031762689 0.58545786
0.042395007 -0.033308581 0.58603173
0.037582453 -0.039722487 0.60332239
0.037709761 -0.00053395331 0.52431464
0.042199824 -0.00012789667 0.52457577
0.022964813 -0.01098758 0.53349411
0.033090528 -0.0086374134 0.53045648
0.04656465 -0.0070874318 0.53224051
0.054824088 -0.0062645078 0.5357604
0.021305982 -0.01607421 0.54145575
0.034397501 -0.018029504 0.54218429
0.046539169 -0.017254673 0.54270059
0.057925019 -0.01169084 0.54305142
0.033665393 -0.030318752 0.55168778
0.048264418 -0.026540518 0.55361181
0.035637122 -0.03780435 0.56302273
0.046771985 -0.036646202 0.56391811
0.047772665 -0.03846015 0.53052026
0.040659744 -0.042052254 0.54931355
0.045981754 -0.041935697 0.54665959
0.041244086 -0.043299839 0.5529179
0.045643944 -0.046504512 0.55247462
0.044017006 -0.044192135 0.53190255
0.047673184 -0.041571438 0.52999735
0.042934898 -0.051584736 0.53718984
0.046055209 -0.048016548 0.53600329
0.043680388 -0.049702153 0.54313868
0.045378786 -0.05365324 0.54573107
