# .PCD v0.7 - Point Cloud Data file format
VERSION 0.7
FIELDS x y z
SIZE 4 4 4
TYPE F F F
COUNT 1 1 1
WIDTH 346
HEIGHT 1
VIEWPOINT 0 0 0 1 0 0 0
POINTS 346
DATA ascii
0.059539236 0.019827627 0.4885
0.065452553 0.019825784 0.48845455
0.075509898 0.01917858 0.48803848
0.08132036 0.019043807 0.48842856
0.058653969 0.023203161 0.48676002
0.064941488 0.025204996 0.48346546
0.074914791 0.024712279 0.48481137
0.081696637 0.023050493 0.48816666
0.065593176 0.034836873 0.48575908
0.073150873 0.034645189 0.4859404
0.067174748 0.041863706 0.48863631
0.070668422 0.041866586 0.48883331
0.04826026 0.0090897651 0.49900001
0.052911818 0.0090897651 0.49900001
0.047857836 0.014787748 0.49805874
0.054776192 0.015333269 0.49496573
0.064923599 0.015500179 0.49396911
0.075149909 0.01501174 0.49480003
0.084847197 0.015505532 0.49420455
0.093507074 0.015631428 0.49660009
0.049662776 0.020856973 0.49675
0.054410513 0.025148094 0.49369499
0.079444468 0.028596919 0.4905
0.085964464 0.025347974 0.49348679
0.091907077 0.023913745 0.49708104
0.056783468 0.034471892 0.49520007
0.060880173 0.036189053 0.49049988
0.078179769 0.035521198 0.49217644
0.083434522 0.03404741 0.49536937
0.059020411 0.042198908 0.49845457
0.064210951 0.045847397 0.49407077
0.075004287 0.045168553 0.49413645
0.081035547 0.041133393 0.49649999
0.066131368 0.054289576 0.49666667
0.072383538 0.053556211 0.49742499
0.049289148 0.00864188 0.5
0.05589366 0.007899696 0.50484365
0.064499497 0.006821393 0.50690633
0.075032339 0.0076564802 0.50697792
0.08487425 0.0078194849 0.50511622
0.095544048 0.007093065 0.50592989
0.10185086 0.0082306433 0.50342858
0.045229521 0.017724689 0.50030768
0.057102799 0.010495142 0.50123078
0.065479256 0.010588905 0.50108701
0.074467227 0.010844562 0.5010401
0.085892364 0.010782838 0.50168002
0.096353576 0.013040397 0.50151116
0.10293835 0.014844963 0.50332826
0.046568558 0.025079189 0.50334591
0.050697457 0.027944371 0.50010002
0.096688531 0.025398612 0.50365454
0.10184813 0.024640692 0.50708568
0.047329515 0.033494022 0.5066666
0.052278303 0.035688151 0.50267398
0.087656997 0.036511764 0.50120002
0.094212972 0.03453669 0.50628179
0.055262912 0.045026876 0.50431919
0.060475267 0.049192637 0.5
0.079435274 0.049389407 0.50199997
0.085079081 0.045272697 0.50419277
0.091499917 0.042545095 0.50777775
0.057416204 0.054000877 0.50728583
0.061950032 0.056517053 0.5022195
0.076608256 0.05600743 0.50228083
0.083410971 0.053998314 0.50688463
0.059286326 0.061276086 0.509
0.065116376 0.064637035 0.5038113
0.074403696 0.064685032 0.50519508
0.081116252 0.061569639 0.50887501
0.066867821 0.07343559 0.50747067
0.071830101 0.073593654 0.50803834
0.077198491 -0.00096508401 0.51738465
0.084818892 -0.00096833368 0.51777273
0.092306606 -0.00049442006 0.51414287
0.067688204 0.0032572059 0.51141185
0.075061701 0.0031200871 0.51251769
0.085060388 0.0031373242 0.51284838
0.093722276 0.0027067007 0.51155812
0.10365742 0.029296139 0.51066667
0.045893885 0.037786789 0.512577
0.098367207 0.037364069 0.5119375
0.10291551 0.034686483 0.51446158
0.046503045 0.044973709 0.51570725
0.050924163 0.046116337 0.51122224
0.089258552 0.049225647 0.50999999
0.095494129 0.045591123 0.51399994
0.10206565 0.04221056 0.5178889
0.048171923 0.052865077 0.51808327
0.052860193 0.055845492 0.51409513
0.087332264 0.056534518 0.51254851
0.093408138 0.054092966 0.51684606
0.056166507 0.064590603 0.51482654
0.060649477 0.068077162 0.51090008
0.078991026 0.067577749 0.51055557
0.085071847 0.065112762 0.51521719
0.091156237 0.061060753 0.51899999
0.058460586 0.07416179 0.5176667
0.063173786 0.07615263 0.51329499
0.076013587 0.075677589 0.51363307
0.082444534 0.072944634 0.51782608
0.05987053 0.080090702 0.51899999
0.065688483 0.08459802 0.51545548
0.073827229 0.084147237 0.5155254
0.080190115 0.080574512 0.51899999
0.067704633 0.092497304 0.51824003
0.071102716 0.092252165 0.51800007
0.084707201 -0.00070733851 0.51999998
0.099861763 0.048314359 0.52066666
0.1029302 0.047381479 0.52309525
0.045958884 0.05602023 0.52230006
0.097086363 0.056255288 0.52159256
0.10295202 0.055208717 0.52672237
0.047283884 0.064002261 0.52628309
0.051802326 0.066245601 0.52185714
0.089115709 0.068602353 0.52139997
0.094785012 0.064995266 0.52469444
0.10154478 0.061583072 0.52789998
0.054355498 0.075174935 0.52451468
0.085781381 0.075947188 0.52284491
0.092516094 0.073888533 0.52766675
0.057554979 0.084089048 0.52582353
0.061310634 0.087365299 0.52166665
0.078183874 0.086946383 0.52252376
0.084246896 0.084827386 0.52674609
0.059080996 0.092563428 0.52864277
0.063980617 0.095794052 0.52424991
0.075671405 0.09536355 0.52446389
0.082069017 0.092857942 0.52860004
0.066540293 0.10414287 0.52637726
0.073100694 0.10378778 0.52670842
0.068472281 0.11110916 0.52939999
0.071162879 0.11139747 0.52983332
0.045846693 0.068901539 0.53222227
0.099525452 0.069030032 0.5345
0.10267796 0.067336954 0.53496313
0.046740353 0.074567899 0.53316659
0.050873674 0.076730788 0.53114295
0.096821472 0.076058768 0.53426468
0.10240402 0.072038524 0.53728575
0.048398074 0.083935201 0.537
0.053051233 0.085834399 0.53288686
0.088459052 0.08668673 0.53125006
0.093565539 0.083972163 0.53552371
0.055506192 0.094402865 0.53401625
0.060264852 0.099762484 0.53100002
0.08550369 0.095468134 0.53348929
0.091381222 0.092409037 0.538625
0.058597896 0.10460219 0.53599995
0.062310822 0.10610342 0.53247374
0.077575006 0.10664333 0.53296775
0.082296938 0.10428269 0.53596556
0.059386972 0.11077374 0.53799993
0.064770684 0.11509536 0.53469497
0.074273773 0.11474138 0.53422409
0.080693148 0.11121182 0.53849995
0.067065634 0.12304148 0.53707898
0.072115436 0.12352932 0.53730768
0.10374806 0.076818325 0.54092515
0.046897411 0.087900862 0.54126662
0.097533159 0.08622355 0.54121429
0.10360654 0.085062996 0.54529101
0.047279794 0.095092766 0.54629421
0.052063219 0.096947052 0.54158622
0.089387327 0.098539911 0.54150003
0.095527127 0.094880767 0.54429322
0.10256729 0.09184362 0.54753327
0.048931167 0.1015211 0.54822224
0.053967223 0.1051867 0.54321748
0.087234408 0.10560083 0.54318428
0.09235467 0.1037098 0.54675859
0.056835335 0.11499848 0.54548222
0.060902894 0.11807884 0.54171431
0.078560814 0.117847 0.54172724
0.084780082 0.11504698 0.54627597
0.057923049 0.12237677 0.54778945
0.06332393 0.12619561 0.54342639
0.076124124 0.12602358 0.54404777
0.082067676 0.12276398 0.54784203
0.066088721 0.13434517 0.54521227
0.073145546 0.1342617 0.54543597
0.068159536 0.14165208 0.54749995
0.071097843 0.14163555 0.54799998
0.017692605 -0.032987859 0.55290323
0.023245348 -0.035420191 0.55139619
0.015751719 -0.024544155 0.55659992
0.023217382 -0.023625255 0.55704743
0.015229539 -0.015058359 0.55740166
0.024071394 -0.015321456 0.55767089
0.016144637 -0.007717906 0.5584473
0.022931239 -0.0082727484 0.55861902
0.036867235 0.0034084157 0.55900002
0.046473939 0.0047312095 0.55900002
0.050936576 0.0054928181 0.55900002
0.099182993 0.099075779 0.55199999
0.10297929 0.096797399 0.55252379
0.046285048 0.10583118 0.55305994
0.050358009 0.10833341 0.55040008
0.09684056 0.10604968 0.55360532
0.10275188 0.10412846 0.5562889
0.047272827 0.11419965 0.55582982
0.052114505 0.1155896 0.55240536
0.088871755 0.11783289 0.551875
0.094561547 0.11456403 0.55565006
0.10148199 0.11023403 0.55900002
0.049350999 0.12112319 0.55875003
0.054812144 0.12539458 0.55470693
0.079340219 0.12948039 0.55000001
0.085905463 0.12553045 0.55282974
0.09153723 0.12296402 0.55700004
0.058053464 0.134655 0.55576319
0.062012669 0.13670653 0.55208331
0.077930033 0.13656738 0.55352002
0.082940951 0.13407791 0.5558421
0.059060335 0.14116657 0.55700004
0.064747021 0.14285383 0.55240625
0.075041831 0.14279234 0.55307144
0.081410207 0.14063713 0.5583334
0.011354261 -0.022165092 0.56
0.026318802 -0.021817068 0.56
0.032905515 -0.020870017 0.56073326
0.0075809755 -0.012919541 0.56095827
0.010310223 -0.013290536 0.56
0.028698044 -0.013389754 0.56058329
0.033862226 -0.014988905 0.56355089
0.045801129 -0.011064189 0.56900007
0.0080795735 -0.0058981259 0.56220019
0.014310566 -0.0032240485 0.56111294
0.025607001 -0.0039268457 0.5618695
0.03265762 -0.0061505819 0.56562221
0.045423336 -0.0049144886 0.5658257
0.054353047 -0.0043190056 0.56642097
-0.02063524 0.0086965179 0.56400001
-0.01536375 0.0080095641 0.56756002
-0.0025540497 0.0068855733 0.56696779
0.0019810323 0.0077221463 0.56669223
0.016825497 0.0027350688 0.56417656
0.023918312 0.0026322734 0.56457567
0.037609987 0.005892159 0.56145716
0.043991555 0.0052441191 0.5604375
0.054553457 0.0045339568 0.56315398
-0.021468006 0.012671971 0.56478941
-0.014888407 0.013465653 0.56560314
-0.0046668197 0.015065103 0.56842268
0.0027240126 0.013749667 0.56796968
0.018398257 0.019348003 0.56800002
0.026517592 0.018025145 0.56667745
0.035388473 0.01528295 0.56465924
0.044525824 0.014158805 0.56146783
0.051222842 0.011894135 0.56099993
0.018801125 0.022023648 0.56871432
0.025493955 0.024359336 0.56797129
0.034161918 0.024009002 0.56621319
0.041602835 0.021607466 0.5613749
0.02793023 0.030467302 0.56800002
0.10612488 0.10933152 0.56150001
0.098146968 0.11836745 0.56077778
0.10396603 0.11467696 0.56307989
0.047729272 0.12508415 0.56216675
0.05108992 0.12785664 0.56069225
0.089657091 0.1292244 0.56
0.095999256 0.12566195 0.56373084
0.10229262 0.12375516 0.56783336
0.047758348 0.1323781 0.56770003
0.053441986 0.13469833 0.56251115
0.087529682 0.13535325 0.56141669
0.094423912 0.13306387 0.56574351
0.083392859 0.14070913 0.56
0.038981214 -0.013018792 0.57087499
0.04449863 -0.014854535 0.57525921
0.054303039 -0.013020501 0.57562512
0.060054787 -0.011532009 0.5765
0.037665766 -0.0044724247 0.57132435
0.04058861 -0.0055585573 0.57050008
0.056841195 -0.0094014229 0.5741111
0.063015178 -0.0025387828 0.57335711
-0.010778166 0.0088044526 0.57099998
-0.0077660517 0.0083640357 0.57125002
0.018308925 0.0079131005 0.57066667
0.059586011 0.006687928 0.57200003
0.063355379 0.0037560731 0.57230002
-0.013403121 0.018722681 0.57076478
-0.0070399069 0.015696647 0.57000005
0.0057362863 0.017661473 0.57071412
0.012972805 0.018724125 0.57160002
-0.013827705 0.024234913 0.57251841
-0.0049360134 0.025380939 0.57253331
0.0050985813 0.024244949 0.57326877
0.014710304 0.024355831 0.57137483
0.022512641 0.028302601 0.57024997
0.033341981 0.029511869 0.56999999
0.024605757 0.031058066 0.57075
0.10492978 0.12656167 0.57131815
0.045562815 0.13312605 0.56999999
0.099847063 0.13324329 0.57050002
0.10271377 0.13127787 0.572375
0.038974114 0.028302301 0.59600008
0.045633756 0.026958987 0.59509802
0.051003095 0.025316879 0.59633332
0.039431952 0.03175807 0.59619999
0.045431614 0.035141885 0.59397423
0.050910439 0.036929309 0.59525001
0.038947452 0.046799235 0.59721053
0.0449735 0.045005858 0.59402674
0.037201945 0.055878717 0.59702045
0.044607777 0.055177588 0.59408575
0.029912753 0.068196923 0.597
0.035644323 0.065337993 0.59819967
0.044408444 0.06428986 0.59764141
0.034707319 0.071271621 0.5987857
0.037984367 0.03513534 0.6080001
0.040854063 0.036932804 0.6045
0.037978154 0.043304909 0.60326326
0.04033123 0.04021433 0.60299999
0.032579947 0.060988795 0.60000002
0.045741189 0.068751656 0.60022217
0.03663348 0.075112343 0.60165632
0.044503525 0.074611768 0.60285926
0.028553413 0.037702333 0.61571425
0.033817876 0.036598515 0.61173177
0.027138803 0.045099374 0.6170218
0.033615626 0.044950813 0.61387491
0.027577097 0.051580213 0.61793751
0.033804521 0.051960915 0.61769551
0.024755752 0.055729169 0.62243736
0.03324173 0.056800406 0.62200004
0.026831871 0.06106247 0.62458336
0.031492691 0.061499286 0.62390006
0.03529197 0.083664536 0.64725006
0.027721008 0.083340205 0.64999998
0.047427353 -0.056073464 0.866
0.31918272 -0.12818658 0.97899997
0.32100794 -0.12818658 0.97899997
0.47888789 -0.12818658 0.97899997
0.46899843 -0.13414244 0.98699999
0.3685492 -0.14312129 0.99399996
0.37040237 -0.14312129 0.99399996
0.44789934 -0.14217316 0.99599999
0.45099416 -0.14155418 0.99599999
0.44913727 -0.13969724 0.99599999
0.45377952 -0.13969724 0.99599999
0.46352053 -0.13742511 0.99299997
0.37186077 -0.14701828 1.008
0.39685005 -0.15456097 1.0170001
0.39720571 -0.15637526 1.02
0.4381102 -0.16229865 1.0335
