# .PCD v0.7 - Point Cloud Data file format
VERSION 0.7
FIELDS x y z
SIZE 4 4 4
TYPE F F F
COUNT 1 1 1
WIDTH 1190
HEIGHT 1
VIEWPOINT 0 0 0 1 0 0 0
POINTS 1190
DATA ascii
0.11218366 0.024997607 0.48695368
0.1010187 0.010887347 0.51511437
0.11952376 0.029413462 0.48130655
0.11965353 0.029072657 0.48246878
0.11408249 0.025295436 0.48741293
0.10259371 0.01071465 0.51677418
0.10250948 0.0081440955 0.52396303
0.10219388 0.007507734 0.52496195
0.1225023 0.027896643 0.48707381
0.12172915 0.026756234 0.4900395
0.11991791 0.024155147 0.49432805
0.11115979 0.013211317 0.51645857
0.10919854 0.010746963 0.52195013
0.10691611 0.0094309673 0.52355331
0.10328119 0.0077844337 0.52509594
0.12391694 0.028028116 0.48791587
0.12243919 0.026570693 0.49114239
0.12164977 0.024660967 0.49478364
0.11260592 0.01329679 0.51734567
0.11081257 0.011683986 0.52117479
0.10972019 0.010067903 0.52390832
0.092805594 0.026383311 0.48116547
0.091685727 0.024687864 0.48362288
0.083236903 0.014067858 0.50531393
0.08240173 0.013166733 0.5077064
0.096497804 0.025659867 0.48074365
0.094259128 0.023422047 0.48435864
0.094133377 0.023463219 0.4879629
0.087741055 0.015890703 0.5038439
0.085906193 0.013385102 0.50520372
0.084900811 0.011405908 0.5094862
0.10309672 0.028975897 0.48135641
0.1013346 0.026543804 0.4815971
0.099728569 0.023764305 0.48695275
0.097420111 0.024111986 0.48923117
0.090103477 0.016362451 0.50510347
0.091076359 0.013617262 0.50733656
0.088962778 0.011110954 0.51252562
0.089906625 0.012344263 0.51560509
0.1059296 0.028913394 0.48182213
0.10593016 0.025746234 0.48406324
0.10330521 0.025189877 0.48953009
0.095052317 0.015115455 0.50954187
0.093678951 0.011003301 0.51357037
0.09254308 0.011558145 0.51687032
0.11176646 0.029342704 0.48292205
0.11049473 0.025600471 0.4854452
0.10798621 0.025093444 0.49215621
0.10035775 0.015596747 0.51122725
0.098415628 0.010653898 0.51533276
0.096921667 0.01120057 0.51955885
0.11838022 0.031616956 0.48165566
0.1173 0.030124217 0.48429751
0.11614116 0.02645079 0.48828089
0.11218095 0.025169067 0.49378088
0.10455919 0.015583254 0.51287055
0.10348385 0.010767832 0.51842964
0.10146931 0.010872684 0.52297175
0.10098875 0.0095404238 0.52569735
0.1203217 0.030986652 0.48238325
0.12077866 0.030805282 0.48634523
0.11887397 0.028587416 0.49092862
0.1174467 0.026494861 0.49567252
0.10945955 0.016386859 0.51597226
0.10740431 0.013964832 0.51996583
0.10517954 0.01162035 0.52443016
0.10303245 0.0092474595 0.52609003
0.1242775 0.030185111 0.48842332
0.12227365 0.028157242 0.49251682
0.12172561 0.026792459 0.4962236
0.11293352 0.015786074 0.51842558
0.11088537 0.013890162 0.5213449
0.1098091 0.01181563 0.52529687
0.091923878 0.029091753 0.48198465
0.090559885 0.027650021 0.48459306
0.082190879 0.016901471 0.50633019
0.081515864 0.015251532 0.50850725
0.094882935 0.030251838 0.48170522
0.090524703 0.027417324 0.48726499
0.092589259 0.026189893 0.48911235
0.086654216 0.018494233 0.5045054
0.08358781 0.018727846 0.50511861
0.082860358 0.015692428 0.51113629
0.10290288 0.030351751 0.48206607
0.10005277 0.03138949 0.4825438
0.098790042 0.028330818 0.49113435
0.09661682 0.027067527 0.49070793
0.08979094 0.019240186 0.50632942
0.091630101 0.019243538 0.50794631
0.087285116 0.015460812 0.51475358
0.089750752 0.013272487 0.515885
0.10551852 0.032449491 0.48360988
0.10450001 0.03285145 0.48507413
0.1024418 0.028221861 0.49155501
0.094897307 0.018869802 0.51033551
0.091272786 0.016123064 0.51721299
0.092133634 0.015008993 0.51811677
0.11042649 0.032831304 0.4844588
0.10848299 0.032776341 0.48849931
0.10692829 0.029429272 0.49229804
0.098243453 0.018930055 0.51320082
0.09666869 0.018059395 0.51806551
0.095677853 0.014790446 0.52056766
0.11480176 0.032899477 0.48564303
0.11356654 0.032018915 0.48994288
0.11212257 0.029807366 0.49392927
0.10319586 0.018822454 0.51587296
0.10158645 0.017086081 0.51979363
0.099778488 0.01427231 0.52266479
0.11868583 0.0327188 0.4884527
0.11693336 0.032161288 0.49016672
0.11591972 0.029666379 0.49516428
0.10709803 0.018495411 0.51747108
0.10484359 0.016468219 0.52146363
0.10458983 0.015223801 0.52359539
0.09122894 0.031343915 0.48370004
0.090467311 0.030531093 0.48510385
0.094357371 0.034469239 0.48374131
0.09115456 0.032498069 0.48807397
0.092776507 0.030436113 0.4905107
0.086597867 0.022016682 0.5067718
0.083403021 0.022151828 0.50830489
0.082663134 0.020099767 0.51289916
0.098678648 0.035424687 0.48542124
0.097665206 0.033493452 0.49150166
0.094918437 0.031641059 0.49242881
0.088826977 0.023753822 0.50805676
0.089725703 0.023986831 0.51123518
0.086355694 0.020197034 0.51563221
0.10242899 0.034228355 0.48756129
0.10026419 0.033010796 0.49085096
0.0918217 0.022078857 0.51279473
0.09101972 0.020000666 0.5160715
0.093347937 0.038001366 0.48701489
0.091209888 0.0369666 0.48944798
0.082851574 0.026270188 0.51102585
0.082899347 0.024039671 0.51357573
0.096160077 0.038739204 0.48812753
0.09535262 0.037068009 0.49211881
0.094141275 0.034636013 0.49289766
0.087547131 0.026245832 0.50935388
0.087490141 0.026955336 0.51201552
0.08528176 0.025007561 0.51546556
0.09763521 0.040233448 0.49178413
0.088467322 0.028143123 0.51510477
0.087968603 0.027965166 0.51660186
0.092538133 0.04205735 0.48962724
0.090824775 0.041565664 0.49123949
0.082149424 0.030532062 0.51319778
0.094990186 0.043810934 0.48993886
0.09294346 0.041711301 0.49417901
0.085306741 0.032198802 0.51321918
0.083782531 0.029966511 0.51746458
0.098395377 0.044418566 0.49178794
0.097422078 0.042950466 0.49458516
0.089052677 0.032603092 0.51642638
0.08756946 0.030580893 0.51921189
0.09010347 0.045643553 0.49312988
0.081727266 0.034381583 0.51456803
0.093815096 0.048490822 0.49124056
0.091002822 0.046335101 0.49513566
0.091980726 0.046154641 0.49821413
0.085622139 0.038405046 0.51406091
0.082797527 0.036220178 0.51525867
0.082480229 0.034416698 0.51972741
0.098624349 0.049145207 0.49310309
0.097398773 0.046233065 0.49769065
0.094546765 0.046563394 0.49951732
0.088672638 0.038667344 0.51537824
0.08983507 0.036148809 0.51751089
0.086827606 0.034493916 0.52219707
0.10045372 0.050627224 0.49580339
0.0994142 0.0491364 0.49846065
0.091001332 0.038349219 0.52016222
0.089739606 0.036581144 0.52291346
0.092604205 0.053086504 0.49244326
0.089251399 0.050698474 0.49603516
0.090168945 0.049710475 0.49995962
0.084399 0.042163588 0.51475865
0.0812013 0.040357165 0.51681197
0.080950841 0.03862685 0.5217855
0.097818181 0.054299362 0.49338794
0.09370248 0.049766034 0.50207561
0.088337645 0.042738326 0.51589441
0.085124873 0.038361922 0.52527499
0.10126834 0.054432414 0.49701166
0.10055356 0.052356899 0.50096822
0.097893223 0.051720209 0.50389808
0.091932803 0.043510891 0.51873398
0.092254438 0.041488543 0.52244055
0.089784488 0.039967693 0.52594006
0.10288413 0.055815354 0.50067329
0.10233575 0.055342324 0.50157642
0.093998872 0.045390472 0.52144456
0.093356386 0.043675199 0.52454054
0.092238009 0.042534657 0.52682906
0.091454379 0.05730933 0.49467421
0.088883482 0.055286415 0.49818501
0.089414015 0.053927325 0.5017432
0.08344847 0.046297461 0.51666969
0.080869153 0.044893466 0.51897538
0.080287553 0.043082304 0.52322006
0.096457019 0.05885911 0.49454018
0.092302397 0.054420836 0.50429767
0.087080278 0.047758639 0.51743275
0.083247043 0.042987086 0.52723521
0.10078139 0.059421942 0.49710846
0.10139854 0.054809935 0.50288534
0.096604645 0.055055551 0.50603694
0.091311842 0.048191793 0.51957697
0.088297442 0.043291509 0.52899504
0.10411145 0.059220381 0.50090122
0.10331436 0.057537749 0.50491434
0.10053538 0.056526095 0.50694311
0.094491825 0.048541509 0.52253813
0.09522225 0.047209524 0.5256741
0.092721865 0.045161799 0.52945888
0.10680076 0.060838997 0.50384194
0.10629196 0.059716187 0.50583971
0.097286806 0.048220761 0.52843797
0.096019298 0.047369085 0.53079206
0.091506958 0.060176656 0.49713659
0.089918897 0.058761343 0.5000335
0.089740574 0.057263248 0.50278294
0.081752859 0.048201896 0.52123982
0.080785654 0.046444237 0.52394861
0.094624594 0.06223784 0.49811903
0.092147581 0.061250858 0.50237048
0.091929965 0.058348157 0.50494009
0.085810259 0.05064939 0.51973146
0.083878048 0.050610982 0.52339113
0.083028205 0.047588073 0.52685511
0.098739579 0.063830316 0.49926409
0.094724238 0.062836647 0.50453269
0.095738336 0.059275195 0.50728869
0.089895487 0.052214347 0.5217191
0.086693853 0.052422389 0.52551913
0.08656016 0.048549734 0.5299173
0.103873 0.064170115 0.5014146
0.10242599 0.05994451 0.50810742
0.10028954 0.061067529 0.50901794
0.094352424 0.05304797 0.5248729
0.095339105 0.050829805 0.52530736
0.091347203 0.048700817 0.53231704
0.10738087 0.064423621 0.50476944
0.10686322 0.062371857 0.50872451
0.10356128 0.062150802 0.5104726
0.097188696 0.053747758 0.52672791
0.098701105 0.051739857 0.52928627
0.095952809 0.050201699 0.53311473
0.10842952 0.065191917 0.5088706
0.099315032 0.052872732 0.53227335
0.098779365 0.052368023 0.53326035
0.09830007 0.067234352 0.50313926
0.096615538 0.065439343 0.50590724
0.095940791 0.064423561 0.50910074
0.089532346 0.056773424 0.52475411
0.088209711 0.054765202 0.52726495
0.087566249 0.053505853 0.53060836
0.10248846 0.06868998 0.50345784
0.098534189 0.065996915 0.50596124
0.099168099 0.064623863 0.51093513
0.093171053 0.057154976 0.52574915
0.089587912 0.054823421 0.52857852
0.090042487 0.05348485 0.53362632
0.10616034 0.068511918 0.50641149
0.10583101 0.066806659 0.51093286
0.10244817 0.065356247 0.5121761
0.09657836 0.057463452 0.52783734
0.09770374 0.05691871 0.53165883
0.094720736 0.054374069 0.53466296
0.10807612 0.066301763 0.50935757
0.099049896 0.05494383 0.53218752
0.098126143 0.053485759 0.53402531
0.077001631 0.068413809 0.50208628
0.075291306 0.066734403 0.50425744
0.07319966 0.064704105 0.50829458
0.071620949 0.062453441 0.51223743
0.071029559 0.06049332 0.51688617
0.070161432 0.060500242 0.51978791
0.080315806 0.070206307 0.50184858
0.071664885 0.060147971 0.51860797
0.072170392 0.058981799 0.52257121
0.072849147 0.058634952 0.52620339
0.083490372 0.071716383 0.5014751
0.07391867 0.059224248 0.52580446
0.074134029 0.05885537 0.52758557
0.091932967 0.07255432 0.5044297
0.090590566 0.070313379 0.50571322
0.089222066 0.06878148 0.50993055
0.083959214 0.0616672 0.52394199
0.081844203 0.059772365 0.52754313
0.081826627 0.059730947 0.53026104
0.095735729 0.071978033 0.50439924
0.093190402 0.068523541 0.50598341
0.092380226 0.06789647 0.5123623
0.088080317 0.062327404 0.5237022
0.084613383 0.057944171 0.5277223
0.084932812 0.05826433 0.53206223
0.10078068 0.073039785 0.50539416
0.097349629 0.068519026 0.51380205
0.092071638 0.062629148 0.5261938
0.088713571 0.058306396 0.53516746
0.10325032 0.072311118 0.50780988
0.10272971 0.071261846 0.51133788
0.10071429 0.070129067 0.51407939
0.094923809 0.062364273 0.52936447
0.094532534 0.060596168 0.53263181
0.09233208 0.058730938 0.53532904
0.0759276 0.072454996 0.50224161
0.073458999 0.070076913 0.50497466
0.071143597 0.067929827 0.50910771
0.070151486 0.065785304 0.51323241
0.068630621 0.063885979 0.51790899
0.06845817 0.063419148 0.52106404
0.082168996 0.074080601 0.50143081
0.079220504 0.072581507 0.50232029
0.076897062 0.071712002 0.50606501
0.073922455 0.06941282 0.51114428
0.072460853 0.06734059 0.51506025
0.072779156 0.064614177 0.51988006
0.070681319 0.061828803 0.52361888
0.07165733 0.06161359 0.52748477
0.085103408 0.074290462 0.50184423
0.084074035 0.073576041 0.50542688
0.082966551 0.072643206 0.50976992
0.082127213 0.072589874 0.51292902
0.077361949 0.066084541 0.52300847
0.075939566 0.063056886 0.52579099
0.074077368 0.061064549 0.52949524
0.08997862 0.076121449 0.50402975
0.087583452 0.073005475 0.50544196
0.086301565 0.070513681 0.51086825
0.086137876 0.071147904 0.51447457
0.083090365 0.067456841 0.52168888
0.081538275 0.064665645 0.52291405
0.078614302 0.061986223 0.52808976
0.079035163 0.061720103 0.53214723
0.093870923 0.077249646 0.50516272
0.091925398 0.071761481 0.51550144
0.089354508 0.071179524 0.51530808
0.08621984 0.067429617 0.52331942
0.088188492 0.067222297 0.5249688
0.082421519 0.062660344 0.53458095
0.099001296 0.076883987 0.50788093
0.098807752 0.076594412 0.51191241
0.095975816 0.073199913 0.51532775
0.090688549 0.066902012 0.52812296
0.090095446 0.065778464 0.5339756
0.08793062 0.062857457 0.53597003
0.10042171 0.074224129 0.51300508
0.099546045 0.072714418 0.51465261
0.093075871 0.065583371 0.53081065
0.092641354 0.064449549 0.53285307
0.090943433 0.062210057 0.53549683
0.074516624 0.076591194 0.50360495
0.07099355 0.07460425 0.50619239
0.068557218 0.072464928 0.51021045
0.067462936 0.070185199 0.51425523
0.066396773 0.06808041 0.51881379
0.066764347 0.066844746 0.52336818
0.079491377 0.079251193 0.50224376
0.077273317 0.077819608 0.5024634
0.077163786 0.074987918 0.50947535
0.074419878 0.073892705 0.51280296
0.072759867 0.070989214 0.5170908
0.073250912 0.070143573 0.52117997
0.068257414 0.065974839 0.5263294
0.069502868 0.065870263 0.52914
0.084000535 0.080463976 0.50325376
0.080547638 0.074603662 0.50717831
0.079777069 0.074355438 0.51053786
0.080421567 0.074277505 0.51433301
0.078064479 0.071044333 0.52087396
0.075180508 0.068404675 0.52231455
0.072157577 0.065661728 0.53150868
0.089048468 0.080766454 0.50434184
0.08395867 0.074206352 0.51600277
0.081807986 0.071395159 0.52233082
0.076487333 0.065956905 0.53480673
0.094005741 0.08086165 0.5063355
0.089892834 0.076721653 0.51695615
0.089068785 0.075652778 0.51921034
0.087189637 0.073361859 0.52383155
0.086100608 0.071684942 0.52696782
0.081269972 0.066283703 0.53674191
0.097049132 0.081095435 0.50932246
0.096373498 0.079777136 0.51305127
0.09423922 0.076985233 0.51681888
0.092444144 0.074967034 0.52111518
0.089962766 0.072907075 0.52503949
0.089237601 0.070932716 0.53014702
0.088070616 0.069219567 0.53459406
0.085362807 0.066722155 0.53672177
0.06610705 0.076463655 0.51198822
0.064501047 0.076244712 0.51559609
0.072878629 0.081137486 0.50539613
0.06926626 0.079224303 0.50795531
0.067151234 0.076991141 0.51131207
0.065688193 0.074279398 0.51553732
0.063915819 0.072918907 0.52117014
0.064693764 0.071021661 0.52533472
0.078419723 0.083282277 0.50401843
0.075905763 0.082669161 0.50436068
0.076163046 0.077200569 0.51234174
0.074602269 0.077921078 0.51547319
0.073179007 0.07572978 0.51937097
0.066133983 0.070140727 0.52809626
0.067496069 0.070349529 0.53066623
0.082325123 0.083931215 0.50473094
0.077964604 0.078513369 0.5165323
0.075633474 0.076182947 0.52139992
0.070915185 0.070032761 0.53356701
0.087257236 0.085247755 0.50677884
0.082488284 0.079988204 0.51792872
0.079835147 0.07630375 0.52427864
0.081021987 0.077800304 0.52683109
0.075613596 0.070141114 0.53644276
0.091473669 0.085172191 0.50871432
0.091718212 0.085642524 0.51335591
0.087373868 0.080731116 0.5176307
0.086662032 0.079381809 0.521568
0.085851729 0.077392727 0.52574432
0.083361886 0.075704053 0.5275901
0.081836864 0.073790804 0.53645265
0.079959482 0.070942819 0.5374459
0.094257608 0.083882898 0.51114589
0.093239889 0.083170734 0.51392674
0.091486938 0.081434429 0.51827127
0.089912057 0.079659507 0.5216558
0.087801144 0.077263102 0.52592671
0.086902991 0.075379014 0.53095418
0.084798008 0.073441893 0.53449523
0.084254518 0.070771545 0.53675222
0.065127172 0.084508643 0.51117176
0.064537123 0.081680894 0.5134477
0.063333638 0.080193095 0.5165742
0.061759703 0.079608038 0.52056813
0.071030378 0.08571282 0.50729197
0.068285584 0.083505958 0.50916171
0.065415151 0.081338778 0.51338524
0.063180454 0.079312384 0.51885468
0.062685564 0.077055722 0.52216065
0.063339084 0.075474426 0.52696645
0.077584676 0.087889954 0.50618684
0.074842535 0.087264642 0.50643319
0.06464269 0.07517568 0.5301103
0.066629425 0.074596286 0.53212935
0.080953553 0.088460386 0.50733882
0.07679601 0.081828699 0.5192548
0.075811893 0.080382541 0.52215195
0.069972128 0.074863024 0.53473687
0.085100509 0.089139797 0.50940114
0.086605966 0.090230927 0.51196051
0.081189483 0.082936853 0.52033907
0.07917586 0.08067853 0.52472711
0.074493632 0.075715542 0.53696012
0.08901991 0.088210538 0.51092494
0.089136049 0.088497818 0.51425248
0.088799536 0.086397767 0.51914281
0.086597279 0.084170133 0.52374405
0.085611358 0.082344368 0.52791882
0.083129145 0.080860756 0.53256214
0.080570951 0.078165911 0.53591239
0.078517362 0.075510338 0.53770512
0.090088248 0.08575651 0.51902699
0.088441849 0.084091812 0.52292019
0.085725754 0.082343265 0.52881384
0.08498656 0.079130046 0.53200096
0.083727442 0.077307627 0.5343253
0.066009991 0.089718275 0.50799525
0.064226218 0.087815315 0.51030409
0.061917711 0.085536785 0.51397294
0.060538612 0.083329238 0.51836681
0.059362262 0.081585914 0.52275413
0.058916681 0.080237664 0.52578825
0.069322661 0.090187356 0.50741041
0.066597812 0.087769777 0.50901949
0.06249129 0.08117649 0.51908714
0.060986143 0.079526223 0.52388263
0.060864635 0.07947915 0.52872175
0.075394765 0.092411339 0.50735289
0.074081749 0.091157749 0.50753534
0.064684063 0.077959374 0.53123963
0.06456545 0.079426318 0.53368211
0.079450883 0.092830412 0.50917703
0.069035605 0.079245627 0.53580946
0.082479179 0.092887484 0.51082844
0.083979361 0.093129978 0.51325208
0.074850477 0.081682466 0.53673166
0.072488017 0.079620838 0.53699893
0.085946172 0.092212185 0.5165965
0.086346686 0.09080714 0.52042675
0.085972689 0.088419564 0.52453631
0.084085494 0.085724942 0.5294072
0.081168994 0.084445521 0.53358835
0.078349911 0.082131967 0.53577477
0.085928291 0.089801565 0.52666795
0.084611684 0.087625273 0.53009582
0.083184227 0.086647391 0.53284329
0.063295424 0.091085851 0.51211143
0.061139457 0.090026125 0.5160892
0.059310049 0.087970115 0.52002698
0.058700614 0.085353769 0.52380657
0.068903714 0.0940933 0.50999033
0.065388501 0.09337917 0.51259738
0.062613025 0.092698753 0.51582956
0.059662066 0.089082763 0.52314287
0.059635732 0.086486816 0.52617264
0.060722306 0.084522754 0.52990353
0.061261509 0.081569657 0.53267419
0.074182652 0.095397152 0.50872445
0.0722901 0.095773697 0.51107568
0.063196406 0.085760981 0.53273088
0.063799784 0.082528703 0.53479785
0.078482352 0.095598437 0.51066989
0.076836117 0.097310618 0.5131399
0.068081342 0.086467549 0.53568828
0.067221768 0.083064407 0.53634489
0.080955729 0.096121259 0.51204997
0.081463441 0.096841216 0.51540285
0.081247628 0.096375749 0.52014726
0.07546851 0.089292377 0.53466231
0.072654344 0.086628795 0.53717631
0.071327612 0.082780302 0.53782237
0.084509827 0.095894367 0.51788843
0.084379174 0.094555795 0.52187979
0.082873672 0.092909709 0.52615184
0.081050821 0.090724856 0.53060514
0.079466484 0.088553384 0.5344047
0.076802522 0.086589828 0.53730917
0.085838653 0.091642901 0.52632827
0.084039927 0.089350477 0.53071934
0.082595915 0.087763652 0.53357607
0.12835251 0.10113921 0.5492304
0.12708913 0.099258646 0.55232155
0.13143715 0.10110803 0.55073738
0.13008562 0.09940362 0.55363947
0.13366224 0.10120799 0.55281496
0.13313864 0.10027545 0.55434197
0.059728712 0.094046757 0.51900995
0.058890097 0.092664711 0.52099937
0.068317257 0.097006515 0.51290143
0.065162987 0.0971976 0.51520061
0.06203087 0.095446602 0.51740664
0.059259281 0.092489198 0.52415282
0.059893943 0.09093862 0.52751911
0.061024584 0.08917661 0.53075075
0.071020976 0.098447844 0.51406556
0.069142051 0.10009953 0.51597947
0.062679633 0.091971979 0.53211164
0.063524403 0.089340657 0.53277469
0.075362831 0.098599792 0.51567543
0.074389368 0.09999679 0.518911
0.068485051 0.092463434 0.53375733
0.067669548 0.089358397 0.53456873
0.078565061 0.098146215 0.51733989
0.078289047 0.098664925 0.52152902
0.077826917 0.098472975 0.52728045
0.076298282 0.096563853 0.53125608
0.073239975 0.092544913 0.53386581
0.071813732 0.089252628 0.53543365
0.080890939 0.096928947 0.52365983
0.079968803 0.09635552 0.52690828
0.078274682 0.094697237 0.53075075
0.076966345 0.091873407 0.53343916
0.10061422 0.10717855 0.52454245
0.10003048 0.10689907 0.5253613
0.090015106 0.094483212 0.5503698
0.089746729 0.093825251 0.55122763
0.10289192 0.10726205 0.52530944
0.10252498 0.10610898 0.52816325
0.096231133 0.096973345 0.54843211
0.093618795 0.095104277 0.55016166
0.092098176 0.093789414 0.55234593
0.10594484 0.10765143 0.52761501
0.10629634 0.10612155 0.5307219
0.10580119 0.10495287 0.53366959
0.099702433 0.097338811 0.54888648
0.098102987 0.095872626 0.55129075
0.095504895 0.094747022 0.5533576
0.10969128 0.10639507 0.53335172
0.10950062 0.10471876 0.53685242
0.11009248 0.10417578 0.53998232
0.10636012 0.10041223 0.54807454
0.1044447 0.098328464 0.54954362
0.10221598 0.096858591 0.55226809
0.11253987 0.10458194 0.54003984
0.11286331 0.10319109 0.54252172
0.11069027 0.10057081 0.5480383
0.10821408 0.099420831 0.55016083
0.11780147 0.10543047 0.54328001
0.11663429 0.10322234 0.54520434
0.11469258 0.10146616 0.54914337
0.11394394 0.10098798 0.55199206
0.11982033 0.10583386 0.54449356
0.12158028 0.10360493 0.54687846
0.12004288 0.10177472 0.55133921
0.11663917 0.10130416 0.55307388
0.12613942 0.10328586 0.54950666
0.12476492 0.10181329 0.55272418
0.13045602 0.10219853 0.55083954
0.12943429 0.10067263 0.55374193
0.13349333 0.10221298 0.55284488
0.13275386 0.10104261 0.55468911
0.058580495 0.098821104 0.52085221
0.057749998 0.097625248 0.52272844
0.064380415 0.101495 0.51793718
0.061004881 0.099797934 0.51967484
0.058667656 0.097015336 0.52584875
0.059714194 0.095547765 0.52905613
0.070065431 0.10536504 0.51762629
0.067964338 0.10311148 0.51773828
0.062014814 0.095366314 0.532619
0.063036509 0.096391909 0.53528756
0.073438495 0.10556996 0.51862705
0.073508456 0.10256344 0.51992863
0.067613035 0.095307037 0.53460258
0.066058457 0.096348949 0.53711593
0.075684354 0.10555805 0.52036297
0.07647647 0.1034407 0.5234828
0.077644378 0.10098822 0.52646691
0.074948445 0.097470358 0.53327823
0.071827769 0.097506061 0.53540868
0.068659671 0.096952513 0.53770697
0.078643344 0.10493611 0.52615643
0.078442782 0.10191214 0.52907431
0.076763622 0.099650189 0.5330835
0.074616104 0.09978801 0.53646314
0.098808572 0.11032445 0.52390891
0.098736763 0.10836937 0.5267126
0.089285448 0.096781582 0.55008841
0.0871768 0.095870852 0.55277103
0.10326906 0.1106412 0.52483153
0.10007568 0.10770282 0.52964175
0.10071661 0.10751206 0.53324616
0.094591618 0.10001985 0.54801798
0.091981873 0.09774074 0.5492515
0.0909812 0.095516011 0.55510879
0.10681238 0.1112164 0.52839649
0.1082563 0.1087741 0.53028798
0.1036381 0.10657442 0.53610522
0.099089786 0.10091369 0.54761302
0.098342806 0.096653566 0.55450326
0.095636889 0.097406499 0.55616802
0.10855104 0.11214086 0.53119028
0.11013947 0.11017475 0.53372669
0.1071184 0.10589564 0.53833622
0.10806567 0.10627963 0.54095113
0.10496842 0.10271876 0.54795355
0.10317864 0.10051355 0.54803824
0.10146213 0.099212632 0.55511546
0.098257586 0.099161312 0.55654919
0.11159264 0.11016187 0.53704214
0.11308903 0.10821533 0.54020351
0.11099529 0.10571066 0.54506028
0.10975357 0.10425141 0.54755253
0.10812764 0.10179567 0.55304933
0.10479261 0.10098449 0.55453038
0.11703111 0.10838316 0.54345196
0.11414532 0.10620647 0.54825425
0.11442157 0.1061974 0.54872197
0.11279628 0.10305503 0.55390984
0.12122717 0.10930485 0.54564559
0.1204119 0.10677851 0.54922867
0.11942869 0.10570514 0.55197692
0.11706981 0.10406686 0.55576974
0.12537177 0.11013298 0.54791933
0.12503439 0.10694233 0.55069911
0.12354898 0.10610887 0.5539391
0.12176481 0.10497098 0.55774403
0.12787735 0.11048482 0.55000931
0.12925778 0.10884394 0.55313301
0.12790419 0.10659757 0.55683702
0.12480009 0.10572465 0.5590018
0.13335033 0.10925966 0.55539489
0.13223498 0.10709166 0.55840963
0.13689035 0.10981069 0.5571661
0.13582411 0.10756478 0.56023169
0.057054561 0.10339037 0.52237976
0.056194168 0.10203931 0.52476573
0.06432002 0.10897607 0.51727259
0.062429566 0.10601371 0.51950079
0.060053978 0.10405648 0.52092969
0.057373837 0.10079639 0.52730441
0.057887375 0.10025986 0.53105265
0.057429746 0.099873289 0.53496456
0.067811586 0.10869491 0.51749372
0.065857694 0.1055202 0.51816422
0.059850808 0.098125398 0.53282106
0.060113084 0.099113069 0.53652751
0.072910994 0.10881042 0.519095
0.074745677 0.10653381 0.52093881
0.067821793 0.098228976 0.53763866
0.064770617 0.099024951 0.53905284
0.076161727 0.10989833 0.52184159
0.077302545 0.10772969 0.523678
0.071314178 0.10019755 0.53879875
0.068642579 0.10063656 0.54036826
0.079147272 0.10874887 0.52684391
0.079215974 0.10620635 0.53113478
0.077404484 0.10381926 0.53560877
0.074072048 0.10230365 0.53922373
0.080161676 0.10870098 0.53302348
0.078611836 0.10643762 0.53662401
0.09463501 0.11769906 0.5217002
0.093464449 0.11564846 0.52322334
0.082862094 0.10260145 0.55151314
0.08143799 0.10058123 0.55355442
0.080722123 0.10043217 0.55622858
0.097747371 0.11763653 0.52248609
0.09662801 0.1144712 0.5236184
0.096007667 0.11309343 0.5289945
0.086775631 0.10212214 0.55096269
0.084272943 0.099076658 0.55459487
0.083487332 0.099938363 0.55778944
0.10069738 0.11682637 0.52395558
0.10211224 0.11539163 0.52702796
0.099795401 0.11337569 0.53178471
0.10032136 0.11093691 0.5341143
0.094052911 0.10321996 0.54970914
0.091480911 0.10318661 0.55232692
0.090000525 0.10025905 0.55704725
0.086686417 0.099750683 0.5584802
0.10602021 0.11460249 0.52937728
0.10351923 0.11454806 0.53329128
0.10306945 0.11120785 0.53705394
0.098176777 0.10476088 0.55023831
0.095015436 0.10392333 0.55461019
0.094627842 0.10041166 0.55767858
0.10798804 0.11387134 0.53163111
0.10852945 0.11351936 0.53517705
0.1072547 0.11210215 0.53936064
0.10802469 0.1093432 0.5422588
0.1042843 0.10549294 0.54955184
0.10203297 0.10562691 0.55220389
0.10020965 0.10310782 0.55595088
0.097696126 0.10061393 0.55726308
0.11133529 0.11112005 0.54199225
0.11091466 0.11047959 0.54541612
0.10874804 0.10769634 0.55060893
0.10745217 0.10581546 0.55308938
0.10428829 0.10329234 0.5549736
0.11551104 0.11280638 0.54511845
0.11296596 0.11013864 0.54907072
0.11258065 0.10954396 0.55023277
0.11121834 0.10770884 0.55578399
0.12003671 0.11336705 0.54725581
0.11873533 0.11115696 0.55185407
0.1179644 0.11042766 0.55313879
0.11567757 0.10812449 0.55786794
0.12320115 0.11350528 0.54921675
0.12410511 0.1127388 0.5515238
0.12217461 0.11155406 0.55497438
0.12017529 0.10871898 0.55928278
0.12661113 0.11274781 0.5540899
0.12507167 0.11081153 0.55853701
0.12292966 0.11106016 0.56070757
0.05597122 0.10807793 0.52350664
0.054491673 0.10640298 0.52676535
0.063181072 0.11201978 0.51856488
0.060535956 0.11076711 0.51999748
0.058096658 0.10851701 0.52160633
0.054874938 0.10479794 0.52929926
0.055373956 0.1043262 0.53302276
0.056371331 0.10326961 0.53604841
0.066302545 0.11299714 0.51861835
0.057664484 0.10187384 0.53522158
0.058443967 0.10304285 0.53828764
0.071655579 0.11418676 0.51929867
0.062196653 0.1031141 0.54183251
0.075982414 0.1174814 0.5205704
0.076714598 0.1145073 0.52198803
0.067721859 0.10350655 0.54399723
0.066319913 0.10474713 0.54648191
0.079244219 0.1153917 0.52557695
0.080216281 0.11237705 0.52792746
0.074385501 0.10514387 0.54194826
0.071621262 0.10577571 0.54437065
0.088915482 0.12108601 0.52113712
0.087976858 0.1191776 0.52271217
0.081348218 0.11647997 0.52826566
0.082617506 0.11430778 0.53074777
0.081430539 0.11145715 0.53545761
0.07993415 0.10939819 0.53914672
0.077520996 0.10786462 0.54349548
0.075892419 0.10718103 0.54810792
0.075906746 0.10440648 0.5530498
0.075357877 0.10424467 0.55571091
0.092952266 0.12031697 0.52099758
0.090786099 0.11734409 0.5234018
0.089973398 0.11759996 0.52826232
0.084114745 0.11526775 0.53427005
0.080398217 0.11062471 0.54397917
0.080972843 0.10620342 0.55080342
0.078389317 0.10248345 0.55353212
0.078359447 0.10217337 0.55742645
0.096602172 0.12042274 0.52258217
0.097222745 0.12084961 0.52671987
0.093606651 0.11643934 0.53118211
0.085431665 0.10665233 0.55092931
0.084420085 0.105166 0.55815589
0.081940137 0.10207109 0.55902433
0.099625513 0.11897057 0.52464795
0.099210933 0.11880816 0.52890521
0.097800113 0.11736564 0.53205192
0.089011252 0.10656914 0.55398524
0.088217124 0.10447229 0.55690026
0.085855432 0.10162456 0.55901867
0.1148748 0.11678483 0.54724115
0.11235759 0.11587778 0.54967189
0.11106601 0.11399301 0.55361909
0.1109471 0.11175099 0.55723178
0.11657049 0.11719222 0.54876184
0.11839725 0.11674386 0.55173123
0.11725815 0.11502437 0.55602503
0.11456347 0.11278946 0.55863863
0.12297316 0.11625922 0.55092716
0.12159775 0.11736702 0.55388218
0.11987406 0.11481003 0.5578506
0.11935412 0.11244336 0.56049132
0.12639658 0.11758155 0.55615431
0.12522717 0.1150808 0.56038648
0.12366261 0.11308885 0.56217176
0.13033588 0.11874102 0.55874348
0.12923943 0.11625624 0.5625422
0.13422613 0.11979318 0.56086874
0.13297619 0.11760993 0.5646407
0.054325372 0.11210911 0.52492702
0.05272036 0.11027312 0.52845353
0.062448394 0.11571851 0.52036631
0.059522972 0.11520926 0.52177548
0.056534715 0.11354961 0.52402931
0.053528398 0.11028029 0.53112584
0.054329995 0.10883949 0.53474671
0.055426084 0.1084002 0.53780276
0.06781444 0.12052233 0.51813728
0.065153897 0.11771407 0.52015376
0.055021156 0.11017501 0.53830153
0.057056207 0.10755268 0.54032689
0.057130404 0.10730859 0.54479158
0.071370356 0.12097985 0.51835239
0.070143811 0.11756791 0.5193857
0.060694143 0.10553639 0.54353118
0.059746683 0.10668583 0.54690546
0.075820044 0.12070147 0.5205487
0.064472832 0.10672823 0.54831237
0.083247066 0.12543504 0.52041537
0.080391847 0.12283444 0.52362263
0.079376191 0.11996972 0.52623647
0.070717417 0.10930116 0.54775971
0.068997689 0.10893203 0.55134207
0.068797618 0.1077825 0.55575711
0.086976305 0.12480636 0.52043289
0.084671579 0.12122155 0.52353358
0.083079174 0.12064479 0.52856082
0.083134323 0.11765948 0.53048432
0.081515662 0.11495731 0.53893077
0.080918282 0.1149339 0.53994602
0.076671839 0.10988128 0.54657769
0.074820891 0.11013928 0.54924881
0.072706029 0.10672608 0.55306369
0.071973123 0.10625078 0.55752683
0.091103233 0.12476693 0.52230746
0.087792188 0.12124886 0.53012949
0.084773235 0.11897656 0.53410959
0.082726523 0.11705271 0.5380559
0.081011534 0.11463277 0.54265243
0.079737678 0.11211082 0.54698819
0.079262488 0.11050749 0.55137968
0.076298311 0.10617234 0.55899
0.093657605 0.12478223 0.5249719
0.094069906 0.12371267 0.52835649
0.092752188 0.1216329 0.53201973
0.083787136 0.11087582 0.55397606
0.082285732 0.10874771 0.55774587
0.079526238 0.10729346 0.55952138
0.096684583 0.12115499 0.53025061
0.095965609 0.12076818 0.53200006
0.094430074 0.11952733 0.54529518
0.093731962 0.11842522 0.54737824
0.086493492 0.10936222 0.55521375
0.08604382 0.10794143 0.55671364
0.0989317 0.11965517 0.54543138
0.097350091 0.11771785 0.54946923
0.10087031 0.11980811 0.54708904
0.099334873 0.11831352 0.55027884
0.114779 0.1197542 0.54919815
0.11316846 0.1202826 0.55152547
0.1114656 0.11759201 0.55610758
0.11130427 0.11572524 0.55809462
0.11555813 0.12027653 0.54995054
0.11600426 0.12103922 0.55392426
0.11454324 0.11922562 0.55782586
0.11310089 0.11605375 0.55912322
0.11777162 0.12234766 0.55678552
0.11674674 0.12038489 0.55947638
0.1307217 0.12113073 0.55970412
0.13051297 0.11861142 0.56469512
0.13368551 0.12194099 0.56167156
0.13265514 0.11932589 0.56529605
0.053206626 0.11495764 0.52709097
0.052319176 0.11397877 0.52916288
0.05889871 0.11880902 0.5240835
0.055975996 0.11760269 0.52741987
0.053830497 0.11546671 0.53199446
0.054180145 0.11289042 0.5361253
0.067174882 0.1221325 0.5192557
0.064415552 0.12229386 0.52152795
0.061068755 0.12128031 0.52432066
0.05532315 0.1138144 0.53909361
0.055997256 0.11169773 0.54262304
0.056630787 0.10904132 0.54480183
0.070463531 0.12444014 0.52035993
0.067916617 0.12487223 0.52206945
0.058239702 0.11264039 0.54621762
0.059359495 0.11045356 0.5480727
0.076501034 0.12903717 0.52074677
0.074544884 0.1265621 0.52034962
0.061957106 0.11064975 0.55192727
0.063124932 0.11182068 0.5546158
0.081319623 0.12866743 0.52060866
0.079170749 0.12550525 0.52233517
0.080030203 0.12234329 0.52800941
0.071772844 0.11197813 0.54880565
0.066829488 0.11005587 0.55278766
0.066402875 0.11030765 0.55691445
0.085836619 0.12938711 0.52077657
0.081961282 0.12328576 0.52978832
0.079627112 0.12043632 0.54219806
0.073999919 0.11333252 0.54995251
0.069894187 0.10948644 0.56012237
0.089899465 0.12970683 0.52350652
0.086598732 0.12439194 0.53280306
0.084250398 0.12355381 0.53602165
0.082076132 0.12100984 0.54019839
0.080621243 0.11902826 0.54423428
0.079332456 0.11722761 0.54896992
0.078651085 0.11472248 0.55187511
0.074778199 0.11047281 0.56166655
0.092357412 0.12903419 0.52630812
0.092052922 0.12809548 0.52938414
0.090290375 0.12599905 0.53232366
0.088749141 0.12349211 0.54461223
0.087632358 0.12197407 0.5472185
0.080999792 0.11424282 0.55554813
0.079981469 0.11313121 0.55921566
0.078175053 0.11151775 0.56134647
0.094287992 0.12450172 0.54288268
0.091625094 0.12260754 0.54435116
0.090272717 0.12038808 0.54885203
0.090596259 0.1209833 0.55247462
0.097864904 0.12461803 0.54357708
0.098172516 0.12225351 0.54448718
0.094857499 0.1190447 0.55169457
0.093492672 0.1203678 0.55443531
0.10298204 0.12652339 0.54512423
0.10216723 0.12327431 0.54851937
0.10015887 0.12095065 0.5531497
0.097918928 0.12022766 0.55723405
0.10413937 0.12731603 0.54781306
0.10372052 0.12467133 0.5514003
0.1020727 0.1231811 0.55468315
0.10035679 0.12171774 0.5574308
0.11554529 0.12441021 0.55595994
0.1141627 0.12279829 0.55933911
0.11860641 0.12592149 0.55808902
0.11759235 0.12407951 0.56118333
0.12094328 0.12702329 0.56035626
0.12009126 0.12546273 0.56323624
0.056330327 0.12078886 0.53079396
0.054916404 0.11964015 0.53333539
0.063695937 0.12586188 0.52445918
0.061289296 0.12486738 0.52729952
0.058067266 0.12327981 0.5308404
0.05566828 0.12082499 0.53637862
0.056073599 0.11838395 0.54020333
0.05611138 0.11635057 0.54347408
0.07033284 0.12770985 0.52303135
0.067127004 0.12776506 0.52484
0.063600942 0.12772641 0.52809113
0.057601567 0.12010628 0.54330873
0.058423921 0.11693473 0.54665405
0.059835266 0.11453816 0.54911774
0.076274857 0.13055287 0.52118266
0.07313031 0.13013741 0.52279562
0.069711193 0.13004108 0.52541304
0.06017084 0.11767788 0.54980606
0.061101239 0.11516912 0.55256969
0.062497191 0.11349269 0.55562389
0.079295851 0.13142012 0.52204192
0.078005627 0.13247937 0.52521527
0.065609656 0.11705052 0.55617887
0.064881258 0.11358991 0.5574466
0.084048152 0.13323496 0.52386057
0.080499157 0.13323803 0.52725571
0.081708096 0.13115399 0.53336793
0.079344153 0.12772949 0.53708845
0.07962928 0.12692235 0.53920782
0.076674975 0.12280302 0.54758918
0.074936166 0.1221202 0.54884368
0.073348016 0.12082157 0.55432653
0.068527311 0.11808773 0.5576154
0.069257624 0.11484802 0.56073689
0.087911084 0.1333214 0.52612656
0.087266542 0.13342357 0.53036433
0.085122548 0.13034162 0.53400856
0.082689546 0.12629706 0.53666461
0.082190804 0.12541065 0.54139078
0.080394611 0.1228345 0.54699194
0.077415973 0.12013233 0.54953367
0.076692969 0.11981986 0.55518472
0.075319625 0.1184911 0.55997205
0.073283508 0.11538144 0.56205463
0.09088444 0.1312535 0.5275625
0.089801289 0.13119841 0.53044504
0.088806689 0.12964194 0.5330686
0.088257216 0.12931401 0.54296201
0.086267442 0.12631176 0.54422438
0.084411621 0.12419775 0.54843265
0.084665164 0.1246672 0.55204397
0.079174504 0.11759142 0.55681604
0.077904634 0.11643995 0.55984062
0.092163354 0.1288899 0.54314536
0.089983121 0.12646234 0.54383177
0.087485805 0.12315252 0.55063015
0.087955415 0.12369326 0.55392605
0.097257771 0.12994492 0.54353511
0.092013791 0.12321866 0.55687732
0.10219468 0.13012803 0.54368341
0.10187816 0.13042851 0.54470539
0.096505344 0.12323509 0.55907953
0.10423373 0.13032418 0.54874712
0.10492525 0.12879911 0.55296308
0.10287279 0.12672231 0.55718386
0.099997476 0.12466002 0.5588522
0.11849087 0.1286802 0.55994272
0.11782573 0.12743628 0.5625158
0.12030416 0.12950924 0.56101501
0.11949494 0.12785307 0.56399441
0.061711874 0.12650433 0.53090715
0.058262538 0.12480092 0.53353292
0.056880817 0.1234223 0.5362671
0.057621364 0.12187757 0.5397647
0.067005098 0.12995714 0.52759165
0.064639248 0.12889969 0.53075743
0.062136024 0.127652 0.5357002
0.060562752 0.12591971 0.5397501
0.059486043 0.12232739 0.54368585
0.059418876 0.12046812 0.54704791
0.073020034 0.13304739 0.52611941
0.070518941 0.13214804 0.52877152
0.068439186 0.13121706 0.53349388
0.066211253 0.12973797 0.53803211
0.064566314 0.12785606 0.54216796
0.063338466 0.12466951 0.54631615
0.062054455 0.12154233 0.54999429
0.06212401 0.1193946 0.5534308
0.075728998 0.13352187 0.52739435
0.074397519 0.13348988 0.53138745
0.072549783 0.13323857 0.53496063
0.068634018 0.1300516 0.54167908
0.067330956 0.1294549 0.54210848
0.066674225 0.12613289 0.54913771
0.065987274 0.12291841 0.55236608
0.064792641 0.11972576 0.55491173
0.084242731 0.13514325 0.52683759
0.081673801 0.13387418 0.52885073
0.079500765 0.13297379 0.53285331
0.078001156 0.13165137 0.53797847
0.077238336 0.13278124 0.54125309
0.074362591 0.12897344 0.54895616
0.072856084 0.12559225 0.55057043
0.071074113 0.12243441 0.55418533
0.07007543 0.11963404 0.5573265
0.070701085 0.11809804 0.56083351
0.085489571 0.13517696 0.52733183
0.085207149 0.13470782 0.52949679
0.079923242 0.13093545 0.54073793
0.081010126 0.13159613 0.54271388
0.077979088 0.12851647 0.54965198
0.076329917 0.12648745 0.54988271
0.072765701 0.11913113 0.56016093
0.086081021 0.13252082 0.54366511
0.084426016 0.1312111 0.54339385
0.081988223 0.12662975 0.55124569
0.082122862 0.12791641 0.55308181
0.092010945 0.13400191 0.54360187
0.086569026 0.12690334 0.55706823
0.095007524 0.13506673 0.54493147
0.089425266 0.12765291 0.55901176
0.099927023 0.1349228 0.54769039
0.095009491 0.12842931 0.56039602
0.1038493 0.13489674 0.55056489
0.10494085 0.13379484 0.55448025
0.10241303 0.13086885 0.5601818
0.099285096 0.1295393 0.56168884
0.10459644 0.13355365 0.55663943
0.10379988 0.13225058 0.55867928
0.067991838 0.13099386 0.53916579
0.066280752 0.12874778 0.54362398
0.07194306 0.13295174 0.53742683
0.070644692 0.13165407 0.54021972
0.068728536 0.12922199 0.54507506
0.067993827 0.12769181 0.54807842
0.074544534 0.13323067 0.53886986
0.074815944 0.13188948 0.54294431
0.073358849 0.1301199 0.54642153
0.070554569 0.12818727 0.54895025
0.079446182 0.13299152 0.54520386
0.078228638 0.13133238 0.54894418
0.085384414 0.13615972 0.54512489
0.082491718 0.13566817 0.54676437
0.080347747 0.13283809 0.55175626
0.081646904 0.13137235 0.55472118
0.092215583 0.14065696 0.54481936
0.090800039 0.1381921 0.54514235
0.085131511 0.13104981 0.55880642
0.085638836 0.1309597 0.56138813
0.092861459 0.13999449 0.54478991
0.094012007 0.13863473 0.54652542
0.088417053 0.13137117 0.56069577
0.086234525 0.1308715 0.56167382
0.098486885 0.13905247 0.55005217
0.093698263 0.132866 0.56182218
0.10224199 0.13914564 0.55247909
0.10302199 0.13799432 0.55663913
0.1010835 0.13574077 0.56117886
0.097795263 0.13397372 0.56305933
0.10406314 0.13554561 0.55694962
0.1032134 0.13460235 0.55905461
0.083472744 0.13857645 0.54993331
0.082138866 0.13677922 0.55334038
0.088666156 0.14139019 0.54854137
0.085883945 0.14136258 0.55139202
0.083902612 0.13880104 0.55611122
0.084458485 0.1361386 0.55877274
0.092490606 0.14277774 0.54974437
0.085774064 0.13993031 0.55912292
0.087803841 0.13674082 0.5617004
0.096613817 0.14287902 0.55230874
0.097306803 0.14417444 0.55533731
0.094571918 0.14025541 0.56304324
0.092460454 0.13755511 0.56302363
0.10001135 0.14197843 0.55409247
0.099751383 0.14213461 0.5574944
0.098142385 0.140025 0.56172317
0.09601149 0.13743199 0.5633409
0.086798452 0.1427891 0.55437326
0.085737392 0.14157777 0.55618173
0.091119826 0.14458841 0.55204332
0.090276122 0.14561795 0.55655497
0.089098901 0.14434657 0.55951697
0.08825025 0.14057478 0.56161445
0.093792751 0.14514738 0.55339247
0.093539685 0.14622232 0.55828297
0.092652068 0.14481123 0.5614841
0.090815127 0.14082384 0.56270534
0.096951827 0.1439434 0.5589844
0.095826171 0.14294748 0.56124097
0.072989114 0.14772534 0.55686867
0.072194912 0.1472495 0.55811894
0.074786164 0.14820564 0.55733657
0.089876123 0.14838479 0.55924541
0.089381918 0.14818002 0.56031966
0.092057154 0.14947189 0.55994838
0.091352448 0.14833058 0.56219172
0.094700031 0.14888468 0.56171787
0.094302654 0.14852846 0.56246781
0.068257883 0.14865355 0.556095
0.067732543 0.14823756 0.55714083
0.071769133 0.14993915 0.5567866
0.07075052 0.14826709 0.55866456
0.077717498 0.15316671 0.55658615
0.076121256 0.15078992 0.55850995
0.073788457 0.14922681 0.56004936
0.080657259 0.15489644 0.55787045
0.079115301 0.15304856 0.55998212
0.086856239 0.15482725 0.5599671
0.086756893 0.15382504 0.56202734
0.090768181 0.15451759 0.56131804
0.089828566 0.15318233 0.56344855
0.077492759 0.15606344 0.55775839
0.075922951 0.15476868 0.5595566
0.08083684 0.15785599 0.5588181
0.079555742 0.15624054 0.56138748
0.085242808 0.1589371 0.56091005
0.084503047 0.15668786 0.56251407
0.088455185 0.15787782 0.56250042
0.087736219 0.15658829 0.56346488
