# .PCD v0.7 - Point Cloud Data file format
VERSION 0.7
FIELDS x y z
SIZE 4 4 4
TYPE F F F
COUNT 1 1 1
WIDTH 1190
HEIGHT 1
VIEWPOINT 0 0 0 1 0 0 0
POINTS 1190
DATA ascii
0.078231953 0.13034229 0.54202878
0.1034212 0.12677586 0.56369817
0.06913925 0.13418745 0.53923517
0.06966535 0.13436827 0.54031879
0.077087969 0.13163158 0.54299527
0.10316461 0.12795684 0.56564879
0.10726853 0.1286419 0.57205057
0.10822502 0.12866014 0.57281685
0.070334837 0.13684437 0.54523057
0.072494984 0.13658515 0.54767191
0.076747984 0.13622171 0.55086845
0.096420385 0.13334581 0.56792593
0.100988 0.13265234 0.57225406
0.10372719 0.13143921 0.57298666
0.10744986 0.12934932 0.57326508
0.06969516 0.13780482 0.54641205
0.072564423 0.13714333 0.54887134
0.075530514 0.1372548 0.55182409
0.09581244 0.13435385 0.56915063
0.099147245 0.13346794 0.5720787
0.10179116 0.133261 0.57413882
0.0861094 0.1146787 0.53185374
0.088752761 0.11452656 0.53363049
0.10787655 0.11175265 0.55040121
0.10972006 0.11136363 0.55232048
0.08453916 0.11809938 0.5322625
0.088549465 0.11725175 0.53476983
0.089605153 0.11673986 0.53818035
0.10355978 0.11442383 0.55044067
0.10692225 0.11429945 0.5508557
0.1102426 0.11421091 0.55435354
0.078488737 0.12133296 0.53506494
0.081436992 0.12134324 0.53444386
0.086019993 0.12113472 0.53867948
0.087653905 0.11884169 0.54032677
0.1022514 0.11589397 0.55231601
0.10451284 0.11805844 0.55423182
0.10911132 0.11730079 0.55822623
0.10849413 0.11699184 0.56160533
0.077119216 0.1235806 0.53621316
0.080247469 0.12521854 0.53782088
0.083668403 0.12286662 0.54227644
0.10178028 0.12010588 0.55758703
0.10691034 0.12101588 0.56039399
0.1080282 0.119426 0.56334531
0.073897511 0.12786564 0.5388059
0.078254856 0.12879905 0.54026544
0.081925057 0.12637715 0.54594445
0.098974064 0.12387314 0.56061238
0.10509154 0.12481362 0.56321061
0.10667372 0.12284335 0.566953
0.068128146 0.13193068 0.5396471
0.070642307 0.13167018 0.5416435
0.075296633 0.132496 0.5445348
0.080029115 0.12950516 0.54856402
0.097149909 0.12705734 0.56323647
0.10310368 0.12845781 0.56746018
0.10540819 0.12630022 0.57129866
0.10749143 0.12641405 0.57355297
0.067767814 0.13377561 0.54072529
0.068781018 0.13382229 0.54458666
0.072866678 0.13312532 0.54810458
0.07663773 0.13271779 0.5519169
0.094712041 0.1301581 0.56756335
0.098874122 0.12952542 0.57044709
0.10320103 0.12866092 0.57374966
0.1067147 0.12817647 0.57439399
0.067942247 0.13675889 0.54734665
0.071793981 0.13592276 0.55040437
0.074217245 0.13589665 0.5535714
0.093977734 0.13302307 0.570678
0.097417727 0.13219944 0.57262743
0.10075849 0.13214636 0.5757764
0.084690191 0.11228095 0.53286409
0.087310031 0.11176731 0.53476554
0.10650441 0.10912839 0.55157882
0.10878917 0.10933436 0.55320817
0.082077824 0.1139843 0.53353792
0.088268206 0.11159026 0.53726453
0.088627517 0.11376724 0.53934139
0.10229088 0.11194154 0.55123144
0.10395857 0.10929017 0.5510813
0.10844952 0.10986342 0.55612689
0.077711761 0.12028614 0.53592205
0.078589343 0.11734506 0.53583151
0.084119171 0.1172286 0.54319048
0.086183116 0.11628935 0.54202491
0.10050236 0.11380634 0.55388594
0.099950388 0.11509831 0.55589169
0.1072332 0.11314318 0.56065243
0.10792743 0.11628693 0.56198776
0.075064391 0.12096357 0.53840357
0.075719297 0.11975517 0.53960931
0.08232531 0.12016211 0.54449463
0.099132255 0.11767054 0.55893087
0.10522457 0.11566842 0.56411326
0.10588655 0.11691896 0.56500596
0.072317511 0.12456249 0.54051477
0.074567162 0.12261021 0.54386646
0.079128847 0.12294646 0.54653633
0.098063707 0.11999726 0.56251627
0.10098716 0.11873444 0.5666104
0.10481202 0.11961357 0.56819975
0.070204064 0.1278863 0.54275882
0.072789729 0.12696096 0.54639858
0.076449439 0.12669203 0.54946482
0.096193627 0.12372604 0.56629479
0.099551007 0.12305035 0.569336
0.1035689 0.12296787 0.57114685
0.06901516 0.13079111 0.54638666
0.07089819 0.12953918 0.54748517
0.074831516 0.12967309 0.5515765
0.094767496 0.12686223 0.56874806
0.098727286 0.12583655 0.57164639
0.10044927 0.12614307 0.57340658
0.083781615 0.11020657 0.53469962
0.08523573 0.10993005 0.53570986
0.079619236 0.11084522 0.53604984
0.08415015 0.10899299 0.53904247
0.085575737 0.11124837 0.54143012
0.10018803 0.10956425 0.55396533
0.10226372 0.10677 0.55464303
0.10558433 0.10690305 0.5584929
0.07697662 0.11354651 0.53890085
0.080772065 0.11323 0.54411834
0.083996743 0.11203703 0.54399991
0.09796305 0.11017489 0.55604243
0.098186471 0.11041252 0.55933756
0.10425964 0.10949844 0.56204581
0.076471567 0.11701885 0.54168719
0.079545788 0.11566007 0.54407334
0.098983258 0.11304906 0.56103444
0.10198586 0.11328956 0.56360853
0.078315221 0.10759346 0.53950483
0.080988564 0.10623963 0.54111183
0.10009097 0.10359542 0.55778468
0.10254291 0.10468243 0.55985487
0.076509558 0.10928045 0.54139805
0.07939662 0.1091985 0.5447197
0.082195558 0.10959043 0.54475051
0.097067386 0.10753645 0.55737168
0.097292423 0.10678434 0.5600127
0.10101102 0.1058066 0.56241882
0.075559258 0.10917874 0.54550487
0.096695609 0.10652795 0.563402
0.097532123 0.1060747 0.56467342
0.07630232 0.10426137 0.54246736
0.078083292 0.10301255 0.54348975
0.09773241 0.10027445 0.56038898
0.073667094 0.1051447 0.54367572
0.07764028 0.10430115 0.54685038
0.094697535 0.10180324 0.56148416
0.09849073 0.10145476 0.5647735
0.07184767 0.10730308 0.54639876
0.074327856 0.10709658 0.54857433
0.093235865 0.10420823 0.56555367
0.096428283 0.10392468 0.56749696
0.075800516 0.099815637 0.54579014
0.095318705 0.097507544 0.56223094
0.070992 0.10129191 0.54540098
0.075330794 0.099907778 0.54804426
0.075808316 0.10046451 0.55119509
0.089874282 0.098284081 0.56340176
0.093479991 0.097197101 0.56346613
0.096337989 0.097533442 0.56734437
0.068371102 0.10454153 0.54849887
0.072633117 0.10479778 0.55207622
0.074450448 0.10212982 0.55315286
0.088370636 0.10042131 0.56547081
0.090321392 0.10261342 0.56737649
0.094596222 0.10069156 0.57080811
0.066966116 0.10483246 0.55178154
0.069460869 0.10460162 0.55380321
0.088699609 0.10195442 0.5705651
0.091560923 0.10170059 0.57257402
0.068374835 0.097471111 0.54700875
0.073106706 0.095825963 0.5491879
0.074492604 0.096722566 0.55299509
0.087780438 0.095004186 0.56438547
0.091534168 0.093303174 0.56523424
0.094440743 0.093595237 0.56962281
0.064832941 0.1008111 0.54942709
0.073113292 0.099282071 0.55591273
0.085493222 0.097684376 0.56655765
0.093351744 0.096708402 0.57395774
0.063864619 0.10309618 0.55377376
0.067009628 0.10333166 0.55701828
0.06979575 0.10127163 0.55903333
0.083720043 0.099790141 0.57030022
0.086185224 0.10084799 0.57357675
0.089724705 0.099403031 0.57603532
0.062926441 0.10317218 0.55790234
0.06385459 0.1029181 0.55854583
0.08187525 0.10003308 0.57371873
0.08445356 0.10020506 0.57622135
0.086611263 0.099743173 0.57793009
0.066308722 0.093809709 0.54954976
0.070302129 0.092580721 0.55190986
0.072088569 0.093427889 0.55520833
0.085584864 0.091588937 0.56665701
0.088754527 0.090115622 0.56796956
0.091699883 0.09026967 0.57156634
0.062312059 0.096897125 0.5509429
0.070841387 0.095165759 0.55845428
0.082661927 0.09353862 0.56854451
0.091290608 0.092256546 0.57612419
0.060228251 0.0997383 0.55457586
0.065157041 0.10234535 0.55946809
0.068478622 0.098035708 0.5613035
0.08061114 0.096428201 0.57172823
0.088784352 0.095917165 0.57912666
0.059637029 0.10210782 0.55899751
0.062533602 0.10203855 0.56234062
0.065425187 0.10020301 0.56340438
0.079432636 0.098440364 0.57541132
0.080968939 0.0994763 0.57836241
0.085020751 0.098288864 0.58099723
0.057721768 0.10297816 0.56274909
0.059449654 0.10302342 0.56433749
0.07982403 0.10022727 0.58168644
0.081854366 0.099468023 0.58346826
0.064717725 0.091886818 0.55238861
0.067520976 0.091147721 0.55451292
0.069576167 0.091598526 0.55683851
0.086305201 0.088615626 0.57090306
0.088985108 0.088595197 0.5729475
0.061665632 0.093046814 0.55445558
0.065001085 0.091198847 0.55771816
0.068133354 0.092470571 0.55962807
0.081730075 0.090563983 0.57089752
0.083852798 0.088651806 0.57389176
0.087678701 0.089394249 0.57647455
0.058482878 0.095263161 0.55685103
0.062953204 0.092082359 0.56069386
0.065982923 0.094707608 0.5629822
0.078823552 0.092682421 0.57408392
0.081486635 0.089596026 0.57693285
0.085854098 0.091313519 0.58044493
0.0560138 0.098927103 0.56025267
0.062027015 0.099559441 0.56556165
0.062569216 0.097090803 0.56607789
0.076619461 0.095405921 0.57835358
0.077949554 0.097462036 0.57864648
0.08379373 0.094786204 0.58396524
0.054842971 0.10121569 0.56437773
0.057860948 0.10159455 0.56767446
0.06033662 0.098902978 0.56847066
0.075040512 0.097055003 0.58095413
0.07651788 0.099177852 0.58343911
0.08031635 0.097485706 0.58613807
0.054823644 0.1011564 0.56867957
0.076134242 0.098675117 0.58663017
0.077104107 0.098440953 0.58735156
0.05713797 0.09247756 0.56100184
0.060256653 0.091900498 0.56291556
0.062329195 0.091621451 0.56561965
0.076289415 0.089363024 0.57764596
0.079305246 0.089228824 0.57937032
0.081594944 0.089103065 0.58218455
0.053789109 0.094922408 0.5626052
0.058782622 0.093095116 0.56354415
0.06092383 0.093880996 0.56821579
0.074278757 0.091933534 0.57957613
0.078876555 0.090153001 0.58097976
0.081109688 0.090767384 0.58568239
0.052754991 0.097640902 0.5663172
0.055557109 0.097903743 0.57025903
0.058902662 0.095930859 0.57034844
0.072761439 0.094245329 0.58247763
0.073655322 0.095055953 0.58631313
0.078141943 0.09386193 0.58799922
0.054280542 0.10016392 0.56923974
0.074623689 0.097244546 0.58682716
0.076797508 0.097174682 0.5881024
0.067568026 0.074895255 0.55482119
0.070440985 0.074293166 0.55617887
0.074326739 0.073394462 0.55916023
0.078078687 0.07304588 0.56214446
0.081261009 0.073237047 0.56609905
0.082551301 0.072228521 0.56864691
0.064274967 0.07650248 0.55572999
0.081672244 0.073763907 0.56784284
0.083434977 0.074433193 0.57155329
0.084363878 0.074790403 0.57512867
0.061242364 0.078180358 0.556427
0.083201505 0.075337254 0.57511663
0.083877891 0.075536564 0.57680702
0.056797162 0.084103212 0.56151319
0.059660029 0.084223062 0.56202382
0.062808365 0.083586499 0.56544262
0.07525517 0.082100824 0.5762825
0.078923702 0.081149966 0.57886499
0.079734564 0.080868587 0.58144426
0.055161178 0.087482803 0.56234741
0.059723385 0.087330095 0.56263864
0.062464699 0.086370319 0.56840962
0.072411776 0.085023664 0.57720387
0.078898832 0.08442466 0.57942933
0.079699159 0.084023565 0.5837
0.051845036 0.090772122 0.56474584
0.059661657 0.089812033 0.57113963
0.070694208 0.087762147 0.58063614
0.078474917 0.086682126 0.58762068
0.051750496 0.092915535 0.56754982
0.053859673 0.092743397 0.57060611
0.056630332 0.091512427 0.57252163
0.070238501 0.08985468 0.58433372
0.072769389 0.090240046 0.58705413
0.076205745 0.089300536 0.58875853
0.065016545 0.071624994 0.55537271
0.069013759 0.070771798 0.55695796
0.073141113 0.069753475 0.55995488
0.0765398 0.069790527 0.56327808
0.080190837 0.06920094 0.56703484
0.081545182 0.069001302 0.56992066
0.060090765 0.075728633 0.55644596
0.063136891 0.074169226 0.55629969
0.066152453 0.072428584 0.55913758
0.071027972 0.070872806 0.56284463
0.074567668 0.070514731 0.56586254
0.077904105 0.071867891 0.57008183
0.082303643 0.071444064 0.57265127
0.083032273 0.071935311 0.57654643
0.058436327 0.077901408 0.5576154
0.060575642 0.077118851 0.5606513
0.063144781 0.076321825 0.56435573
0.064539567 0.075344354 0.56714612
0.075122379 0.074316956 0.57446527
0.079072654 0.074678518 0.57625329
0.082708806 0.073976144 0.5789817
0.05494386 0.080471233 0.56123418
0.059108589 0.080256075 0.56145585
0.063307516 0.080128022 0.56588864
0.063917413 0.079233944 0.56939054
0.070533015 0.078216106 0.57488191
0.073927596 0.078501195 0.57519227
0.079102203 0.077200949 0.57894057
0.080228932 0.077258825 0.58286971
0.052245267 0.082786515 0.56348437
0.060556896 0.083378181 0.5719319
0.0623677 0.081692517 0.57100183
0.069302768 0.080554411 0.5772211
0.068855047 0.08207117 0.57925534
0.078323163 0.079142123 0.58620071
0.050494082 0.086805403 0.56730866
0.051968221 0.086389683 0.5710541
0.057157874 0.085776009 0.57302839
0.068631038 0.08391735 0.58283907
0.071495779 0.083481744 0.58808029
0.07554552 0.083272249 0.58894759
0.053260967 0.08896587 0.57210726
0.055395342 0.088985443 0.57320464
0.069123179 0.086315729 0.58578306
0.070831701 0.086422011 0.58743095
0.074272715 0.086111195 0.5891487
0.062916249 0.067899764 0.55700648
0.067141317 0.065988779 0.55825216
0.0712962 0.06488172 0.5611102
0.074834727 0.064925991 0.56430894
0.078365371 0.06483379 0.56803364
0.080425501 0.065370716 0.57226115
0.057713278 0.070438325 0.55740815
0.060117014 0.069493711 0.5568189
0.064390481 0.070332445 0.56300211
0.067695998 0.068434916 0.56529874
0.072104231 0.068371534 0.56848228
0.073658004 0.068825677 0.57236266
0.081130981 0.066759989 0.57531518
0.081326537 0.067514002 0.57829088
0.054575678 0.073208913 0.55971092
0.062191535 0.073507309 0.56160241
0.06375888 0.072678775 0.5645687
0.064540789 0.072831675 0.56833559
0.070227414 0.072165549 0.57343584
0.074292496 0.071274824 0.5736407
0.080707714 0.069501683 0.58118361
0.051882323 0.076940864 0.56207216
0.063133143 0.075517103 0.5708077
0.068314202 0.07478831 0.57582748
0.079038158 0.072427511 0.58546883
0.049657956 0.080626145 0.56523901
0.058173612 0.078658476 0.57363343
0.060104065 0.078392655 0.5753957
0.064243972 0.077755332 0.57894391
0.067047879 0.077543899 0.5813787
0.076710403 0.075842366 0.58857459
0.048652843 0.082595289 0.56889296
0.05111555 0.082437418 0.57205659
0.055548336 0.081985287 0.57464319
0.059335545 0.081288226 0.57794851
0.063426062 0.080108225 0.58071911
0.066822566 0.080151819 0.58507484
0.07006833 0.079758883 0.5887332
0.074119285 0.078850567 0.58966118
0.069990173 0.060364231 0.56285387
0.072061919 0.058824994 0.56585091
0.060738161 0.06370423 0.55905914
0.064946026 0.061681278 0.56026769
0.068811946 0.06095729 0.5625608
0.072943643 0.060944106 0.56576645
0.076578312 0.059731577 0.57046115
0.078824721 0.061030187 0.57431018
0.055626381 0.067002028 0.55950201
0.057582062 0.065322742 0.55909163
0.064005904 0.067913845 0.56585103
0.065178148 0.065904751 0.56856215
0.068785511 0.065649852 0.57155252
0.079511359 0.062405281 0.57715875
0.079328179 0.063092366 0.57998681
0.053179234 0.069657139 0.56127477
0.063170895 0.068122864 0.57051891
0.067658991 0.067121834 0.57418132
0.078526713 0.065697074 0.58356148
0.050021946 0.072592214 0.56469089
0.059928197 0.070708111 0.57323736
0.066078298 0.0700939 0.57800549
0.064971715 0.069879353 0.58098751
0.076683126 0.06907323 0.58750606
0.048321106 0.075793833 0.56758696
0.049129434 0.075211518 0.57215124
0.056584779 0.074198216 0.57431
0.059150696 0.074007466 0.577658
0.062342037 0.074091867 0.58110225
0.065556921 0.072908163 0.5819515
0.070404992 0.071873933 0.58969474
0.073956758 0.071958035 0.58969253
0.048500653 0.0785188 0.57039183
0.05040507 0.077830315 0.57266676
0.053960789 0.076994523 0.57607567
0.057178009 0.076426841 0.57860804
0.0614288 0.075704753 0.58174634
0.064826228 0.075565368 0.58599716
0.0685056 0.074654043 0.58851796
0.071544766 0.075561509 0.5900864
0.063958518 0.054899134 0.56317097
0.06715253 0.05586075 0.56471956
0.06986732 0.055446878 0.56714761
0.07231909 0.054108873 0.57045966
0.058681883 0.05931244 0.56116337
0.062451251 0.05823002 0.5618847
0.066923797 0.056770995 0.56482446
0.071289808 0.055601981 0.56913555
0.074273169 0.056190241 0.57178521
0.07652016 0.057133324 0.57626677
0.053067178 0.06337031 0.56212711
0.055130206 0.061526477 0.56156564
0.076931097 0.058013089 0.5795424
0.076871097 0.059725218 0.58187145
0.051099803 0.06559664 0.5641703
0.061968893 0.064931862 0.57337224
0.064465977 0.064692989 0.57564402
0.0755689 0.061954416 0.58524472
0.048878167 0.068281457 0.56729573
0.047918521 0.068560839 0.57029712
0.058998033 0.067664191 0.57569915
0.06311994 0.066925272 0.57899666
0.073051423 0.064818189 0.58864689
0.047895938 0.071796507 0.56958193
0.048547111 0.07136143 0.5728308
0.051768489 0.071813032 0.57705665
0.056029756 0.070882492 0.58051485
0.059188135 0.07073006 0.58394057
0.063028455 0.069130376 0.58749247
0.067498773 0.068327233 0.58959055
0.071221508 0.068070762 0.59033799
0.051535521 0.073234126 0.57716435
0.054848894 0.072489373 0.5801819
0.059379518 0.070725873 0.58482236
0.063216463 0.071699202 0.5871374
0.065998435 0.071525529 0.58873099
0.058473397 0.052855358 0.56123549
0.061601587 0.052312434 0.56266856
0.065697417 0.051427439 0.56520277
0.069433674 0.051164135 0.56867439
0.07269147 0.050788023 0.57226843
0.074855402 0.050906118 0.5748229
0.056125451 0.055283476 0.56159216
0.059976168 0.054369926 0.5620349
0.070264399 0.053921614 0.56949437
0.073744252 0.053184107 0.57340997
0.075216353 0.05259531 0.57798392
0.051034003 0.058816262 0.56344056
0.052791689 0.058492295 0.56307399
0.075035103 0.056274008 0.58109385
0.074635237 0.055047087 0.58363676
0.048999794 0.061608564 0.56627256
0.072932616 0.058492891 0.58676219
0.047764428 0.06381391 0.56862015
0.047437757 0.06460692 0.5713492
0.06809137 0.061588958 0.58951497
0.071083903 0.06089763 0.58882958
0.048030041 0.066361472 0.57488006
0.050000783 0.067102909 0.57839739
0.053248372 0.067778975 0.58182162
0.057781294 0.067347825 0.58553839
0.061567768 0.06533014 0.58857429
0.065551393 0.064217687 0.58956087
0.05278689 0.066695035 0.58407277
0.056191154 0.066566817 0.58664465
0.058519676 0.065712534 0.58874005
0.060045924 0.049436055 0.56470215
0.063185573 0.047916826 0.56777269
0.066919968 0.0472533 0.57072133
0.070383273 0.047912579 0.57373339
0.054007612 0.052355751 0.56459731
0.057231344 0.049694125 0.56607616
0.060200408 0.047535677 0.56834304
0.066732034 0.046539716 0.57396567
0.069648102 0.047732741 0.57641363
0.071655594 0.049363837 0.57991606
0.074470177 0.051247783 0.58220017
0.049733348 0.055931039 0.56494027
0.051137503 0.053944968 0.56676674
0.070125714 0.05030017 0.58344191
0.072926082 0.052476481 0.58502477
0.047771685 0.059033848 0.567913
0.048022527 0.056439508 0.57013774
0.067731909 0.053461663 0.58761114
0.071068719 0.054723337 0.58745217
0.046396442 0.060549308 0.56993979
0.046499643 0.060167387 0.57338381
0.048326135 0.059761621 0.57777381
0.061173558 0.05779155 0.58896852
0.06552285 0.056855429 0.59021014
0.069463149 0.058009565 0.58984894
0.046281077 0.062892906 0.57636356
0.048535734 0.063153766 0.57991153
0.051864468 0.062469713 0.58332884
0.055842545 0.061832458 0.58674896
0.05949467 0.06144781 0.58960837
0.063320771 0.060174469 0.59137696
0.051289473 0.06556803 0.58403373
0.055321462 0.065020509 0.58738261
0.058169633 0.064502388 0.58947635
0.027017564 0.091402352 0.61817425
0.030064533 0.091177389 0.62048805
0.025780026 0.093720503 0.62038374
0.02868302 0.093341045 0.62252444
0.025071021 0.095213689 0.62294209
0.026523996 0.095184863 0.6241098
0.061616614 0.044093035 0.57087165
0.063726857 0.044029735 0.57232565
0.052857116 0.049847491 0.56771028
0.055083171 0.046970159 0.56913775
0.058800552 0.045272194 0.57015795
0.064554855 0.044089723 0.57539523
0.066380858 0.045154162 0.5785051
0.0680639 0.046754219 0.58157653
0.050571218 0.051025257 0.56974256
0.050839785 0.048340842 0.57136834
0.065341011 0.046271041 0.58375782
0.067138866 0.048434377 0.58416378
0.04853043 0.054227009 0.57239783
0.048877832 0.052274227 0.57546937
0.062241908 0.050435513 0.58687311
0.065363564 0.051538959 0.58692259
0.047605813 0.056872558 0.57471663
0.048532989 0.055894762 0.57872641
0.050563619 0.055022083 0.58405972
0.054028381 0.054507397 0.58714479
0.059605978 0.054169923 0.58818984
0.063423306 0.054815806 0.58877498
0.04907896 0.058771659 0.58112413
0.050954007 0.058026962 0.58389205
0.054274097 0.057245769 0.58685023
0.057974793 0.057587575 0.58861136
0.030460127 0.068337604 0.58865231
0.031231331 0.067949578 0.58923882
0.053565264 0.064634264 0.60847658
0.054473028 0.064718142 0.60911673
0.029364642 0.070023291 0.58997196
0.031280816 0.070107773 0.59240705
0.047653694 0.068326004 0.60861361
0.051044844 0.067164011 0.60929108
0.053530529 0.066495717 0.61076993
0.028039034 0.071980961 0.59300476
0.029930374 0.072835013 0.59579945
0.031955555 0.072816342 0.59828907
0.045594424 0.070830531 0.6099835
0.048304662 0.07016544 0.61162692
0.051197786 0.068537705 0.61275357
0.028600559 0.075099483 0.5992083
0.031015337 0.075565428 0.60221714
0.032004245 0.076023564 0.60525906
0.039300032 0.074407898 0.61140233
0.04240521 0.073957354 0.61197156
0.045553312 0.0727579 0.61376071
0.030361069 0.077729523 0.60599917
0.031981513 0.078545861 0.60821426
0.036794931 0.077773169 0.61248684
0.039656267 0.076251194 0.61369324
0.027729291 0.081077009 0.61055672
0.030651623 0.08124841 0.61172789
0.034211665 0.080317326 0.61469936
0.035803683 0.07969752 0.6171459
0.026649773 0.082318492 0.61229008
0.028116707 0.084788561 0.61463535
0.031661313 0.084167972 0.61819375
0.03438542 0.081544593 0.61890984
0.026616007 0.088333644 0.61823744
0.029438149 0.087764502 0.62071168
0.025486916 0.092279911 0.62041557
0.028068867 0.09205775 0.62266946
0.024380276 0.09447971 0.62309569
0.026228458 0.094385587 0.6244716
0.059005283 0.04014761 0.57313466
0.060932402 0.039992534 0.57451385
0.052900322 0.043503292 0.57226586
0.056575984 0.041629411 0.57278723
0.061793007 0.040751368 0.5776177
0.063283294 0.042112306 0.58069402
0.046652488 0.045778252 0.57404977
0.04960924 0.045425985 0.57325029
0.06317462 0.043673117 0.58464009
0.062562257 0.0435936 0.58761257
0.044927966 0.048240915 0.57588893
0.047625992 0.049939878 0.57664537
0.060718309 0.047962546 0.58793336
0.061459206 0.045834184 0.5901106
0.044199076 0.049853701 0.57810813
0.046315659 0.051406357 0.58092827
0.048452176 0.053472199 0.58365798
0.054624964 0.052675478 0.58888286
0.056907315 0.049935222 0.59013206
0.059727244 0.047488518 0.59143096
0.044707872 0.051961534 0.58427292
0.048024811 0.053281371 0.58649886
0.051859375 0.052852195 0.58951902
0.053881943 0.050693784 0.5922215
0.028791195 0.065099172 0.5881179
0.031163394 0.065900147 0.59044582
0.052074611 0.062719233 0.60840786
0.054704729 0.061288517 0.61028075
0.026361322 0.068371668 0.59017557
0.031783987 0.067049272 0.59346426
0.032602794 0.067286715 0.59702969
0.046034165 0.065255523 0.60831362
0.049606621 0.064392038 0.60845059
0.053563152 0.064283729 0.61340964
0.024977094 0.070475206 0.59456348
0.026645537 0.072872616 0.59632307
0.032550957 0.069867 0.60033542
0.042753663 0.068358436 0.60921174
0.048466776 0.069548652 0.61487979
0.049825452 0.066764049 0.6159094
0.024087392 0.071014352 0.59781933
0.025484025 0.07317543 0.60030955
0.031811751 0.072807156 0.60322678
0.031730309 0.073054507 0.60602224
0.03821066 0.071942508 0.61132085
0.04095123 0.07181292 0.61058199
0.044916864 0.070454508 0.61667734
0.047116645 0.067773752 0.61722684
0.025636444 0.073986582 0.60383415
0.02724478 0.075995475 0.6069001
0.031737149 0.075288385 0.61058307
0.034271002 0.074895188 0.61240172
0.03864979 0.074463636 0.61682093
0.041532889 0.072124295 0.61725569
0.025873693 0.078692809 0.61101902
0.030525792 0.077164993 0.61450493
0.030514006 0.077340588 0.6150189
0.035345934 0.077349909 0.61902922
0.023471482 0.08125902 0.61432242
0.026920982 0.081721775 0.61711025
0.029081807 0.081278548 0.61930257
0.032735933 0.079960361 0.62204909
0.021193765 0.083831064 0.61767352
0.024677847 0.085155398 0.6197055
0.027063599 0.084116332 0.62227976
0.030012464 0.082958698 0.62526637
0.020136338 0.08539737 0.62035644
0.021556724 0.087136514 0.62340826
0.025114521 0.086990684 0.62622231
0.028113229 0.084798798 0.62735677
0.019629017 0.089912862 0.62666613
0.022799768 0.0899847 0.62889642
0.017758373 0.092220753 0.62933952
0.020977989 0.092372514 0.63161767
0.056673236 0.036056176 0.57496822
0.058883119 0.03591454 0.57679981
0.046852581 0.03909003 0.57286566
0.050850835 0.039098904 0.57401806
0.05409684 0.038210407 0.57445407
0.059934452 0.037320316 0.57930976
0.061136022 0.037645716 0.5829224
0.062797278 0.037089612 0.58647108
0.045225613 0.042019255 0.57391047
0.04898534 0.042270727 0.57352674
0.062242836 0.040288363 0.58474714
0.062369481 0.039513849 0.58851099
0.042796481 0.045848049 0.57674259
0.044107065 0.048464157 0.578583
0.059161045 0.04607027 0.59136748
0.060603932 0.043011531 0.59207845
0.040937107 0.047501951 0.58036226
0.042540301 0.049501132 0.58203852
0.056027032 0.047565155 0.59368289
0.057587292 0.045004323 0.59457809
0.041623179 0.050028771 0.58569169
0.044801772 0.051130507 0.58937454
0.048938788 0.050620019 0.59278345
0.052978817 0.048471294 0.59513527
0.042853288 0.05020294 0.59182966
0.046502616 0.049921691 0.59449273
0.024641817 0.057632625 0.58619034
0.027328501 0.057750989 0.5870046
0.051408783 0.05398912 0.60911644
0.054356836 0.053831492 0.61036563
0.055622287 0.053061418 0.61270893
0.023209896 0.060068943 0.58771425
0.026636075 0.060931195 0.58798283
0.029581232 0.0606758 0.59272057
0.049488746 0.057455454 0.60949916
0.054284606 0.056874253 0.61182147
0.054939248 0.055393223 0.61481202
0.022649048 0.062745631 0.589724
0.023873687 0.064395517 0.59276998
0.028074898 0.063231297 0.59638286
0.030366877 0.064847052 0.59832901
0.044286542 0.062746257 0.61032373
0.046460804 0.060432445 0.61216432
0.050911993 0.060480222 0.61580139
0.053531528 0.057983175 0.61624622
0.023020815 0.067729682 0.59586358
0.025539378 0.065345831 0.59895402
0.029480718 0.066563599 0.60186952
0.040965371 0.065066427 0.61212575
0.044591721 0.062570833 0.61535543
0.048437737 0.064014465 0.61759615
0.02315709 0.069491528 0.59838623
0.024140822 0.069751434 0.60184389
0.027137969 0.069125295 0.60527331
0.029709369 0.071064584 0.60776955
0.036851857 0.069579773 0.61313462
0.038728505 0.067418948 0.61511672
0.042770378 0.067055374 0.61780769
0.046481587 0.066387609 0.61800802
0.026422426 0.07268133 0.60864735
0.028125409 0.072357737 0.61169773
0.03297212 0.071721599 0.61563611
0.035864409 0.071536496 0.61735946
0.04011637 0.070305645 0.61793613
0.023692742 0.074677743 0.61296207
0.0283048 0.073804319 0.61564183
0.02931273 0.073724702 0.61655295
0.033073761 0.073129624 0.62119412
0.021378597 0.077727124 0.61623472
0.025132146 0.077505387 0.61992037
0.026491862 0.077184707 0.62082863
0.030895092 0.076217733 0.62437487
0.020092323 0.079959728 0.61892521
0.020853776 0.080887824 0.6212244
0.023819402 0.079679281 0.62382847
0.028365277 0.079302356 0.62695748
0.020200793 0.082606658 0.62430406
0.023826208 0.082048796 0.62783122
0.025416557 0.079958923 0.62940115
0.053892449 0.032290824 0.57655126
0.056943141 0.031753439 0.57900447
0.045443874 0.036237385 0.57431799
0.048283443 0.034715589 0.57480705
0.051845886 0.033930618 0.57534951
0.058714256 0.032738954 0.58124846
0.059865735 0.033016991 0.58484471
0.061007783 0.034114502 0.5878039
0.042980701 0.038142942 0.57531965
0.061165638 0.036062956 0.58710909
0.060685284 0.035662413 0.59042335
0.039306242 0.041636072 0.57751727
0.059577763 0.038234033 0.59476084
0.034702554 0.042998459 0.5803709
0.037045456 0.045194186 0.58141059
0.056856781 0.042177863 0.59828365
0.057349544 0.04005656 0.60050523
0.035979252 0.046302862 0.58561718
0.038486596 0.048613857 0.58759969
0.051340505 0.046744481 0.59828526
0.05304078 0.043903779 0.60000217
0.024945036 0.051120449 0.58477575
0.027407456 0.051333986 0.58572173
0.034730829 0.04704769 0.58889234
0.036449127 0.04908213 0.59121591
0.040676154 0.049319573 0.59492987
0.044160269 0.04895024 0.59772497
0.047918838 0.047466945 0.60100514
0.050653052 0.046077333 0.60487652
0.054228272 0.047203355 0.6091274
0.055408701 0.046575502 0.61149836
0.023301974 0.054812804 0.58553296
0.027509203 0.054588981 0.58678186
0.029127 0.053266674 0.59125227
0.035869595 0.049329314 0.59511113
0.044306763 0.048074186 0.60265273
0.049404822 0.050421692 0.60856444
0.054520711 0.05027302 0.60989255
0.055882625 0.05001479 0.61354518
0.021669138 0.057492476 0.58798188
0.022163399 0.057290133 0.59215355
0.028878424 0.056540649 0.59475833
0.046646439 0.053700052 0.60988432
0.05041454 0.052998081 0.61626899
0.05445531 0.052761182 0.61595458
0.021742515 0.060544372 0.59047133
0.023301296 0.0598526 0.59439743
0.026099619 0.059244253 0.59679997
0.04561704 0.056277644 0.61368638
0.048527732 0.056574333 0.61591446
0.052662555 0.056150962 0.61686248
0.021507444 0.07158272 0.61548877
0.024287034 0.069850847 0.61701906
0.027594842 0.069513932 0.62014091
0.030447643 0.070360593 0.62318021
0.020688519 0.072530948 0.61743397
0.020881638 0.073935643 0.62065035
0.024073806 0.073585175 0.62416863
0.028048214 0.072479486 0.62560689
0.018531539 0.077960938 0.62095761
0.019247375 0.075889044 0.62361205
0.023327202 0.075603679 0.62653291
0.026222788 0.076308638 0.62852371
0.017094497 0.079347201 0.62702435
0.020901224 0.079442479 0.63034576
0.023831468 0.079183489 0.63132024
0.014757356 0.081525058 0.63067961
0.018389013 0.081715614 0.63360906
0.012400417 0.083777219 0.63386238
0.015870979 0.083669364 0.63677794
0.052019551 0.028434314 0.57816255
0.055341519 0.027863553 0.58081251
0.04344083 0.033265799 0.57646745
0.045841597 0.031081982 0.5769875
0.049421795 0.029439518 0.57810479
0.05564934 0.028217081 0.5835647
0.057369508 0.029322283 0.58697766
0.057979904 0.030129224 0.59009379
0.036089566 0.034938492 0.57649839
0.040328063 0.034264173 0.57728052
0.056944542 0.028700028 0.59076321
0.058469124 0.031661533 0.5927695
0.059883397 0.031385973 0.59700298
0.033843819 0.037481651 0.57767701
0.037494928 0.038415253 0.57778305
0.058972448 0.035416126 0.59640509
0.059539825 0.033615999 0.59957403
0.032248855 0.040961642 0.58084667
0.057317622 0.037211172 0.60211456
0.024417587 0.044095546 0.58338344
0.02893579 0.04301485 0.58528602
0.032487419 0.043622471 0.58704305
0.051716886 0.040727846 0.60359275
0.053961985 0.039189659 0.60651177
0.056225538 0.039237507 0.61047763
0.022876695 0.047442388 0.58423615
0.027838746 0.047396079 0.58601183
0.030586304 0.045927435 0.59030551
0.033451617 0.047535203 0.59165454
0.038854688 0.046938792 0.5988459
0.039487191 0.046366926 0.59965891
0.047666721 0.045262344 0.6040653
0.049231939 0.043345414 0.60618728
0.054156855 0.043272141 0.60872018
0.056194566 0.042489789 0.61271
0.021179156 0.05055768 0.58705759
0.027974593 0.049161669 0.59309059
0.032542385 0.047672611 0.5957433
0.03629401 0.046756387 0.59866726
0.040438719 0.046329238 0.60221183
0.044348627 0.0463426 0.60560215
0.04711356 0.046442546 0.60940039
0.054302894 0.045830622 0.61518276
0.020522576 0.052300796 0.59024423
0.022096571 0.05290056 0.59339577
0.025491986 0.052688941 0.59620786
0.04508128 0.049555879 0.61307824
0.048645429 0.049214896 0.61593741
0.051803377 0.047684543 0.61669081
0.023215882 0.056300372 0.59543401
0.024408821 0.055768117 0.59685558
0.02998651 0.053850673 0.60893327
0.031825818 0.053723432 0.61055863
0.045142349 0.052480184 0.61468822
0.046931781 0.052802816 0.61576724
0.02746053 0.057352483 0.61022019
0.030994102 0.056805566 0.61334646
0.026747823 0.058630742 0.61231482
0.029667551 0.057949204 0.61471832
0.019774329 0.069535181 0.61782539
0.020897754 0.067686677 0.61972553
0.025244948 0.067431234 0.6232143
0.027365645 0.068196118 0.62475598
0.019149242 0.069766365 0.61882633
0.019428063 0.069243282 0.6228537
0.022759654 0.068733841 0.62590122
0.026414439 0.069324516 0.62624449
0.018239282 0.069570363 0.6262452
0.021107266 0.069627471 0.62822384
0.012935497 0.080312595 0.6320914
0.016445659 0.081103981 0.63637543
0.011231512 0.081985876 0.63484967
0.014880363 0.082325175 0.63760793
0.051000029 0.025619911 0.58041823
0.052842736 0.025269689 0.5820058
0.044000421 0.028201198 0.57963055
0.047493815 0.026225938 0.58187187
0.051644295 0.025289204 0.58533436
0.054650463 0.026652342 0.58892989
0.035487562 0.033353139 0.57767177
0.037513267 0.030811474 0.57916832
0.040933169 0.028441869 0.58081663
0.054136515 0.026697695 0.59220177
0.056432992 0.028111784 0.59538263
0.058794856 0.029958632 0.59717584
0.032182191 0.034490366 0.57993919
0.033719249 0.032018103 0.58099812
0.055479683 0.028956138 0.59953195
0.057113998 0.030947311 0.60121769
0.025366109 0.036540546 0.58259845
0.028274037 0.036489975 0.58131325
0.056627825 0.03248984 0.60557979
0.055826623 0.032438599 0.60863239
0.022981016 0.040619828 0.58362085
0.027136229 0.040594857 0.58419657
0.030761199 0.042546365 0.58929408
0.04932639 0.039870217 0.60530275
0.054672211 0.036637723 0.60753006
0.055874433 0.035704747 0.61139786
0.019989388 0.043779522 0.58504063
0.029464988 0.043337379 0.59163415
0.036496475 0.04183165 0.60239798
0.047364943 0.040721044 0.60718381
0.055517673 0.038633227 0.61519939
0.018285932 0.04653883 0.58872116
0.026908074 0.04605823 0.59586233
0.029763751 0.044335619 0.5981977
0.034138829 0.043660611 0.60120559
0.037637368 0.043241262 0.60435468
0.041100353 0.042772014 0.60824275
0.044268154 0.043401856 0.61042184
0.052504312 0.041779831 0.6180681
0.018262807 0.048598226 0.59189939
0.020038776 0.048581541 0.59459782
0.023486104 0.048102558 0.59660506
0.029779563 0.047039494 0.60751057
0.032323606 0.046768609 0.60945964
0.044399228 0.045166049 0.61443532
0.046869352 0.044618737 0.6174885
0.049731553 0.043905191 0.61879444
0.025463682 0.051046483 0.60742807
0.028828472 0.049887083 0.60783976
0.032589756 0.04964067 0.61141813
0.032968283 0.049156792 0.61505193
0.023610765 0.053757265 0.60901189
0.025562309 0.055307198 0.60956234
0.031942498 0.053790636 0.61506009
0.032422364 0.051622521 0.61754888
0.019746758 0.056544598 0.61209559
0.023712173 0.057456508 0.61458385
0.02795117 0.056734528 0.61810267
0.030901674 0.054937139 0.62130988
0.01924938 0.056709293 0.61508274
0.022576334 0.057558127 0.61795485
0.025580447 0.056774329 0.62041944
0.028449306 0.055977747 0.62236118
0.01759962 0.066659302 0.62524074
0.020581691 0.066148981 0.6278438
0.015335904 0.06797716 0.62829465
0.018216925 0.067927927 0.63068074
0.013830185 0.06894505 0.63122916
0.016340218 0.068881273 0.63349879
0.045744333 0.02425682 0.58570904
0.048141759 0.023536775 0.58758295
0.035925545 0.027806487 0.58237606
0.038829342 0.026170705 0.58431017
0.042844694 0.024160711 0.58660728
0.047657557 0.023107272 0.59087104
0.05044017 0.024467509 0.59421146
0.05294615 0.025352208 0.59699911
0.030433642 0.032160133 0.58299816
0.032656234 0.029374912 0.58392239
0.035535958 0.026234884 0.58612508
0.049125411 0.024331901 0.59784424
0.05211962 0.026509628 0.60071105
0.053931691 0.028792476 0.60301548
0.024419239 0.035414398 0.58320975
0.026923684 0.032978207 0.58388436
0.029611114 0.030025791 0.58550042
0.051469505 0.027124407 0.60428017
0.053718004 0.029057778 0.6067304
0.055138245 0.030837856 0.60971391
0.022325683 0.037218526 0.58493572
0.023094874 0.035219952 0.58781159
0.050789192 0.031152088 0.61162198
0.054272301 0.032486901 0.61206901
0.018809438 0.039739244 0.58817106
0.021709574 0.036540709 0.59051222
0.02441806 0.038084831 0.5962953
0.029461507 0.03782963 0.59867352
0.030540602 0.038308181 0.60063082
0.037772574 0.037493326 0.60718662
0.039616875 0.036375962 0.60782969
0.043059599 0.035289869 0.61243826
0.048781548 0.032710984 0.61390042
0.051816531 0.034879722 0.61651927
0.017267944 0.042527195 0.59131998
0.01873867 0.041497108 0.59521359
0.023370367 0.041222479 0.59763187
0.028639019 0.041394211 0.59887457
0.030946752 0.041014269 0.60310549
0.035543084 0.040507037 0.60756117
0.04002063 0.039459571 0.60878128
0.042260595 0.038460962 0.61393303
0.045412764 0.037638854 0.61792773
0.049565591 0.037634477 0.61888009
0.017675562 0.045971993 0.59309369
0.019126965 0.04483071 0.59555876
0.021639293 0.044678271 0.59754866
0.024996193 0.043371662 0.60678518
0.028807092 0.043428659 0.60698533
0.032678127 0.042749397 0.61017537
0.03319085 0.042285454 0.61375982
0.043119099 0.041587517 0.61574209
0.045576472 0.040932164 0.61811239
0.023244243 0.046720535 0.60787475
0.026543818 0.046346601 0.60757375
0.032440368 0.045586385 0.61287117
0.032689478 0.045286469 0.61622131
0.019735187 0.050118323 0.60970765
0.031676732 0.048489477 0.61997908
0.01693086 0.053933412 0.61112523
0.017156415 0.053392872 0.61206955
0.029828299 0.051827423 0.62321413
0.017092355 0.054900356 0.61649883
0.019107465 0.05590377 0.62043726
0.023060339 0.055044197 0.62359583
0.026730295 0.053793512 0.62411636
0.013750318 0.066049881 0.63049275
0.015821882 0.06598042 0.63256991
0.012408104 0.066890061 0.63211066
0.014998127 0.06690646 0.63446987
0.038328879 0.025149692 0.58812857
0.042301089 0.023125291 0.58947676
0.044916477 0.022546582 0.5915041
0.046717089 0.023677927 0.59476691
0.031774424 0.027682139 0.58688021
0.034797505 0.026081279 0.58912426
0.038548183 0.024292763 0.59299558
0.041919082 0.023629615 0.59616971
0.046451084 0.024478016 0.59904987
0.04890319 0.025165912 0.60192716
0.025631836 0.030807536 0.58751029
0.028459134 0.029060174 0.58925694
0.031666223 0.027445434 0.59307796
0.035334095 0.026057273 0.59659457
0.038886394 0.02541643 0.59980756
0.043241575 0.02588078 0.60291982
0.047447789 0.02631559 0.60557973
0.050073329 0.027275648 0.60851437
0.024135984 0.03255095 0.58948821
0.026019156 0.031078536 0.59295291
0.028238893 0.029369317 0.59585047
0.034792405 0.027412925 0.60073435
0.03609705 0.026680835 0.60071522
0.041061088 0.027371816 0.606695
0.044882104 0.028383153 0.60906237
0.048770715 0.029049743 0.61065453
0.018041683 0.038443111 0.59137619
0.021016672 0.036929503 0.59243506
0.024047168 0.035299495 0.59555155
0.027358977 0.034336571 0.59983748
0.027812548 0.032706108 0.6029548
0.034564313 0.031842053 0.60893589
0.038508732 0.032471605 0.60953015
0.042993758 0.032534026 0.61199909
0.046634525 0.033060394 0.61427373
0.048493795 0.034093872 0.61751795
0.017472496 0.039365012 0.5921675
0.018608853 0.039185315 0.59408146
0.02765131 0.035998564 0.60283315
0.027094822 0.03626186 0.60510105
0.033141695 0.034924243 0.61043531
0.035707828 0.034786683 0.60990053
0.046359815 0.035201006 0.61757022
0.023860073 0.039657846 0.60744143
0.025720842 0.039143 0.60654676
0.032884307 0.039071184 0.61265105
0.032316368 0.038218394 0.61464983
0.019430015 0.04351835 0.60912448
0.031808291 0.041939005 0.61940223
0.017327191 0.045135323 0.61132556
0.030204225 0.043564998 0.62210047
0.015528293 0.048850067 0.61517245
0.026927812 0.04741206 0.6249584
0.014215024 0.051686719 0.61889756
0.015592832 0.052790698 0.62272102
0.020893527 0.051896319 0.6270293
0.024078982 0.050026856 0.62745464
0.016581934 0.052426986 0.62465185
0.01862121 0.052344993 0.62617773
0.033690903 0.026611632 0.59833401
0.03765741 0.026099348 0.60177672
0.029494341 0.028790373 0.59800023
0.03201697 0.028223861 0.6001181
0.036354546 0.027615577 0.60385662
0.038811337 0.027614156 0.60627848
0.028258899 0.030545931 0.60007852
0.030319072 0.031120248 0.60380673
0.033493813 0.030633425 0.60645813
0.037266098 0.029270135 0.60783827
0.027555808 0.03391891 0.60731262
0.030586841 0.033529494 0.61029363
0.021787813 0.036787234 0.60926437
0.024221858 0.034594297 0.61001515
0.029036237 0.03402558 0.61375988
0.030318234 0.035613067 0.61666906
0.014420127 0.039604288 0.61144722
0.017227791 0.039901726 0.61098659
0.02982044 0.038146242 0.62138826
0.030343859 0.038327225 0.62396199
0.014580142 0.040515713 0.61147159
0.015512321 0.042053808 0.61318916
0.028303385 0.040374581 0.62407166
0.030168111 0.038824204 0.62436986
0.013731468 0.044998199 0.61774945
0.024553999 0.043581486 0.62672728
0.012289202 0.047678821 0.62102562
0.013945643 0.048537202 0.62499541
0.018065562 0.04783912 0.62845725
0.021788973 0.046061061 0.62912512
0.015392454 0.050786819 0.62514538
0.017195845 0.050442018 0.62677997
0.02229025 0.033312112 0.61376846
0.025399493 0.032947548 0.61637944
0.016837798 0.035937294 0.61422163
0.019188454 0.033427306 0.61623222
0.023625182 0.032858413 0.61980289
0.026170827 0.034595024 0.62203562
0.013991857 0.038037106 0.61656481
0.022563104 0.03335866 0.62333411
0.024693444 0.036593005 0.62577069
0.012380589 0.04099191 0.62006629
0.011837397 0.040451407 0.623344
0.018600488 0.039765421 0.62934476
0.021877609 0.039683931 0.62834269
0.011734927 0.04404559 0.62247336
0.012716258 0.043380145 0.62567639
0.016454503 0.04289303 0.62894893
0.020120781 0.042556558 0.62952048
0.018407367 0.032990932 0.61954254
0.020453684 0.032668322 0.62079644
0.013965972 0.035622556 0.61871237
0.014892694 0.033854179 0.62297159
0.017376112 0.033350598 0.62528557
0.021404795 0.034684855 0.62644124
0.012444288 0.037279136 0.62076598
0.013119102 0.035914462 0.62554288
0.015621703 0.035699151 0.62813461
0.020113312 0.036466733 0.62816972
0.013245063 0.039913446 0.62669206
0.015283789 0.03936341 0.6283927
0.022782806 0.01877588 0.61926061
0.023945861 0.018290013 0.6201725
0.021553231 0.019874826 0.62024015
0.013693005 0.03160521 0.62589681
0.014428586 0.031216895 0.62676185
0.011841794 0.032625467 0.62729853
0.013760921 0.032499 0.62906849
0.011358274 0.034892648 0.62955391
0.012068454 0.03470625 0.63010907
0.024422316 0.014533047 0.61748439
0.025333285 0.014248207 0.61827922
0.02168349 0.016498327 0.61924404
0.024089159 0.016475352 0.62049794
0.015828811 0.019352578 0.62109244
0.019118719 0.019281661 0.6221267
0.022062086 0.018181726 0.6227445
0.013220543 0.02053478 0.62334692
0.016117234 0.020173328 0.62466228
0.010475196 0.02529734 0.62689787
0.011901643 0.025591109 0.62866932
0.0089601129 0.028457567 0.62912089
0.01112866 0.028270775 0.63069165
0.014001578 0.017329507 0.6226365
0.01638918 0.016651496 0.62373829
0.011059023 0.018821217 0.62478948
0.013759291 0.018480945 0.62664562
0.0083875842 0.021471331 0.62807548
0.011017811 0.022042582 0.62904227
0.0079135559 0.024492135 0.63022506
0.0095955729 0.024579538 0.63074774
