# .PCD v0.7 - Point Cloud Data file format
VERSION 0.7
FIELDS x y z
SIZE 4 4 4
TYPE F F F
COUNT 1 1 1
WIDTH 1190
HEIGHT 1
VIEWPOINT 0 0 0 1 0 0 0
POINTS 1190
DATA ascii
0.090427302 0.00043646991 0.52071357
0.076799743 0.0092183873 0.49149117
0.08975976 -0.0024021417 0.53055036
0.088808313 -0.002121605 0.52984339
0.08880844 5.19678e-05 0.52177966
0.074505165 0.0092380717 0.49148598
0.069196343 0.011022449 0.48629689
0.068646431 0.011197947 0.48521557
0.083438128 -0.0019114241 0.52849376
0.081752211 -0.00090856105 0.52587736
0.079717353 0.00014314801 0.52106166
0.069008462 0.0071447045 0.49820274
0.06622462 0.0089744702 0.49281952
0.066546462 0.0098218694 0.48987165
0.067820542 0.010990851 0.4859584
0.081865892 -0.0020110086 0.52898955
0.080454543 -0.00079934299 0.52563417
0.078233249 -1.5638769e-05 0.52217293
0.067378446 0.0070200562 0.49866432
0.06574025 0.0085619092 0.49473771
0.064403653 0.0092358291 0.49173161
0.10809345 0.0070758611 0.51331365
0.10696774 0.0075630024 0.51037037
0.096386388 0.014444619 0.48811394
0.095174059 0.015360914 0.48589489
0.10578525 0.0046968907 0.51514298
0.10455866 0.005864121 0.51064622
0.10206127 0.0077797249 0.50888509
0.094473273 0.013059326 0.4926075
0.094565071 0.012705386 0.48923701
0.092027172 0.013858527 0.48530039
0.10104791 0.0045492873 0.52083975
0.10189878 0.0036495253 0.51809299
0.098941647 0.0050203428 0.5127672
0.098929986 0.0074530318 0.51059395
0.091973193 0.01300516 0.49367368
0.08947733 0.011678085 0.49133301
0.087012663 0.013390474 0.48597872
0.084247932 0.015449747 0.48587543
0.098749667 0.0034892038 0.52219629
0.09688659 0.0022830665 0.51901388
0.09473227 0.0058050305 0.51453716
0.085264772 0.012151413 0.49355704
0.082992837 0.011759728 0.4881064
0.081453525 0.014346756 0.48625556
0.093958296 0.0017891824 0.52529722
0.092726447 0.00086220354 0.52086878
0.089602321 0.0050008744 0.515899
0.080424711 0.011021599 0.49610993
0.078424208 0.01030536 0.48974252
0.076466955 0.013514511 0.48724028
0.090476379 -8.9764595e-05 0.53120178
0.089207061 0.00062351674 0.52832872
0.086854309 0.0004388988 0.52331525
0.085541382 0.0040302724 0.51757461
0.076338649 0.0099915266 0.49772102
0.072705381 0.0097249448 0.49124205
0.070845842 0.012997337 0.48799649
0.069114618 0.013607219 0.48553365
0.088561006 -0.0010436475 0.53154457
0.085386045 0.00063168257 0.52979767
0.083234861 0.002157867 0.52504396
0.080648333 0.0036475584 0.52057058
0.070787653 0.0099979788 0.49958286
0.069147646 0.011140123 0.49488768
0.06729313 0.01265344 0.48992309
0.067396052 0.012687802 0.48631978
0.081425041 -0.00031647831 0.53039467
0.079709351 0.0011453703 0.52594447
0.077317744 0.0022590458 0.52295399
0.066576004 0.0092656165 0.49999982
0.065744489 0.010248616 0.49617174
0.06348528 0.011194691 0.49228835
0.10833197 0.0098849535 0.51422811
0.10728697 0.010744236 0.51124269
0.096607052 0.0175189 0.48892415
0.095378675 0.017701067 0.4863992
0.10657937 0.0092955604 0.5168283
0.10537439 0.011943936 0.50979453
0.10252216 0.011062309 0.50927556
0.094958432 0.015801273 0.49340969
0.096657246 0.017638765 0.49151993
0.092596792 0.018768527 0.48621035
0.10078267 0.0060131475 0.52130979
0.10249361 0.0082814023 0.5201453
0.096954256 0.010936275 0.51328856
0.098661944 0.010744169 0.51140505
0.091539659 0.015894823 0.49483299
0.089107357 0.015906394 0.49511689
0.08692161 0.018480569 0.48686323
0.084229097 0.01634746 0.4862729
0.098033667 0.0071946904 0.52347136
0.097718902 0.0086849332 0.52245986
0.094118401 0.0094575211 0.51510388
0.085102908 0.015400723 0.49559781
0.082451552 0.018459156 0.48841465
0.081118196 0.017713666 0.48773244
0.094061017 0.0057420582 0.52612889
0.092499658 0.0086102337 0.52305615
0.090579346 0.0087480769 0.5181222
0.080736831 0.015423045 0.49618697
0.078263447 0.017943278 0.49238774
0.076890349 0.017231889 0.48844603
0.09019085 0.0044626743 0.52811259
0.087887414 0.0065390021 0.52476996
0.085846767 0.0075634643 0.52056837
0.075385287 0.014514193 0.49767461
0.073544219 0.015929945 0.49372703
0.072507694 0.016103305 0.48944625
0.085473448 0.0040410757 0.52887493
0.085410029 0.0052720681 0.52668393
0.082323134 0.0064102262 0.52205759
0.071513429 0.013361283 0.49892664
0.070043541 0.014882989 0.49438173
0.068588853 0.015156329 0.4923901
0.10776138 0.012728922 0.51451778
0.10721505 0.013176247 0.51287067
0.10581882 0.013681769 0.51837456
0.10476503 0.015836135 0.51316273
0.1017289 0.014831513 0.51155257
0.09365239 0.019583099 0.49465048
0.09477175 0.021871343 0.49218339
0.091820583 0.023011655 0.48820141
0.10170119 0.013334394 0.52068388
0.097881898 0.015439264 0.51591831
0.098967224 0.015751489 0.51266867
0.091327637 0.020536982 0.49647346
0.088442959 0.021926217 0.49562916
0.087312855 0.022841364 0.48907638
0.097475648 0.011880353 0.5210104
0.096513256 0.013604768 0.51739228
0.085721113 0.020381041 0.49481076
0.08375667 0.020860627 0.49140337
0.10444952 0.018402666 0.51859707
0.10409824 0.019815706 0.51552433
0.093529478 0.026543342 0.49332255
0.091487117 0.026166186 0.49064562
0.10176527 0.018272333 0.52016813
0.099324249 0.019418187 0.51668912
0.099407896 0.018548615 0.51400113
0.091481008 0.023604244 0.49678805
0.089666322 0.02550555 0.49596155
0.088560469 0.026790276 0.49175441
0.098239735 0.020583168 0.52026808
0.086867884 0.027521379 0.49584225
0.086123645 0.028369792 0.49472508
0.10345886 0.023087412 0.51959848
0.10344674 0.024298184 0.51752234
0.092797041 0.031109378 0.49473286
0.10168006 0.023460984 0.52202362
0.099882983 0.024963088 0.51743114
0.090731964 0.030960098 0.4976415
0.08855918 0.032136105 0.49325678
0.098046571 0.023346394 0.52349615
0.096593767 0.024109595 0.52062666
0.085871533 0.031234108 0.49852622
0.084735326 0.031806394 0.4950006
0.10291497 0.0285936 0.51893294
0.092413552 0.034839742 0.49640974
0.10193294 0.028103262 0.52385712
0.10090844 0.029726587 0.51895374
0.098007642 0.03072419 0.51792622
0.090406701 0.035840511 0.50156593
0.091324911 0.036078453 0.49792081
0.088191614 0.037152454 0.49440637
0.097322665 0.027410448 0.52615744
0.094643272 0.028125279 0.52132648
0.09533041 0.030555695 0.51904601
0.087372571 0.035357006 0.50285822
0.084835917 0.034062997 0.50082517
0.083418585 0.036544614 0.49576786
0.094237745 0.029070444 0.52690732
0.092929378 0.029775009 0.52405143
0.082302235 0.036522374 0.50169891
0.081057869 0.037167542 0.49848604
0.10227489 0.032648787 0.52566111
0.10182326 0.034184858 0.52043784
0.098292135 0.035041012 0.51843345
0.091052599 0.039515667 0.50304431
0.09164492 0.040632576 0.49903107
0.088108815 0.041987501 0.49536324
0.098088466 0.031724647 0.52900308
0.094334044 0.034596786 0.51948357
0.087559752 0.038779199 0.50513971
0.08269608 0.041720681 0.49591136
0.093111776 0.03213995 0.52933908
0.090599209 0.032928109 0.5256595
0.09028434 0.035118379 0.52231735
0.083096981 0.039205648 0.50635922
0.080051519 0.03944882 0.50342703
0.079125151 0.041190036 0.49933189
0.089476444 0.034308903 0.52944267
0.089169368 0.034659356 0.52838296
0.079872891 0.041060567 0.50750512
0.077957019 0.04164654 0.50451744
0.076995976 0.042457908 0.50202602
0.10180657 0.037413433 0.52676123
0.10090169 0.038833424 0.52226758
0.09787143 0.039399855 0.51996851
0.090668984 0.043964155 0.50435132
0.090684727 0.045234054 0.50084031
0.08789441 0.046305299 0.49727631
0.098567687 0.036284298 0.53072113
0.094079748 0.039787009 0.5207333
0.087726906 0.043829821 0.50704086
0.08295773 0.04696691 0.4969928
0.09377867 0.036095999 0.53234684
0.088835061 0.035343483 0.52686799
0.089906938 0.039240845 0.52278918
0.083296113 0.04337126 0.50872886
0.078226395 0.04585658 0.49924621
0.088736877 0.036402509 0.53231013
0.086272128 0.037546411 0.52881902
0.086656153 0.03905417 0.52558774
0.078999311 0.043729752 0.50937063
0.076136068 0.044013731 0.50740504
0.074983798 0.045523293 0.50280476
0.084895685 0.037906088 0.53352851
0.083723269 0.038313955 0.5315361
0.072805196 0.045253843 0.5079447
0.071923345 0.046378061 0.5055297
0.10023203 0.04076191 0.52753341
0.099136978 0.041886084 0.5243001
0.097166359 0.042251959 0.52188802
0.088712938 0.048441626 0.50247675
0.087296218 0.048942968 0.49945951
0.097536027 0.041409858 0.5302251
0.096117496 0.043930918 0.5261243
0.094190605 0.043183543 0.52283722
0.087186284 0.047696263 0.50715023
0.085891902 0.05037836 0.50427645
0.083750471 0.050275058 0.50012153
0.093996063 0.04135339 0.53309661
0.092910454 0.045064762 0.52762705
0.089945316 0.043380924 0.52451575
0.083059803 0.048060261 0.50958508
0.082562111 0.051556259 0.50608301
0.079186745 0.050982334 0.50132519
0.088929676 0.040430903 0.53523505
0.084786743 0.041340277 0.52839744
0.085700296 0.043576375 0.52749199
0.07778044 0.048311055 0.51118857
0.076608568 0.04645481 0.51006448
0.074165829 0.050199598 0.50302076
0.084115773 0.040773354 0.53581256
0.081469886 0.041491322 0.53226238
0.082480386 0.04367242 0.52939373
0.074543454 0.048518792 0.51239443
0.071500093 0.047664247 0.51069981
0.070528686 0.049682453 0.5062772
0.080507793 0.042960942 0.53497201
0.069021776 0.049747907 0.51038474
0.068643153 0.050111882 0.5092712
0.091790512 0.04603333 0.53327292
0.090824291 0.046853706 0.52979225
0.088916779 0.048020974 0.5272069
0.081497125 0.05313471 0.51097667
0.080448225 0.05350703 0.5076831
0.07839191 0.054556392 0.5048815
0.088782169 0.045423679 0.53648871
0.089503467 0.046446905 0.53123623
0.08538422 0.047676049 0.52831262
0.07829722 0.052316241 0.51283854
0.078556836 0.053608656 0.5078845
0.07451123 0.054980017 0.5048461
0.084108323 0.045170732 0.53706288
0.080953382 0.046349458 0.53358209
0.08228381 0.047400311 0.53008652
0.074466661 0.05210074 0.51399857
0.070901237 0.053140916 0.51245815
0.070603319 0.0540995 0.50762177
0.080491483 0.044185326 0.53527915
0.069432601 0.051353887 0.51165724
0.068635181 0.051615573 0.50927979
0.10736844 0.055771403 0.52238154
0.1068578 0.056385718 0.51924765
0.10524311 0.057855882 0.51477253
0.10332371 0.058888786 0.51048845
0.10023814 0.060059246 0.5066269
0.098755725 0.061920509 0.50475287
0.10539098 0.05551441 0.52558732
0.098535001 0.060397353 0.50593948
0.09524668 0.061323207 0.50356197
0.092141867 0.062610805 0.50198847
0.10358495 0.055041134 0.52858931
0.091735922 0.062372323 0.50318372
0.090278752 0.062908463 0.50221217
0.095692895 0.05343499 0.53256994
0.095520183 0.053020798 0.52969426
0.093315974 0.054632105 0.52587974
0.086325876 0.058803268 0.51144463
0.085051216 0.060162649 0.5072543
0.083108746 0.061519474 0.50592196
0.093039088 0.051314786 0.53437442
0.093385078 0.050686166 0.52985698
0.089315407 0.053817868 0.52593654
0.08370126 0.057351246 0.51435661
0.082861312 0.057678677 0.50753164
0.079550236 0.059977718 0.50586098
0.088921323 0.050378963 0.53749484
0.084895387 0.05281619 0.52850854
0.079176724 0.057077795 0.51565403
0.074709944 0.059916541 0.50657225
0.085420944 0.04997611 0.53726995
0.083163992 0.051220402 0.53459102
0.082498625 0.052663378 0.531376
0.074906901 0.057232581 0.51559806
0.072690092 0.057755545 0.51263714
0.072125807 0.058715723 0.50884825
0.10832327 0.05931456 0.52439231
0.10787764 0.060031746 0.52009052
0.10633941 0.061562978 0.51536369
0.10389239 0.062507808 0.51139939
0.10143439 0.064147606 0.50703359
0.099251129 0.065479875 0.5051204
0.10471979 0.057351261 0.52943367
0.10599995 0.05799482 0.5263226
0.10484846 0.060277771 0.52262944
0.10307457 0.062467702 0.51697338
0.10110781 0.063567311 0.51288825
0.097208969 0.063856117 0.50895369
0.095752254 0.064618856 0.50411278
0.09228462 0.065991335 0.50268584
0.10241071 0.056421332 0.53105515
0.10049313 0.058165684 0.52828282
0.098066188 0.060168862 0.52495784
0.096374266 0.062103499 0.52293748
0.09191186 0.0645096 0.5110665
0.090655193 0.064309552 0.50690562
0.08912383 0.065537587 0.50274557
0.097617164 0.056734003 0.53402519
0.098009922 0.056202285 0.52990162
0.094800986 0.057678781 0.52491975
0.092375845 0.060051017 0.52353197
0.089008033 0.06232702 0.51588762
0.088978097 0.06156861 0.51255226
0.087069497 0.063503787 0.50662529
0.083844148 0.065180838 0.50475562
0.094202697 0.056426108 0.53646505
0.087685823 0.05847203 0.52676255
0.089555748 0.059077892 0.52499568
0.085671261 0.061753418 0.5168826
0.083109222 0.061568443 0.51708436
0.079830602 0.065617472 0.50616103
0.088674352 0.055271141 0.53786021
0.085890606 0.057188816 0.53563583
0.08512494 0.057660624 0.5301224
0.079090305 0.061829247 0.5167979
0.075208619 0.064230606 0.51292062
0.0750397 0.06403707 0.50878173
0.083800249 0.055277303 0.53445536
0.083102018 0.055382982 0.53216159
0.075404316 0.061164238 0.51600236
0.074147627 0.061553821 0.51402378
0.073244236 0.061988149 0.51029778
0.10865147 0.063689932 0.52569848
0.10907083 0.065088034 0.52112418
0.10769943 0.066619977 0.51638818
0.1053696 0.067469299 0.51231325
0.10266543 0.068696484 0.50812644
0.099042527 0.06993188 0.50534207
0.10640185 0.062771663 0.53096843
0.10766324 0.062802762 0.5286392
0.102478 0.064315289 0.52334547
0.10189863 0.066405073 0.51945978
0.099735491 0.067165926 0.51452893
0.096392415 0.06839928 0.51229721
0.095814444 0.070132449 0.50420451
0.092927031 0.070932135 0.50350827
0.10265587 0.062191699 0.53387618
0.10175646 0.061371487 0.52611816
0.099857464 0.063233316 0.52391154
0.096680909 0.064817727 0.52242041
0.093355775 0.066786036 0.5157975
0.094104312 0.066836894 0.51169902
0.089374036 0.070808649 0.50375897
0.098408364 0.060740024 0.53644681
0.093030564 0.06405165 0.5236004
0.089749373 0.066133022 0.51747876
0.08403594 0.070790365 0.50486141
0.093556829 0.059634648 0.53839588
0.088444203 0.063777849 0.52822
0.087310039 0.0644949 0.52596116
0.085108191 0.065974951 0.5211553
0.083475217 0.066806838 0.51791865
0.079365693 0.069903761 0.50689316
0.089326613 0.059980769 0.5388698
0.087011173 0.061196327 0.53582692
0.085558437 0.061984956 0.53094709
0.083553523 0.063464791 0.52652621
0.082286932 0.065027744 0.52186215
0.078963324 0.066479608 0.51769602
0.076440372 0.067984439 0.51376629
0.076585159 0.068411633 0.50953627
0.10843764 0.071562663 0.51681077
0.10694039 0.073940918 0.51402766
0.10886235 0.068686128 0.52694494
0.10936962 0.070163891 0.52238226
0.10824332 0.071148887 0.51808232
0.10600428 0.071932912 0.51342195
0.10307682 0.074567847 0.50881672
0.099397033 0.074934691 0.50601089
0.10619169 0.067128301 0.53220254
0.10763519 0.067957893 0.53019226
0.10128932 0.067849293 0.52288562
0.10017812 0.070660874 0.52098268
0.098188363 0.071646214 0.51684862
0.09634795 0.075049073 0.50493085
0.09357775 0.075907022 0.5046252
0.10303161 0.066246569 0.5345301
0.097140148 0.070152879 0.52279669
0.095070772 0.071928248 0.51758862
0.089105532 0.075636178 0.50498736
0.098256312 0.06608361 0.53725457
0.09312772 0.069956571 0.52570367
0.09010832 0.071624607 0.51870108
0.087575048 0.073503874 0.51916361
0.083800718 0.07510259 0.50637698
0.093945116 0.065149322 0.53869361
0.090481319 0.067745656 0.53693676
0.090022884 0.0681988 0.52913588
0.087580301 0.069513232 0.52595222
0.084982947 0.070519052 0.5221712
0.085244209 0.071305364 0.51874024
0.07978268 0.075061642 0.51236892
0.08013963 0.074287042 0.50892001
0.090171084 0.06420099 0.53826648
0.088821277 0.065534852 0.53588426
0.086775243 0.067229122 0.53165281
0.085292168 0.068328932 0.52795458
0.08349362 0.069655381 0.5231126
0.080354348 0.071209744 0.51894593
0.07911247 0.072502941 0.51476169
0.077653989 0.071912602 0.51159239
0.11034582 0.077533543 0.52201235
0.10889331 0.076856911 0.51870221
0.10736169 0.077874273 0.51553112
0.10553576 0.080163456 0.51233786
0.10914576 0.073849753 0.52804065
0.10952459 0.074377313 0.52410638
0.10830361 0.076184556 0.51900566
0.10575984 0.078447834 0.51376909
0.10354777 0.078674652 0.51040423
0.099518962 0.079655714 0.50743282
0.10558138 0.072007068 0.53376949
0.10725059 0.072879627 0.53166628
0.096336491 0.080455258 0.50648135
0.093466759 0.08017464 0.50626892
0.10247049 0.071527123 0.53552842
0.096259214 0.074503824 0.5230459
0.0947439 0.075338744 0.52013725
0.089304633 0.080220416 0.50711679
0.098176762 0.071246542 0.53737152
0.095385686 0.072688736 0.5377422
0.092531532 0.073935211 0.52578217
0.090592653 0.07538037 0.52103221
0.084650248 0.079984307 0.50921309
0.094298147 0.069602668 0.5382666
0.09185186 0.071453169 0.53693998
0.088405386 0.072530225 0.53301561
0.086446352 0.074189574 0.52807671
0.083984636 0.075392969 0.52430505
0.082248569 0.07774777 0.51968288
0.081396371 0.078583442 0.51482427
0.081316598 0.078434825 0.51102233
0.087546051 0.07142818 0.5333795
0.085756093 0.072899312 0.52947176
0.083262853 0.075796023 0.52394336
0.08122845 0.075362518 0.51985657
0.080284394 0.075749613 0.51681221
0.11243319 0.079386309 0.52750957
0.11185658 0.079937518 0.52411878
0.11063635 0.08113277 0.51952928
0.10825862 0.082338408 0.51517338
0.10578255 0.083794765 0.5112465
0.10380438 0.084533975 0.50864607
0.11059998 0.077974513 0.52999598
0.1111353 0.078205019 0.52605659
0.10621879 0.080249347 0.5145092
0.10368453 0.082126848 0.51026213
0.10029054 0.084602162 0.50785625
0.10662068 0.076911092 0.53498137
0.10729719 0.076655611 0.5333063
0.095720075 0.083070084 0.50782627
0.094166048 0.085447788 0.5075748
0.10253991 0.076357044 0.53671211
0.089533232 0.084421143 0.50899732
0.099264868 0.075901069 0.53769553
0.096506909 0.076648742 0.53756106
0.085045457 0.084126092 0.51351112
0.086322032 0.083778903 0.51065582
0.092672274 0.076799333 0.53647989
0.089532912 0.077527255 0.53394622
0.086649828 0.078011788 0.53018028
0.084241964 0.079323396 0.52498126
0.083154351 0.081786349 0.52046728
0.083348677 0.0824285 0.51626843
0.085260861 0.080136068 0.53006256
0.083535932 0.080846906 0.52622336
0.08247216 0.082148001 0.52344525
0.11146465 0.0836858 0.52490991
0.11001477 0.085872412 0.52107447
0.10828798 0.087157406 0.51677948
0.10578632 0.087409042 0.51288331
0.10935035 0.082359262 0.53113621
0.10985211 0.084705688 0.52740711
0.10939632 0.087067872 0.52382588
0.10589668 0.089407079 0.51623976
0.10353175 0.089035846 0.51304781
0.099944539 0.088996895 0.51058042
0.097345985 0.087980255 0.50759685
0.10671332 0.080351643 0.53562903
0.10636409 0.082659103 0.53367823
0.096303038 0.090256482 0.51147568
0.094142966 0.088647693 0.50867748
0.10235958 0.079590522 0.53729582
0.10186173 0.082837872 0.53632134
0.090858586 0.090124637 0.51333266
0.090708941 0.088319182 0.5102554
0.099700324 0.079586372 0.5384022
0.096999757 0.08159706 0.53757638
0.093705505 0.083756313 0.53488225
0.086713329 0.088433832 0.51993269
0.086641043 0.088981077 0.51534688
0.08678636 0.087046869 0.51171011
0.093032882 0.080813728 0.53750229
0.090150476 0.081907034 0.5346325
0.087992586 0.083522074 0.53063726
0.085880846 0.084970519 0.52601445
0.084074557 0.08599177 0.52184826
0.083674118 0.087188959 0.51762992
0.085714184 0.081365719 0.53140283
0.083621845 0.08269231 0.52675158
0.082442269 0.083605617 0.52350527
0.040634982 0.081255347 0.55115044
0.039138671 0.081990585 0.54769957
0.037417565 0.080635905 0.55217594
0.03613209 0.081444398 0.54888237
0.034395382 0.080782488 0.55252564
0.033586465 0.081098706 0.55087602
0.10921543 0.090952761 0.5215618
0.10825631 0.091310136 0.51921153
0.1078992 0.08625152 0.53135991
0.10844498 0.088952132 0.52858847
0.1088867 0.090158679 0.52457696
0.10572296 0.092618138 0.51780343
0.10274313 0.092899501 0.51552743
0.099500053 0.09273719 0.51345795
0.10530931 0.086715713 0.53331429
0.1053668 0.089738682 0.53243124
0.097602479 0.094766036 0.51562321
0.096331537 0.092782743 0.51403314
0.10116341 0.085729122 0.53513211
0.099625483 0.088834949 0.53396726
0.092446022 0.093402922 0.51848775
0.092178643 0.09187717 0.5155611
0.097717792 0.08482518 0.53586769
0.094942637 0.087457359 0.53406096
0.091117643 0.090438902 0.53092897
0.089167476 0.091719054 0.52688611
0.089086711 0.091419749 0.52120984
0.088683583 0.090408966 0.51744854
0.091474637 0.086106181 0.53337467
0.089734152 0.087737858 0.53091705
0.088014126 0.08920905 0.52701044
0.086762495 0.0890617 0.52309567
0.078023694 0.085433766 0.55107951
0.077817097 0.085900247 0.55016899
0.065793425 0.093828425 0.5242371
0.065310404 0.093895495 0.52323556
0.075904772 0.084879652 0.55207258
0.074017256 0.08563707 0.54973328
0.06308575 0.091943994 0.5303781
0.063500717 0.092591882 0.52681202
0.062878676 0.093398876 0.52402377
0.072169647 0.084990785 0.55298042
0.069573499 0.085280761 0.55067986
0.067706004 0.08613088 0.54821211
0.060388483 0.090913057 0.53239101
0.059650902 0.091754541 0.52935189
0.059873391 0.09311749 0.52612978
0.065359801 0.085319832 0.55155146
0.062844068 0.085940659 0.54865545
0.060144249 0.086866505 0.54714048
0.056613915 0.089836776 0.53863794
0.056716777 0.08988598 0.53545111
0.056184161 0.091164991 0.53189713
0.058443174 0.086116105 0.54878402
0.056326255 0.086204082 0.54685795
0.053658426 0.088024646 0.54123753
0.053754691 0.089344025 0.53804237
0.052546568 0.086066656 0.55081654
0.051795244 0.085924707 0.54775769
0.050169215 0.087481767 0.54359812
0.048603401 0.088904433 0.54149371
0.05031164 0.086090162 0.5516625
0.04720391 0.084874786 0.55004442
0.044917833 0.086463474 0.54581809
0.045988373 0.088498034 0.54273105
0.042138919 0.083960712 0.55118686
0.040661421 0.085111022 0.54788476
0.038110036 0.081927672 0.55229449
0.036610588 0.082722843 0.5493086
0.03457123 0.081615843 0.55308604
0.033664778 0.082012385 0.55100304
0.1090692 0.095927492 0.52321631
0.10820065 0.096361592 0.52104896
0.10736564 0.093866564 0.52970755
0.10831628 0.094982676 0.52581596
0.10527706 0.097089261 0.5196802
0.10213311 0.097169638 0.51777083
0.10396775 0.094063364 0.53569162
0.10515971 0.093379974 0.53293157
0.097969852 0.097828627 0.51726836
0.095429637 0.099491268 0.51726657
0.10093325 0.09323436 0.53728086
0.099709615 0.091639519 0.53469294
0.092669927 0.096320987 0.51948559
0.092023917 0.099053912 0.51809525
0.09813305 0.093115568 0.53773046
0.095175892 0.092782952 0.53528339
0.09202943 0.091967635 0.53289199
0.088721737 0.094012037 0.52575636
0.08935295 0.096497215 0.52298075
0.089849249 0.098652527 0.51970452
0.091877818 0.094290368 0.53624791
0.089679375 0.093622535 0.53272372
0.08778096 0.094725065 0.52834308
0.086850591 0.097490445 0.52559721
0.079979107 0.088236876 0.55244964
0.077859268 0.088245153 0.54976743
0.066684075 0.095708303 0.52548885
0.066143252 0.097326815 0.52239692
0.076257743 0.086971015 0.55477273
0.074777111 0.088647939 0.54869282
0.071730904 0.090053625 0.5472151
0.064760804 0.094711609 0.53167242
0.065497234 0.094803154 0.52807015
0.061805815 0.09657193 0.52322215
0.071294278 0.087642506 0.55548531
0.068742231 0.086158253 0.55377901
0.067582995 0.089521818 0.54689789
0.062012743 0.093182229 0.53503478
0.057241216 0.093857341 0.52848041
0.05797746 0.096453771 0.52664286
0.06816031 0.088977434 0.55576634
0.065083459 0.088109136 0.55415356
0.06352032 0.088616088 0.54737228
0.061018728 0.089809552 0.54692501
0.057847872 0.092096284 0.53944016
0.058848005 0.091297448 0.53690338
0.054849751 0.094685003 0.53168195
0.056032173 0.096789144 0.52913207
0.061697289 0.089141302 0.55339682
0.058236971 0.088645369 0.5514468
0.055997234 0.090181544 0.54626322
0.054949705 0.090914927 0.54339141
0.051930916 0.09260574 0.53820318
0.05310877 0.094229206 0.53504872
0.053192329 0.08867877 0.55226606
0.051565699 0.090779543 0.54687452
0.051038165 0.090888336 0.54680371
0.048185721 0.091913983 0.54130441
0.048789751 0.088622466 0.55423653
0.046578724 0.088931784 0.55037636
0.045199536 0.089966565 0.54778814
0.043976411 0.091720738 0.54353839
0.044357799 0.088560268 0.55607694
0.042339768 0.087759361 0.55242896
0.040974032 0.089442939 0.5494796
0.039384902 0.091319881 0.54588687
0.041152947 0.088775739 0.5567494
0.03782431 0.088538036 0.55495507
0.035921112 0.089353502 0.55091643
0.03644345 0.091176443 0.54752707
0.033403829 0.088187635 0.5564959
0.031836994 0.08860606 0.55297416
0.029728472 0.087932155 0.55804485
0.028084934 0.088297069 0.55447489
0.10939363 0.10075745 0.52466768
0.1081674 0.10134862 0.52213681
0.10848377 0.099091493 0.53498596
0.107954 0.098864906 0.53086501
0.108414 0.099190481 0.52751863
0.1054295 0.10119702 0.52077216
0.10234042 0.10247608 0.51892221
0.099817358 0.10437784 0.51653904
0.10588814 0.097454727 0.5366897
0.10650355 0.096308291 0.53313261
0.099542141 0.10092786 0.5177772
0.096778885 0.10342446 0.51682144
0.10122164 0.096102484 0.53892052
0.098446876 0.094544165 0.53757107
0.090579882 0.099932171 0.52011037
0.091738179 0.10258566 0.5182234
0.097089075 0.096867062 0.54019797
0.094808087 0.0956911 0.53852731
0.087489806 0.10043637 0.52286988
0.088245504 0.10273705 0.52088761
0.091341168 0.097238235 0.53875506
0.088009425 0.09750475 0.53505248
0.085858777 0.098809049 0.5302912
0.085446373 0.10099337 0.52565128
0.086199343 0.09989205 0.53635979
0.084504753 0.10072903 0.53224683
0.085041493 0.094414473 0.55604017
0.084593117 0.094186947 0.55327564
0.070569023 0.10357285 0.52502364
0.069926411 0.10374272 0.52188766
0.068489619 0.10530584 0.520105
0.082320109 0.093393542 0.55740398
0.082027674 0.092120156 0.55411047
0.078486554 0.09410353 0.55027485
0.068219699 0.10121153 0.52720386
0.067098618 0.10190639 0.52200854
0.065417334 0.10451242 0.52061313
0.07916034 0.092238069 0.55785012
0.075861298 0.092111632 0.55623764
0.073886797 0.094057135 0.55130053
0.071655244 0.093203008 0.54886293
0.064175472 0.098175794 0.53269607
0.064071923 0.10061508 0.52995598
0.061472144 0.1014984 0.52490574
0.062694296 0.10331229 0.52198833
0.071409099 0.090995573 0.55682653
0.070324138 0.094045922 0.55349565
0.067666218 0.0936829 0.54921532
0.061067399 0.097764611 0.53583157
0.060047571 0.10075939 0.53138185
0.057831407 0.099889599 0.52735335
0.068371728 0.09073016 0.55639017
0.065423384 0.092030823 0.55477571
0.063187778 0.093668468 0.55110747
0.060353629 0.092758358 0.54832476
0.057395674 0.095262319 0.54014039
0.057059143 0.097701311 0.53767914
0.055428043 0.098544113 0.53316921
0.056024272 0.098474175 0.52944112
0.058398101 0.09247674 0.55153179
0.056179553 0.093926519 0.54923266
0.053726647 0.095459312 0.5436613
0.052691251 0.095898621 0.54048258
0.053324111 0.096384495 0.53609049
0.053401321 0.093468562 0.55355716
0.052109983 0.094624132 0.54843736
0.051494528 0.09494403 0.54726636
0.048304088 0.09700536 0.5426175
0.048782323 0.092971072 0.55550182
0.046203878 0.094244301 0.55109125
0.045756213 0.094697051 0.54955137
0.043757752 0.096402772 0.54445273
0.04519742 0.092672199 0.55646986
0.042854603 0.092877232 0.55537605
0.0416173 0.094604209 0.55183715
0.03967952 0.095575869 0.5467481
0.039280146 0.093080528 0.55559301
0.036996812 0.094584703 0.55130118
0.036939539 0.096815877 0.54920834
0.1097092 0.10527617 0.52664208
0.10825856 0.106344 0.52312511
0.10858735 0.10250235 0.53575188
0.10928754 0.10347008 0.53272015
0.10963897 0.10369837 0.52905601
0.10604578 0.10627349 0.52106541
0.10298967 0.10759437 0.51926219
0.10004316 0.10790826 0.51768577
0.10646882 0.10187507 0.53816438
0.099630795 0.10588501 0.517887
0.096984155 0.10796246 0.51765311
0.10237415 0.10073818 0.54169625
0.091849945 0.10815846 0.51815838
0.098733127 0.10191201 0.54576546
0.096970797 0.10010783 0.5435226
0.086506695 0.10710923 0.5205493
0.08579164 0.10990724 0.51939261
0.092715837 0.10146767 0.54385054
0.090114675 0.10000116 0.54127347
0.083501108 0.10433971 0.52642977
0.083723977 0.1072569 0.52411705
0.089672022 0.099159047 0.5552994
0.089037366 0.098960742 0.55273777
0.08941783 0.10270922 0.54449999
0.086584106 0.10180174 0.54259288
0.083795168 0.10260712 0.53776687
0.082016408 0.10361673 0.53377879
0.080440082 0.10575452 0.52930307
0.078199975 0.10830891 0.52571821
0.074419886 0.1087582 0.52151948
0.072875932 0.11023158 0.51982999
0.086919241 0.096737564 0.55716085
0.086452849 0.096714288 0.55279136
0.083545774 0.099729635 0.55018234
0.083096921 0.1036393 0.54241258
0.07832437 0.10677257 0.5325616
0.07267344 0.10671167 0.52668685
0.072202913 0.10648444 0.52142519
0.069402829 0.10824508 0.51934612
0.083266221 0.096009389 0.55856413
0.079900652 0.098151818 0.55723327
0.078844234 0.098749518 0.55009437
0.069535851 0.10513987 0.52947676
0.06492804 0.10815495 0.52446347
0.065771475 0.10740023 0.5205645
0.079576202 0.094649188 0.55833936
0.076793425 0.096873105 0.55596602
0.075394265 0.098025739 0.55269694
0.064859971 0.10504981 0.53001279
0.06314835 0.10532846 0.52676976
0.063032433 0.10533896 0.52250814
0.05263596 0.097770795 0.55483931
0.05255881 0.099444464 0.55163616
0.050467089 0.10062359 0.54775858
0.047776006 0.10085101 0.5444724
0.05040431 0.098095804 0.55535686
0.046973355 0.098465189 0.55468774
0.04454061 0.099875249 0.5508427
0.044348501 0.10073755 0.5465641
0.044347655 0.095678888 0.55736405
0.043265954 0.09860567 0.55590981
0.041403923 0.099488869 0.55132604
0.039678015 0.099307626 0.5481903
0.03833355 0.097799927 0.5577153
0.035903446 0.09861397 0.55336052
0.035544023 0.0987368 0.55028498
0.033843629 0.098233633 0.55950934
0.031675495 0.098807298 0.55541337
0.029712074 0.098374113 0.56142461
0.027693458 0.099225044 0.557455
0.11015044 0.10970645 0.52771658
0.10858137 0.11084644 0.52389276
0.10809694 0.10647706 0.5369451
0.10906732 0.1081067 0.53426075
0.1093826 0.10934158 0.53036976
0.10610465 0.11185168 0.52308679
0.10283542 0.11226983 0.52085835
0.099848211 0.1130124 0.51973611
0.10637155 0.10653187 0.54428405
0.10653857 0.10665175 0.53992641
0.099912323 0.11475756 0.52045238
0.096840948 0.11294718 0.5189001
0.093564726 0.11500023 0.51665294
0.1037949 0.10541025 0.54652077
0.10362788 0.10395144 0.54304838
0.091863394 0.11147626 0.51810777
0.090188101 0.11445783 0.51672643
0.099118881 0.10435538 0.5478335
0.085913368 0.11311756 0.5187875
0.094458155 0.10451244 0.55530602
0.093921557 0.10547636 0.55040854
0.092517801 0.10513173 0.54666942
0.082198232 0.11198486 0.52434045
0.080785885 0.11428925 0.52140403
0.077662438 0.11576816 0.51841897
0.09181653 0.10241027 0.55701053
0.090896919 0.10234889 0.55182135
0.088342592 0.1051769 0.54813093
0.086684361 0.10392001 0.54525244
0.081523165 0.10692259 0.53849888
0.081205487 0.10768428 0.53765804
0.078975931 0.10918619 0.52869624
0.078358792 0.11154994 0.52653772
0.076808929 0.11189426 0.52123153
0.074073374 0.11413166 0.51836908
0.087613843 0.10151132 0.55845153
0.084005818 0.10434014 0.55048257
0.083053857 0.10601157 0.54534262
0.081481814 0.10749459 0.54100758
0.079173848 0.10879417 0.53622121
0.076739855 0.10969123 0.53174311
0.073787183 0.11094383 0.52830881
0.070025861 0.11290748 0.52009338
0.083935857 0.10174786 0.55865347
0.081135154 0.1024926 0.55656284
0.079249725 0.10339481 0.55267537
0.068823941 0.11053747 0.5299058
0.066985175 0.11153908 0.52583021
0.067502111 0.1125822 0.52243513
0.077762403 0.1004076 0.55544776
0.076972567 0.10132678 0.55394495
0.06838987 0.10783534 0.54590541
0.067288831 0.10838535 0.54377794
0.065942705 0.10885137 0.52985317
0.065063007 0.10875989 0.52793264
0.065189563 0.10601231 0.54850042
0.063229084 0.10732657 0.54437876
0.062671177 0.10611139 0.5489217
0.061323117 0.10730235 0.54552609
0.05153507 0.10100368 0.55583555
0.051020168 0.10328689 0.55415887
0.048692465 0.10437357 0.54920548
0.047227908 0.10407214 0.54692
0.050497975 0.10142826 0.55627161
0.047397695 0.1038129 0.55514342
0.045461562 0.10509633 0.55123818
0.045273442 0.10404444 0.54767698
0.044226173 0.10545357 0.55566519
0.042845756 0.1058195 0.55248648
0.033078559 0.1003193 0.56086844
0.029437877 0.10108083 0.5566892
0.029681548 0.10060954 0.56216747
0.027582414 0.10096914 0.55810529
0.10959863 0.11340646 0.52794856
0.10864636 0.11412558 0.52580035
0.10813035 0.11221746 0.53520858
0.1076594 0.1143084 0.53114223
0.10568758 0.11599699 0.52630973
0.10227378 0.11603329 0.52282149
0.10613981 0.10857332 0.54446095
0.10642941 0.111064 0.54190832
0.10665748 0.11320877 0.53798717
0.099426322 0.11771936 0.52267843
0.09625674 0.11764726 0.51996917
0.09404166 0.11650806 0.51751959
0.10325783 0.10939001 0.54735696
0.10382624 0.1117016 0.54537469
0.09220095 0.11917983 0.52016908
0.089919612 0.11800919 0.51846534
0.099173494 0.11032338 0.5536958
0.10061301 0.10915368 0.55111319
0.085371777 0.11896463 0.518246
0.082727857 0.12068044 0.51841533
0.095911071 0.10785305 0.55627042
0.095904157 0.107338 0.55210721
0.090982832 0.10749941 0.54778421
0.080931909 0.11403087 0.52623367
0.08133737 0.11681156 0.52022612
0.078689747 0.11928103 0.51818466
0.09272477 0.10647728 0.55925441
0.088445857 0.10824757 0.54867077
0.080922224 0.11346886 0.53952187
0.078677058 0.11463232 0.52786571
0.07390666 0.118761 0.51810491
0.087981068 0.10630655 0.5604912
0.083163366 0.10854977 0.55062574
0.082409322 0.11059987 0.54718995
0.080710359 0.11179729 0.54225796
0.078660101 0.11302189 0.53818011
0.076007143 0.11466225 0.53398484
0.074191876 0.11458407 0.53053826
0.069499873 0.11811921 0.52082133
0.084216148 0.10614626 0.56011319
0.082143113 0.10714753 0.55784696
0.081083551 0.10786635 0.5540387
0.073126048 0.1129296 0.54562974
0.071905524 0.11362226 0.54273582
0.069892362 0.11505711 0.52981162
0.067874447 0.11654574 0.52673995
0.067464501 0.11723077 0.52361435
0.070618629 0.11035417 0.55029553
0.07125394 0.11087328 0.54680806
0.068779945 0.11211263 0.54240853
0.066003144 0.1142492 0.54126561
0.06765601 0.10921413 0.55208808
0.066600509 0.10779072 0.55025136
0.063461274 0.11053811 0.54277945
0.06254334 0.11351079 0.5415771
0.063159466 0.10915099 0.55555022
0.061025124 0.10882992 0.55129713
0.058903486 0.11034737 0.54639119
0.057462115 0.11287434 0.54268181
0.060492292 0.11059165 0.55546081
0.057994638 0.11064057 0.55174625
0.056657825 0.11193159 0.54824495
0.055754479 0.11300088 0.54497755
0.046523582 0.10754322 0.55616271
0.044924442 0.10867606 0.55268586
0.042999387 0.10839128 0.55790859
0.041331492 0.10904665 0.55462456
0.039844003 0.10932614 0.55890101
0.038240504 0.1100094 0.55599976
0.10524719 0.11822245 0.53186572
0.10430828 0.11928659 0.52907938
0.10510837 0.11550974 0.54248363
0.10465368 0.11727785 0.53909016
0.10421233 0.11932261 0.5345006
0.10169846 0.12137631 0.52885121
0.098476715 0.12133273 0.52563095
0.095939539 0.12147178 0.52273661
0.10169219 0.11322322 0.54819357
0.10261489 0.11559706 0.5455355
0.10271589 0.11877503 0.54194462
0.095328651 0.12350921 0.52617598
0.092104226 0.12249767 0.52293468
0.089167543 0.1213521 0.52096772
0.099138379 0.111766 0.55437118
0.10012151 0.11366519 0.55152702
0.10059887 0.11643159 0.54826057
0.088692844 0.12387665 0.52292871
0.085864402 0.12301258 0.52046895
0.082572095 0.12270644 0.51869285
0.096501969 0.11151065 0.55626881
0.09520074 0.11447474 0.5547269
0.080306433 0.12424713 0.52258474
0.079622753 0.12265146 0.51925308
0.092055552 0.11167936 0.55933249
0.092072353 0.11497143 0.55568773
0.086681247 0.11599855 0.55207592
0.085370459 0.11639655 0.54666471
0.083587065 0.11674932 0.54527926
0.079282641 0.11925972 0.53684634
0.079529665 0.12015869 0.53479832
0.076587416 0.12268198 0.53041118
0.0773407 0.12445614 0.52426183
0.074335143 0.12332118 0.521029
0.087764479 0.11118874 0.56052011
0.085175902 0.11370003 0.55820125
0.083795197 0.11421572 0.55318093
0.083246723 0.11364501 0.54782313
0.080127507 0.11560836 0.54469478
0.077141881 0.11733822 0.5392791
0.077160321 0.11794358 0.53456026
0.073578089 0.12090015 0.53124642
0.070984297 0.12295323 0.52729326
0.07064797 0.12260804 0.52306002
0.084511921 0.10907525 0.56015557
0.083186962 0.11097582 0.55812633
0.081866488 0.11159486 0.55526835
0.07511732 0.11661693 0.55002272
0.075346418 0.11591439 0.54627842
0.073439039 0.11730545 0.54180068
0.070708632 0.11937413 0.54053915
0.070512481 0.1189841 0.53040028
0.069126882 0.12022789 0.52746439
0.072250664 0.11467226 0.55188608
0.073071018 0.11418665 0.54869097
0.069651909 0.11629079 0.54181403
0.067004248 0.11815675 0.54087389
0.068532653 0.11340241 0.55531859
0.062041119 0.11751261 0.5414722
0.065027073 0.11143433 0.55819368
0.064536303 0.11231515 0.55772656
0.057355523 0.11666039 0.54300296
0.059997421 0.11325005 0.5570789
0.056370243 0.11395656 0.55444771
0.054592878 0.11546824 0.54987645
0.055218142 0.11605815 0.54606009
0.041969419 0.11142459 0.55880207
0.040482365 0.11210389 0.55636525
0.04001211 0.1117821 0.55988204
0.038299989 0.11242619 0.556894
0.10190251 0.12013397 0.53870672
0.10226607 0.1217288 0.53434569
0.10114812 0.12270644 0.53133243
0.098001219 0.1230121 0.52905834
0.10089926 0.11866973 0.54561919
0.10017766 0.12053847 0.54205203
0.098260038 0.12322912 0.53743285
0.096301593 0.12469751 0.53344715
0.09393274 0.12451247 0.52855748
0.091416493 0.12487303 0.52567595
0.09804453 0.11755438 0.55182427
0.097797938 0.11933901 0.54853004
0.095771097 0.12196524 0.54446954
0.093935028 0.12415782 0.54004592
0.091952428 0.12559077 0.53587836
0.089568056 0.12588052 0.53107208
0.087564759 0.12600039 0.52649724
0.084877424 0.12612496 0.52346581
0.095294021 0.11735711 0.55308318
0.093345359 0.11994808 0.55039841
0.092037588 0.12239146 0.54747188
0.08966653 0.12517194 0.53990388
0.090211511 0.12552348 0.53855562
0.085352972 0.12692347 0.53261328
0.083252728 0.12648691 0.52853578
0.081995405 0.12594402 0.52450776
0.08993654 0.11451676 0.5593003
0.090165928 0.11573341 0.55602461
0.088722803 0.11805806 0.55227405
0.085974291 0.12034307 0.54809207
0.084241293 0.12317807 0.54685068
0.080394469 0.12554 0.53899384
0.080006383 0.12452244 0.53510517
0.07839036 0.12480728 0.5302552
0.076601446 0.12477046 0.52631754
0.073527962 0.12513804 0.52397907
0.088722229 0.11424231 0.55980045
0.087325633 0.11511883 0.55829442
0.082606733 0.12036581 0.54739881
0.080489479 0.12137806 0.54752046
0.077357575 0.12395898 0.54042548
0.078169733 0.12330259 0.53801727
0.072665945 0.12464985 0.52617019
0.076374188 0.12030718 0.55058503
0.077608429 0.11993077 0.54889297
0.073290005 0.12160253 0.54069912
0.071981743 0.12342726 0.54076087
0.072437808 0.1187539 0.55499566
0.065964133 0.12273901 0.54072827
0.06949646 0.11889424 0.55678731
0.062653795 0.12301969 0.5419367
0.064102449 0.11801709 0.55819052
0.057860803 0.12183233 0.54498953
0.059324432 0.11772596 0.5590471
0.055670384 0.11841643 0.55707049
0.053090613 0.12026124 0.550955
0.05406506 0.12142293 0.54756027
0.054339085 0.11948602 0.55568403
0.053320996 0.11990888 0.55338657
0.091990449 0.12487677 0.541363
0.089793026 0.12623306 0.53676087
0.09066356 0.12369892 0.54575866
0.089452252 0.12472951 0.54281914
0.087096617 0.12624028 0.5377863
0.085325874 0.12695685 0.53491366
0.08785104 0.12348969 0.54674542
0.084630705 0.12444583 0.54406416
0.083000064 0.12554467 0.54039276
0.082968883 0.12663592 0.53629375
0.079895034 0.12436481 0.546372
0.077918723 0.12557319 0.542786
0.076099321 0.12404826 0.55192167
0.076883145 0.12579346 0.5491581
0.074555106 0.12717959 0.54366416
0.07141073 0.12702672 0.54201597
0.071955308 0.12420603 0.55897754
0.072504804 0.12317085 0.55636793
0.066042393 0.12732399 0.54184759
0.063830845 0.12834397 0.54084784
0.071476743 0.12341586 0.55891848
0.069326252 0.1227829 0.55784172
0.062439814 0.12707081 0.54304129
0.063206747 0.12816083 0.54099351
0.063733421 0.12290737 0.55900007
0.058098983 0.12641792 0.54652345
0.059401918 0.12255102 0.56005388
0.055783708 0.12346661 0.55774957
0.05368435 0.12495916 0.55297351
0.054466497 0.12605745 0.54901707
0.054644726 0.12135279 0.55656171
0.053645451 0.12209845 0.55444306
0.074162655 0.12912112 0.55015212
0.072494969 0.1301095 0.54656613
0.071796224 0.12820449 0.55566448
0.071671233 0.13085908 0.55269706
0.069448009 0.13223372 0.54760534
0.066939563 0.13136938 0.54487735
0.068399131 0.12815404 0.55820537
0.066082165 0.13377222 0.54799533
0.062572658 0.13182475 0.5457983
0.06371507 0.12771098 0.55940968
0.061165314 0.1299011 0.5592286
0.05721014 0.13211998 0.5513767
0.058467932 0.13104384 0.54837501
0.060012974 0.12645063 0.55990165
0.057762854 0.12840785 0.5582369
0.0556705 0.12970361 0.55389357
0.055774841 0.12954657 0.55017257
0.069012783 0.13302439 0.55275279
0.068351097 0.13351439 0.5504756
0.067841545 0.13126583 0.55753571
0.0652683 0.13469028 0.55559182
0.063853979 0.13577266 0.55265862
0.062632799 0.13442102 0.54865515
0.06506943 0.13118465 0.55879509
0.061819449 0.13457432 0.5570389
0.06002197 0.13554692 0.5540641
0.060096007 0.13402711 0.54976881
0.058773883 0.13173819 0.55713415
0.057852406 0.13264355 0.55475044
0.077165529 0.14403835 0.54696339
0.076779008 0.14467141 0.54559588
0.075625479 0.14383814 0.54808909
0.063834965 0.1382799 0.55592954
0.063389063 0.1388918 0.55499846
0.061909217 0.13847858 0.55756807
0.060694493 0.13908388 0.55533427
0.058764298 0.1377759 0.55784452
0.058472097 0.13806839 0.55702215
0.081066892 0.14642051 0.54524606
0.080646001 0.14687543 0.5441696
0.078245386 0.14617321 0.54778332
0.077467546 0.14633884 0.54518956
0.074534677 0.14583443 0.55343634
0.074066877 0.1457568 0.55001968
0.074449554 0.14641118 0.54690838
0.07171838 0.14646886 0.55566108
0.071120523 0.14685403 0.55253929
0.065921083 0.14474615 0.55816144
0.064430356 0.14509426 0.55645394
0.062221326 0.14347631 0.55954838
0.061234552 0.14398447 0.55710447
0.074080497 0.14867213 0.5546841
0.073771253 0.14931974 0.55206507
0.071150891 0.14906061 0.557289
0.070062697 0.14973494 0.55425358
0.066688955 0.14897798 0.55953443
0.06586875 0.14845437 0.55684513
0.06324102 0.14758375 0.5599066
0.062942445 0.14743645 0.55817479
