# .PCD v0.7 - Point Cloud Data file format
VERSION 0.7
FIELDS x y z
SIZE 4 4 4
TYPE F F F
COUNT 1 1 1
WIDTH 1190
HEIGHT 1
VIEWPOINT 0 0 0 1 0 0 0
POINTS 1190
DATA ascii
0.056737747 0.10026231 0.6191141
0.024737544 0.10832447 0.61384445
0.066615686 0.10004375 0.6163491
0.065713197 0.10048965 0.61566317
0.057591572 0.10106432 0.6175226
0.02435571 0.10944152 0.61187673
0.018115196 0.1121136 0.6083824
0.016985923 0.1125569 0.60820735
0.063554138 0.10336024 0.61144388
0.060524043 0.10413433 0.61048841
0.055448957 0.10568301 0.60995632
0.030354384 0.11190549 0.60574031
0.024327299 0.11335179 0.60445219
0.021388069 0.11335991 0.6053862
0.017604109 0.11291692 0.60733271
0.063786447 0.10407241 0.609972
0.060052268 0.10475588 0.60941786
0.056270994 0.10622042 0.60837579
0.030557245 0.11267669 0.60424042
0.026137911 0.11336835 0.60355461
0.022952007 0.11435355 0.60315883
0.050193917 0.088271067 0.6340915
0.047175832 0.089286938 0.63392854
0.022690905 0.095368788 0.62966591
0.020128638 0.095864154 0.62901556
0.052449565 0.090824343 0.63244021
0.047741931 0.091786548 0.63244611
0.044967193 0.091963105 0.63014871
0.026981467 0.096134663 0.62706286
0.024126612 0.097364083 0.62841648
0.019715311 0.09882091 0.62711817
0.056848101 0.091617428 0.6265291
0.05490065 0.092737496 0.62853682
0.049087971 0.094628565 0.62726223
0.046129093 0.093275867 0.62702483
0.027556259 0.097100578 0.62458766
0.02561174 0.10010274 0.62376595
0.019710721 0.10147937 0.62278718
0.018317165 0.10118571 0.61964607
0.058133624 0.093223237 0.62452543
0.055487178 0.096060097 0.62448055
0.049668908 0.095544524 0.62275767
0.026728097 0.10114274 0.61922848
0.021646943 0.10417655 0.619277
0.01866675 0.10335661 0.61756408
0.060845703 0.096073367 0.62005502
0.057069376 0.098734207 0.6208595
0.05039731 0.098335646 0.6182304
0.028704641 0.10370978 0.61467618
0.022981532 0.10714348 0.61539364
0.019092368 0.1062102 0.61329746
0.066352211 0.097605251 0.61583018
0.063279815 0.098486148 0.61543155
0.05849082 0.10126243 0.61518198
0.05164773 0.10064425 0.61457694
0.029917989 0.10609835 0.61104643
0.023645448 0.11000147 0.61022818
0.019080358 0.10918533 0.608441
0.016343867 0.11025891 0.60755008
0.066747762 0.099231362 0.61445343
0.063976757 0.099934801 0.61166674
0.058741163 0.10113394 0.61082715
0.053701609 0.1024958 0.60953534
0.03068909 0.10828684 0.60567093
0.025747785 0.10953145 0.60540015
0.020376489 0.11065644 0.60489029
0.017153513 0.11163021 0.6061787
0.06426844 0.10249085 0.60845327
0.059401326 0.10343925 0.60790908
0.055876806 0.10457986 0.60643268
0.030689608 0.11084227 0.60221869
0.026720624 0.11156523 0.60240972
0.022487905 0.11303873 0.60141343
0.049882438 0.085584499 0.63287926
0.046684865 0.086267933 0.6326527
0.022172945 0.092504203 0.62836891
0.019639641 0.09369839 0.62809753
0.052173078 0.086172186 0.63073736
0.044582076 0.086651251 0.63103223
0.044025563 0.088931955 0.62911636
0.026637089 0.093414284 0.62612581
0.024454582 0.091622882 0.62749004
0.018579237 0.094250888 0.6253618
0.056617305 0.090411447 0.6255666
0.054906778 0.088049211 0.62652689
0.04677448 0.090608895 0.62305397
0.045443147 0.090474337 0.62522423
0.02732233 0.094607934 0.62268662
0.027180482 0.095715098 0.62050694
0.018370712 0.09709505 0.62040353
0.018296523 0.10034329 0.61914194
0.057618562 0.090167582 0.62202209
0.05604279 0.089397207 0.62150592
0.048558295 0.092688866 0.62060124
0.027177259 0.097963899 0.61712086
0.019049373 0.098863944 0.61606777
0.018534385 0.1003317 0.61545169
0.059962541 0.092540756 0.61830342
0.055768207 0.091858298 0.61687243
0.050985828 0.094133839 0.61683857
0.026993163 0.099926792 0.61318088
0.022146622 0.10019147 0.61135215
0.018693576 0.10260312 0.61178684
0.061647821 0.094918288 0.61483109
0.057421945 0.095329486 0.6131689
0.052906938 0.096723936 0.6124357
0.027842103 0.10287622 0.60846305
0.023423821 0.10377742 0.60766053
0.019353421 0.10539716 0.60814822
0.061746892 0.097367607 0.61070746
0.059263606 0.097030289 0.61090583
0.054152858 0.098971657 0.60937643
0.028819595 0.10536471 0.60518581
0.023882277 0.10617052 0.60486013
0.021752007 0.10724583 0.60417962
0.048867106 0.083450936 0.631172
0.047118921 0.083835036 0.63108337
0.051610526 0.082501478 0.62783605
0.045880012 0.082778528 0.62784123
0.044368379 0.085569493 0.62618428
0.025964726 0.090597093 0.62309945
0.022984795 0.088890791 0.62398499
0.018471789 0.090575203 0.62235367
0.053159799 0.084142253 0.62367481
0.04740461 0.085693382 0.62118483
0.044540606 0.085851632 0.62308431
0.026825834 0.090429448 0.62012154
0.025028419 0.090960465 0.61739177
0.018600836 0.092682295 0.61827224
0.053377256 0.087322302 0.62052584
0.049266782 0.087440975 0.62024176
0.024500819 0.093808055 0.61594999
0.020935584 0.095379375 0.61522937
0.049625948 0.079243511 0.62472826
0.046231415 0.079156592 0.62490577
0.021861484 0.08534243 0.62069625
0.019293875 0.087440789 0.62000078
0.050654709 0.080215171 0.62195551
0.046671607 0.081496507 0.62058872
0.044640761 0.082953066 0.62190884
0.02585635 0.087748595 0.61893678
0.024033938 0.0873271 0.6169138
0.019556094 0.088048883 0.61687899
0.049216073 0.080031231 0.61799628
0.022638712 0.087090343 0.61376637
0.021166215 0.087088577 0.61317182
0.048414543 0.07560084 0.621696
0.046050683 0.075221255 0.62190747
0.021106936 0.081550241 0.6177938
0.05014373 0.075463556 0.61921084
0.04511942 0.076460674 0.61862916
0.023440372 0.081841297 0.6151073
0.018677199 0.083230227 0.61426306
0.050925076 0.07691925 0.61565357
0.047805615 0.077848695 0.61507726
0.023336634 0.083755426 0.61054581
0.019760225 0.084876835 0.61053646
0.04544121 0.071551763 0.61928326
0.020994682 0.078192823 0.61542952
0.049894743 0.070999302 0.61697817
0.04466594 0.071606904 0.61711389
0.042864777 0.072520301 0.61458659
0.02487088 0.076856203 0.61158192
0.021656923 0.077273279 0.61350113
0.017560663 0.078965262 0.61158276
0.051500428 0.07316871 0.612535
0.046448182 0.075315744 0.61158991
0.043506607 0.073651604 0.61198699
0.025740735 0.078371242 0.60874331
0.024051253 0.081276566 0.60777003
0.018264523 0.081419587 0.60728323
0.050985057 0.073110893 0.60899019
0.047925398 0.074013174 0.60855591
0.023402948 0.080255672 0.60433942
0.020058749 0.081279345 0.60410351
0.049673848 0.066579029 0.61486971
0.044287175 0.067069046 0.61563742
0.041569158 0.068694584 0.61295611
0.02476944 0.073094338 0.6101864
0.020808022 0.07305944 0.61160427
0.016392861 0.074764714 0.60928237
0.052376255 0.068424642 0.61052924
0.042057279 0.070703901 0.60939372
0.026389584 0.07480827 0.60678482
0.016123977 0.077492721 0.60457546
0.051703915 0.070440635 0.60599756
0.047678601 0.072108932 0.60477823
0.043725494 0.071445912 0.60477102
0.026586073 0.076303557 0.60239041
0.023370642 0.078462914 0.60067868
0.018832 0.078689404 0.6005795
0.050309937 0.070426024 0.6019991
0.049166281 0.070599906 0.60195535
0.026321711 0.076038972 0.59851629
0.023095701 0.077376552 0.59765381
0.020373713 0.07791353 0.59735143
0.048601523 0.062584452 0.61221927
0.04384331 0.063179962 0.61239946
0.041062564 0.06488198 0.61035991
0.024027439 0.069256596 0.60766333
0.020359185 0.069233984 0.60835874
0.016274851 0.070773564 0.60675138
0.052094676 0.063950203 0.60856158
0.040976278 0.06621135 0.60670793
0.026017461 0.070031948 0.60429496
0.014952004 0.072748989 0.60236543
0.05285795 0.065991439 0.60399389
0.047471955 0.070646793 0.60191011
0.042372569 0.06811624 0.60266328
0.027006518 0.072099783 0.60011917
0.016669888 0.075333916 0.59799927
0.051886823 0.068237573 0.59957498
0.047889881 0.069535747 0.59819269
0.044432309 0.069054887 0.59901488
0.026740847 0.073737673 0.59608805
0.024402939 0.075491332 0.59419042
0.019472171 0.076166637 0.59415966
0.051734269 0.06854403 0.59528744
0.049592696 0.069370113 0.59479547
0.023834532 0.075960279 0.59067178
0.021063546 0.076179534 0.59028798
0.047646802 0.060391672 0.60929215
0.044109106 0.060955174 0.60900182
0.041481022 0.06233193 0.60798544
0.020172717 0.0671001 0.60485643
0.017035712 0.068269476 0.60446399
0.049352974 0.060404032 0.60582489
0.044405788 0.060235895 0.60499924
0.041464612 0.0627589 0.60475409
0.024420328 0.067098461 0.60227078
0.020524381 0.066378683 0.6010744
0.016504036 0.068733275 0.60068417
0.051377393 0.061357282 0.60185331
0.044763573 0.060449474 0.60130388
0.04220219 0.064200528 0.60048133
0.025784671 0.068124019 0.59777904
0.021115966 0.066527963 0.59715438
0.016553288 0.070052885 0.59609801
0.052860357 0.063987121 0.59716535
0.045695756 0.067282774 0.5955683
0.044102147 0.065264501 0.59577239
0.026266579 0.070053793 0.59262645
0.025844004 0.072481148 0.59273547
0.017589072 0.072675161 0.59154296
0.05246067 0.065911964 0.59272015
0.048558876 0.067665748 0.591371
0.045246586 0.066218249 0.59234101
0.026738951 0.071127735 0.58937085
0.02508812 0.073823988 0.587677
0.020133972 0.073941372 0.58754039
0.050218221 0.066144444 0.5890559
0.023540946 0.073430948 0.58484244
0.022331966 0.07364475 0.58475029
0.049234055 0.058558777 0.59806228
0.045622028 0.059379943 0.59808528
0.04251568 0.060119539 0.59686506
0.024668388 0.064330161 0.59397262
0.021396857 0.065504588 0.59403861
0.018122084 0.066477358 0.59281051
0.051882166 0.059602551 0.59464747
0.046871245 0.059942849 0.59663004
0.043080755 0.061821364 0.5936085
0.026160702 0.066035047 0.59093249
0.021230701 0.066295289 0.59231365
0.017290171 0.068054482 0.58933765
0.051749658 0.061947159 0.59055799
0.047636457 0.063554175 0.58856845
0.044284616 0.063058145 0.590469
0.026672639 0.06776192 0.58735186
0.024287827 0.06911806 0.58441234
0.019512324 0.069892429 0.58540887
0.049981318 0.065059483 0.5884555
0.024078008 0.071540646 0.58413148
0.021712948 0.072414055 0.58414745
0.037940521 0.046078347 0.61120832
0.034797817 0.046742372 0.61158526
0.029921126 0.047641434 0.61113256
0.025348306 0.048993256 0.61052752
0.0209089 0.050684083 0.60872883
0.01821902 0.050437536 0.60735863
0.04059878 0.046327639 0.6085391
0.019879088 0.051447831 0.60737097
0.016837168 0.053005513 0.60499549
0.014393919 0.05394141 0.60236329
0.043192171 0.046729162 0.60617042
0.01549766 0.053987838 0.60170764
0.014170728 0.054551013 0.60057771
0.046153963 0.0507746 0.59871572
0.043724488 0.052039284 0.59970027
0.03928557 0.052920461 0.59846538
0.023506142 0.05716715 0.59570718
0.018985115 0.057906091 0.59549296
0.016915917 0.05814153 0.59374589
0.048224118 0.053293575 0.59667534
0.04449781 0.054957751 0.59874099
0.039031696 0.055544086 0.59534723
0.02629444 0.058800645 0.59305501
0.019914325 0.060940467 0.5945071
0.016930265 0.061177693 0.59133238
0.050744135 0.055179607 0.59247279
0.041039646 0.057793371 0.591097
0.026841823 0.060877137 0.58885765
0.016813949 0.063407212 0.58697873
0.050147485 0.05730176 0.58971488
0.046869148 0.058177926 0.58819711
0.043284342 0.058262937 0.58814222
0.02604067 0.062872492 0.58516502
0.022816438 0.064402282 0.58406109
0.018934997 0.065000713 0.58447641
0.038420193 0.042116739 0.60994959
0.034199804 0.043005604 0.610735
0.029084738 0.043890446 0.61040837
0.024749929 0.045481227 0.60927922
0.019764908 0.046625271 0.60800183
0.017147254 0.047169294 0.60625434
0.043169633 0.044029877 0.60594487
0.040323168 0.043780074 0.60783362
0.035882846 0.043556243 0.60719287
0.029624175 0.044289045 0.606718
0.025194073 0.045551449 0.60597908
0.020925209 0.048387125 0.60385752
0.016040791 0.049894791 0.60394216
0.013635087 0.050897252 0.60091692
0.044636376 0.045456976 0.60379136
0.041121081 0.045783296 0.60239786
0.036921501 0.046310209 0.60065305
0.034036405 0.046149634 0.59912407
0.021692693 0.049846884 0.59835929
0.017849497 0.051846161 0.59876561
0.013368952 0.052810472 0.59837353
0.046393815 0.046697237 0.59856927
0.042987287 0.048143875 0.60050398
0.037397973 0.049972069 0.59885657
0.034779154 0.04962974 0.59631509
0.026448727 0.051658977 0.5951134
0.023773953 0.053269584 0.59651065
0.017357066 0.05435672 0.59611237
0.014467387 0.055119466 0.59332329
0.04815663 0.047920715 0.5949496
0.037573248 0.052292842 0.59183991
0.036040507 0.051390342 0.59379482
0.027041227 0.053483982 0.59215176
0.026886757 0.054840166 0.58996642
0.014898282 0.056330539 0.58924627
0.048996698 0.051186029 0.59020883
0.04576049 0.051637426 0.58782184
0.040506206 0.053239144 0.58883864
0.025875531 0.05669225 0.58652413
0.020782121 0.05777169 0.58356458
0.017130837 0.059222735 0.5848909
0.045162737 0.05457953 0.58718646
0.042953368 0.055507414 0.58732063
0.024847301 0.059287459 0.58390319
0.022712201 0.060166039 0.58334178
0.019051228 0.061344221 0.58365339
0.037822284 0.037988111 0.60806423
0.033213906 0.037972033 0.60941237
0.028117161 0.038776692 0.60923117
0.023741856 0.040420275 0.6082772
0.019049104 0.041971523 0.60689175
0.01546046 0.043559447 0.60424519
0.042559419 0.038310453 0.60472775
0.040664513 0.038343329 0.60657859
0.034463279 0.041207798 0.6033324
0.030022968 0.040916335 0.60332185
0.024945157 0.042800251 0.60283363
0.021897057 0.044090379 0.60024089
0.013839717 0.045319483 0.60178953
0.012419545 0.046291668 0.59924012
0.044800818 0.039783686 0.60077435
0.038053371 0.043165781 0.60294265
0.034998499 0.043221422 0.60132813
0.032494016 0.043925419 0.59848976
0.025212646 0.04588734 0.59710187
0.021643458 0.046673827 0.59910256
0.012123923 0.048071906 0.59616679
0.047022454 0.042317018 0.59684962
0.033281803 0.046008714 0.59527367
0.026409151 0.047709875 0.59370983
0.012259833 0.050397508 0.59123892
0.048446544 0.04504608 0.59248132
0.036792938 0.047145449 0.58990431
0.034290493 0.047777157 0.58941287
0.029019235 0.049054325 0.58856571
0.025513593 0.050123598 0.58793193
0.01369606 0.052833758 0.58691144
0.048046477 0.046710312 0.58856857
0.044444919 0.047745198 0.58713472
0.039515525 0.049241062 0.58722562
0.034620598 0.050308824 0.58641726
0.02959216 0.051015377 0.58628923
0.024724837 0.052681986 0.58427864
0.020175837 0.053841263 0.58285201
0.016235281 0.054655574 0.58423239
0.026558392 0.034239121 0.6077702
0.022837328 0.033841878 0.60648972
0.036893848 0.033426091 0.6058538
0.032276884 0.033297978 0.60724175
0.027837366 0.034302533 0.60733896
0.022979837 0.036125861 0.60668552
0.017291121 0.036755968 0.6046949
0.014035353 0.039089911 0.60234952
0.041818231 0.034483742 0.60241377
0.039905995 0.033679336 0.60399789
0.032390662 0.039032616 0.60107708
0.029339336 0.037832759 0.59965914
0.024909262 0.039214432 0.59896213
0.012530711 0.040815488 0.60006154
0.01145479 0.041568018 0.59745777
0.043760076 0.036084771 0.59927583
0.030685721 0.039217364 0.59665114
0.0249529 0.040304724 0.5959363
0.01117238 0.043889794 0.59361917
0.045498524 0.037777487 0.59433967
0.032724049 0.040507853 0.59231889
0.02527687 0.042675957 0.59143871
0.024501847 0.04225035 0.58837587
0.01178503 0.046537321 0.58882624
0.046481829 0.040248871 0.59053761
0.04327241 0.040343005 0.58714408
0.036027886 0.042476751 0.58920151
0.032238793 0.043534443 0.58766735
0.028018422 0.045095868 0.58632392
0.024662465 0.045325037 0.58739299
0.016519073 0.04680204 0.58338857
0.013811663 0.048268259 0.58516121
0.045887012 0.04301203 0.58782911
0.042982899 0.043280728 0.58695149
0.038161714 0.044137716 0.58595955
0.034155622 0.045048375 0.58550376
0.028980752 0.046263054 0.58507419
0.024099994 0.047754906 0.5831809
0.019617226 0.048530143 0.58301878
0.016791444 0.050659057 0.58307248
0.029037639 0.026885886 0.60529393
0.026122689 0.029123701 0.60543424
0.022614872 0.029971875 0.60479182
0.018510943 0.029929522 0.60340363
0.035772532 0.028735127 0.60369015
0.032092612 0.029265366 0.60513139
0.026579075 0.029876832 0.60509306
0.020541582 0.030806676 0.60378975
0.017079707 0.032694802 0.60294276
0.013364142 0.034745965 0.6001125
0.041093435 0.030329306 0.59943968
0.039116461 0.029405531 0.6012311
0.01166818 0.035938334 0.59739685
0.01113325 0.037645653 0.59512568
0.042367138 0.031742968 0.59637684
0.028957447 0.036013875 0.59409779
0.025763078 0.036926799 0.59345287
0.011203738 0.039413165 0.59126371
0.043443047 0.033552051 0.59219569
0.042726118 0.033638559 0.5891158
0.031043632 0.037518866 0.59021336
0.025879215 0.03867859 0.58958596
0.012429762 0.041289724 0.58667141
0.044304173 0.036550436 0.58922666
0.041953657 0.036628194 0.58685225
0.037438877 0.038591884 0.58480304
0.032013033 0.039641239 0.58413756
0.027740687 0.040971149 0.582829
0.022344973 0.041248146 0.58197308
0.017511552 0.042403091 0.58255178
0.014157534 0.043674916 0.58382303
0.03808476 0.039812397 0.58438045
0.033687323 0.040631365 0.58358639
0.027133286 0.04110251 0.58217478
0.023328412 0.043655008 0.58198333
0.020290684 0.044692799 0.58204919
0.033523165 0.022732284 0.60449564
0.030166158 0.023555599 0.6049276
0.025364846 0.024518806 0.60495913
0.020582175 0.025976121 0.60391825
0.016063474 0.027151138 0.60254991
0.013110306 0.028280742 0.60144317
0.03604101 0.024066858 0.6026476
0.032505192 0.024764828 0.60434151
0.020528561 0.028887946 0.60322213
0.015538673 0.029840142 0.60174578
0.011809899 0.030188605 0.59867829
0.040305648 0.025444325 0.59798551
0.039021395 0.025809385 0.59922898
0.01168529 0.033706851 0.59538531
0.010221354 0.032598458 0.59320354
0.041428957 0.027405284 0.59413218
0.011176574 0.035308965 0.58916855
0.04197216 0.029106829 0.5911808
0.041097272 0.029893678 0.58857334
0.014617724 0.036445387 0.58392751
0.012411725 0.036934435 0.5861178
0.039450269 0.031977322 0.58559984
0.036374789 0.033669367 0.58348238
0.032338828 0.035794437 0.58209515
0.026752608 0.037426088 0.58127075
0.02151298 0.037263066 0.58089018
0.017518921 0.037867699 0.58221757
0.031126583 0.034773208 0.58010942
0.027117187 0.036163062 0.57964772
0.023918359 0.036433179 0.57916099
0.029252287 0.020446427 0.60284746
0.024676703 0.020490265 0.60203755
0.020020206 0.02154373 0.60150135
0.016025882 0.023709571 0.60057598
0.035036981 0.02075718 0.59946549
0.030803945 0.019676475 0.60022527
0.026542716 0.019011918 0.60011029
0.018216904 0.021037376 0.59875143
0.01513396 0.02344043 0.59795135
0.012364783 0.025962349 0.5957312
0.0096991807 0.028948605 0.59491581
0.039469264 0.022390239 0.59648931
0.036707282 0.021241661 0.59593779
0.012056561 0.026464663 0.59181952
0.0098737217 0.029665694 0.59155011
0.040577579 0.024674181 0.59250587
0.038274668 0.022543514 0.59112763
0.012897952 0.028715339 0.5865913
0.010870468 0.031167522 0.58821225
0.041141912 0.025665883 0.58986133
0.039132174 0.025591467 0.58703762
0.035292905 0.026233934 0.58427715
0.018842049 0.030217033 0.58149081
0.014498208 0.031143978 0.58275807
0.012070863 0.033719655 0.58487052
0.03875374 0.028211389 0.58398014
0.035266764 0.029575504 0.58205152
0.03067204 0.030483551 0.58091557
0.025592215 0.031688713 0.58009624
0.021147979 0.032959849 0.57955277
0.016809916 0.033408727 0.58015931
0.031887718 0.033150505 0.5795604
0.026836291 0.03445423 0.57881528
0.023361024 0.035236016 0.57854027
0.042359546 0.049704432 0.53441149
0.03872434 0.050848082 0.53400481
0.043017656 0.051499207 0.53155965
0.039526679 0.052432898 0.53125137
0.042783678 0.052767433 0.52880025
0.041045565 0.053389195 0.52853972
0.022871308 0.016579293 0.599186
0.0204648 0.017446091 0.59901685
0.033384942 0.018218212 0.59661418
0.029868864 0.016545804 0.59694922
0.025847521 0.016511228 0.59820241
0.01825301 0.018035103 0.59680945
0.015619589 0.019939093 0.59491771
0.01331324 0.022276122 0.59290636
0.034524694 0.018544191 0.59355849
0.03248626 0.016296789 0.5927127
0.014102314 0.02091698 0.58975428
0.013299572 0.023633437 0.58998573
0.035895377 0.02086626 0.58979076
0.033313662 0.019420134 0.58764327
0.016403943 0.02374018 0.58491856
0.014375964 0.025977254 0.58627778
0.036375653 0.023091387 0.58695376
0.033217408 0.022831082 0.58415163
0.028558888 0.023189433 0.5807606
0.024094135 0.024283387 0.57995045
0.019125007 0.026226729 0.58191174
0.016113952 0.028352611 0.583233
0.032607377 0.025849126 0.5819509
0.02944909 0.026088491 0.58064729
0.025063908 0.026872575 0.5799126
0.021419942 0.02875426 0.58021957
0.046570972 0.027861632 0.5647518
0.045528751 0.02784729 0.56469792
0.017086817 0.034856677 0.56002766
0.016084801 0.035332523 0.55992568
0.047349546 0.029070593 0.56282431
0.044637162 0.030064262 0.56169993
0.022931766 0.03594213 0.55638725
0.019537112 0.036248408 0.55768788
0.016605791 0.036708493 0.55777711
0.047515251 0.030556425 0.55928135
0.044917949 0.032271307 0.55772251
0.042055253 0.033216678 0.55662197
0.024728473 0.037529096 0.55380976
0.02153963 0.038091213 0.55387115
0.018124539 0.037805986 0.5546093
0.045004211 0.03406281 0.55381101
0.041749276 0.03564088 0.55239105
0.039574035 0.03665635 0.55022806
0.03016055 0.038447581 0.54890275
0.027304156 0.039287545 0.55004495
0.023505472 0.039540473 0.55028242
0.041083679 0.037630036 0.54851609
0.038982645 0.039164677 0.54732049
0.032765761 0.040630601 0.546215
0.029372599 0.040435471 0.54685336
0.041975163 0.039984923 0.54280967
0.039175518 0.041365389 0.54325384
0.03454328 0.042106669 0.54265088
0.031816192 0.042327959 0.54146004
0.042363189 0.040820751 0.54060465
0.040920615 0.043822043 0.53897232
0.036109362 0.04488242 0.53781509
0.032672152 0.043589193 0.53896779
0.041508824 0.046735272 0.53461778
0.037837166 0.047486082 0.53401339
0.042697862 0.050064571 0.5316022
0.039453436 0.051024824 0.53101254
0.042966943 0.051834144 0.52843308
0.040791806 0.052564807 0.52820349
0.022259623 0.012091763 0.59654129
0.019999497 0.012797587 0.59635764
0.028652964 0.012724299 0.5937109
0.02485841 0.012477804 0.59539443
0.018001534 0.014043093 0.59403229
0.015753478 0.016085599 0.59195602
0.033380821 0.012490651 0.58871228
0.031386305 0.01326908 0.59093076
0.014360123 0.017745692 0.58830607
0.013258478 0.01763666 0.58547914
0.034660101 0.014202233 0.58590961
0.032810278 0.016868571 0.58636445
0.016119428 0.020947171 0.58362275
0.013634423 0.019432597 0.58246082
0.034661628 0.015549244 0.58341104
0.032134078 0.017995134 0.58183849
0.02982671 0.020913633 0.58027577
0.022057604 0.022954376 0.57904547
0.018641105 0.021417586 0.5795399
0.014892014 0.02036389 0.58021784
0.031840026 0.01810476 0.57809931
0.028609861 0.020765789 0.57767051
0.023925025 0.022078417 0.57708848
0.020167479 0.021073505 0.57612729
0.046945974 0.024200093 0.56485623
0.044200834 0.02602239 0.56394434
0.017568581 0.032511353 0.55962586
0.014040923 0.03235516 0.55956674
0.048953306 0.02639401 0.56139141
0.04257578 0.027526371 0.56151247
0.040178619 0.0283086 0.55885148
0.023208536 0.032470107 0.55629152
0.020064641 0.033084266 0.55809861
0.014396031 0.034871794 0.55587828
0.048513621 0.028083548 0.55664307
0.047193259 0.031056874 0.55562162
0.039448798 0.030882753 0.55562198
0.026412249 0.034096308 0.55341262
0.01949751 0.03781119 0.55127519
0.016891249 0.035857402 0.55149949
0.047705963 0.028453235 0.55334252
0.046128716 0.031153366 0.55159789
0.039596774 0.033489976 0.55234617
0.038297735 0.033876486 0.54988736
0.030137233 0.035753213 0.54879618
0.028359767 0.036655612 0.55082095
0.021634251 0.037377149 0.54782557
0.018666944 0.035814784 0.54886556
0.044477545 0.032198697 0.54855072
0.04238189 0.03488135 0.54644501
0.036743119 0.036241561 0.54567057
0.03369917 0.03699623 0.54545325
0.027866647 0.038615301 0.54395336
0.024557345 0.037625689 0.54538268
0.042290062 0.037102595 0.541843
0.036328919 0.037758544 0.54144013
0.036135428 0.03795027 0.54097003
0.030327884 0.040123217 0.53997958
0.043369152 0.038744383 0.5374375
0.039429795 0.040709108 0.5367257
0.036460992 0.041297518 0.53601038
0.031730857 0.041704923 0.53570449
0.044329584 0.040443476 0.53305298
0.041072965 0.043160737 0.53287268
0.037513196 0.043316424 0.53203458
0.033261281 0.043611765 0.53114599
0.044326454 0.04165107 0.53000152
0.042283989 0.044011682 0.52785403
0.038023863 0.045461994 0.52726591
0.034315974 0.044700831 0.5281353
0.043097995 0.046028793 0.52369398
0.039519738 0.047487542 0.52337587
0.043999571 0.04759828 0.52013075
0.04038813 0.049152769 0.51978439
0.021602042 0.0075500757 0.59442449
0.01889367 0.0084097944 0.59399557
0.031384207 0.00634949 0.59082752
0.027704719 0.0080003291 0.59185231
0.024648014 0.0084843133 0.59324455
0.01729496 0.010283001 0.59217441
0.014610341 0.011298893 0.58965218
0.011280485 0.011681167 0.5875479
0.033172499 0.0084730629 0.58868009
0.030564431 0.010148121 0.59085679
0.013779424 0.014282085 0.5882563
0.011441166 0.013878403 0.58523113
0.034981199 0.011230845 0.58447242
0.033975232 0.014270451 0.58316952
0.014840555 0.018836435 0.58020097
0.012234244 0.016642174 0.58078027
0.035142023 0.012269286 0.58020741
0.033768956 0.014845897 0.57928401
0.016603868 0.019141117 0.57643062
0.013994236 0.017462347 0.576837
0.032771751 0.015221497 0.57563305
0.028811038 0.017727971 0.57392693
0.02366101 0.019110877 0.57317787
0.018533155 0.018879941 0.57352686
0.028697181 0.016282607 0.5709973
0.024395144 0.017634107 0.57060403
0.04840447 0.015592517 0.56553781
0.045952573 0.016807713 0.56617558
0.014505977 0.024287034 0.56000173
0.01152503 0.025380928 0.56044185
0.0090482328 0.025329508 0.55919749
0.049612202 0.017372787 0.5631544
0.047146864 0.019522602 0.56451631
0.04231929 0.020764418 0.56199878
0.017061725 0.026743621 0.55819017
0.011942241 0.028244942 0.55870789
0.0093389815 0.02734641 0.55671269
0.04998393 0.01974762 0.56075853
0.048062705 0.021949347 0.55853122
0.042516939 0.022771338 0.55773902
0.040331472 0.025283922 0.55698937
0.022589833 0.029621176 0.55407977
0.019106084 0.028473988 0.55395216
0.013800291 0.030507758 0.55308253
0.010631131 0.029271007 0.55439478
0.048338003 0.024887577 0.55496675
0.043913409 0.023896314 0.55395812
0.039805815 0.026755083 0.55327106
0.025067538 0.030574955 0.55052847
0.019675128 0.029923946 0.54997438
0.016074684 0.032906547 0.54978001
0.047569316 0.026730549 0.55262172
0.045109175 0.027590521 0.55013192
0.040785193 0.028422855 0.54881048
0.038217224 0.03137932 0.54768401
0.029374499 0.033177406 0.54692477
0.026102958 0.032063898 0.5465042
0.021453403 0.033495292 0.54629666
0.018241463 0.034347683 0.54808998
0.040890377 0.031637616 0.54504281
0.037872721 0.032215506 0.54334879
0.031853989 0.033796906 0.5425241
0.028659541 0.034876227 0.54253656
0.024628039 0.035449091 0.54436564
0.041487113 0.032697588 0.53969735
0.036216252 0.033883289 0.53986239
0.034936093 0.034266807 0.53960454
0.029404612 0.035509367 0.53763002
0.042691801 0.034815155 0.53528953
0.037799843 0.036332037 0.53406882
0.036161236 0.036631703 0.53402627
0.030566778 0.03770918 0.53336263
0.043106075 0.036545277 0.53201646
0.041664984 0.03785228 0.53030115
0.037580196 0.038081266 0.52975434
0.032309383 0.039727509 0.5294289
0.041199781 0.0393852 0.52709198
0.036365487 0.040532619 0.52599245
0.033555057 0.039344043 0.52576846
0.021540601 0.0031149965 0.59224665
0.017715249 0.0039829109 0.59177011
0.030667782 0.0032797903 0.58931261
0.027664274 0.0030272063 0.59055084
0.024346182 0.0037372625 0.59199572
0.015545143 0.0057337312 0.59060007
0.012890277 0.0066854395 0.58807379
0.010874879 0.008341956 0.585962
0.03274731 0.0041338392 0.58693606
0.011830151 0.010144409 0.58633977
0.010331137 0.0098157693 0.58333641
0.035722952 0.0060530389 0.58269399
0.009876213 0.012039684 0.57869947
0.038291421 0.0056981323 0.57774723
0.036750883 0.0087008737 0.57770783
0.011593361 0.01483617 0.57373977
0.0092793014 0.013234057 0.5724144
0.035794556 0.0095893145 0.57342327
0.033679545 0.012826707 0.57264614
0.0175253 0.016869912 0.57028151
0.014277783 0.015045289 0.57010049
0.046512786 0.0096374881 0.56787455
0.044200368 0.010861337 0.56827325
0.035329118 0.010008797 0.56989521
0.033543825 0.012707099 0.56847304
0.028440706 0.014832532 0.56739688
0.02416512 0.01604761 0.56682152
0.019016435 0.01638085 0.56613845
0.014385026 0.016439889 0.5644235
0.0098321196 0.019162662 0.56242907
0.0074588023 0.019210409 0.56109715
0.048743375 0.012435474 0.56584918
0.04476703 0.013961094 0.56693172
0.040710147 0.013686247 0.56413591
0.03205739 0.012973912 0.56482762
0.021169348 0.015638169 0.56283033
0.015027619 0.020191306 0.56000239
0.010336882 0.02214672 0.5614624
0.0072933557 0.022692412 0.55907446
0.049714796 0.014423825 0.56254059
0.047091275 0.014716975 0.55926657
0.040282913 0.016833819 0.56053275
0.017673913 0.022211619 0.55700004
0.011191617 0.023478176 0.55356038
0.0081513198 0.02481968 0.55589271
0.049485914 0.017423917 0.55999815
0.045989122 0.01766743 0.55754143
0.042358644 0.018368041 0.55699193
0.017439185 0.024434917 0.55285746
0.014145276 0.025998175 0.55237681
0.010307843 0.02729173 0.55370933
0.040722281 0.029175229 0.53691405
0.03714671 0.028777651 0.53726703
0.03284923 0.029975891 0.53631997
0.029380511 0.032076783 0.53503668
0.04069145 0.029858347 0.53470355
0.039387174 0.031443253 0.53185004
0.034967907 0.032610949 0.53050941
0.030748691 0.033249095 0.53144652
0.042519249 0.034239464 0.52980268
0.039826363 0.032799575 0.52821338
0.035056796 0.034333326 0.52781737
0.032047872 0.036249131 0.52746975
0.040984303 0.035364956 0.52370608
0.036357079 0.037168652 0.52277452
0.033495396 0.038143747 0.52345496
0.041687649 0.036699843 0.51909202
0.037434191 0.038495686 0.51839209
0.042679079 0.038062848 0.5148592
0.038447466 0.039520845 0.51413512
0.02073071 -0.001046712 0.5905143
0.016581615 -8.9861453e-05 0.59001142
0.030003786 -8.3813444e-05 0.58692348
0.027079351 -0.0011134995 0.5880146
0.023133773 -0.0011441526 0.58910793
0.015043849 0.00054338016 0.58776903
0.012349534 0.0024641361 0.5855599
0.010555848 0.003656771 0.5830912
0.036272384 -0.0014217845 0.58295429
0.03234899 -0.00032934733 0.5845179
0.010481392 0.0019859318 0.58221632
0.0093510505 0.0054375995 0.58082759
0.0059589092 0.0060276249 0.5779739
0.038326543 0.00011460297 0.58044028
0.035798401 0.0024067499 0.58204281
0.0084531605 0.0093292296 0.57741928
0.005707236 0.0081159184 0.57527632
0.039188273 0.002901623 0.57641649
0.0074220393 0.01072026 0.57145602
0.045061827 0.0028885137 0.56985247
0.040191077 0.0037940731 0.57066345
0.036761872 0.0058611389 0.57085901
0.012265947 0.011858411 0.56685585
0.0084521156 0.011524595 0.56572866
0.0046628434 0.012725297 0.56348068
0.047037013 0.0054158894 0.56784904
0.04226996 0.0074357148 0.56883526
0.037379771 0.0074563399 0.56677932
0.035059437 0.010144971 0.56682718
0.026935691 0.012203097 0.56350559
0.025815183 0.011981286 0.56321681
0.016810503 0.014468342 0.56373751
0.01379609 0.013466451 0.56300473
0.008654261 0.015498832 0.56333154
0.0047216695 0.015850896 0.56107461
0.048024818 0.0078042392 0.56412518
0.03913527 0.009593809 0.56260943
0.033686385 0.010195322 0.56286794
0.028936565 0.011021916 0.56239945
0.023740739 0.012493605 0.56152618
0.018968029 0.014267191 0.5606001
0.014898269 0.01570034 0.55873871
0.0061232802 0.018346447 0.55751628
0.04751572 0.0093653649 0.56081939
0.044884291 0.010747164 0.55883557
0.040726259 0.012073459 0.55817747
0.015698507 0.018014587 0.55411774
0.011338297 0.019291371 0.55352372
0.0079487031 0.019173553 0.55469799
0.044211008 0.01444478 0.55715024
0.042356566 0.014520172 0.55661869
0.031073362 0.01576863 0.54942226
0.028763272 0.016482506 0.54898077
0.015889293 0.020832565 0.55233735
0.014066902 0.02190242 0.55226839
0.033639632 0.018082667 0.54653108
0.029088527 0.019176774 0.54572517
0.033570491 0.019120453 0.54419702
0.029819014 0.01980144 0.54371876
0.040092345 0.026778098 0.53436196
0.037559144 0.025651019 0.53358603
0.032299243 0.027355678 0.53283614
0.03014341 0.02899266 0.53247291
0.04013928 0.026814297 0.53316092
0.037639067 0.026718937 0.5299499
0.033298466 0.027763054 0.52910399
0.03051817 0.029758137 0.53055787
0.036913667 0.026786305 0.52641547
0.033694305 0.028095901 0.52616191
0.041913636 0.034971125 0.51715738
0.037270717 0.037363589 0.51515245
0.042409364 0.036029167 0.51370102
0.038286265 0.037956525 0.51313311
0.019310679 -0.0038741054 0.58850491
0.016935673 -0.0033661393 0.58813083
0.026067335 -0.0042966669 0.58527273
0.021482278 -0.0045897691 0.58541524
0.016137416 -0.0035891356 0.58469152
0.012451112 -0.00091616716 0.58293378
0.035544384 -0.0030319472 0.5818913
0.03227029 -0.0044699186 0.58201641
0.0279052 -0.0051942826 0.58268636
0.011163868 -0.00085160974 0.57988256
0.0082591595 0.0015621614 0.57811397
0.0061841896 0.004303704 0.57749486
0.037333399 -0.0031258296 0.57812959
0.034689099 -0.0047211815 0.57837152
0.0071484214 0.0022482444 0.57397467
0.0057434794 0.0048303287 0.57306004
0.041962054 -0.0037281238 0.57213402
0.040368445 -0.0027251365 0.57469618
0.004418375 0.0063544661 0.56886899
0.0034311358 0.0062030125 0.56587476
0.044769309 -0.00084709283 0.56945199
0.041256029 0.00079460442 0.57105184
0.036528088 0.0043524113 0.56823719
0.012905944 0.010253351 0.56432831
0.006437392 0.0095299501 0.56560206
0.0031572618 0.0094086379 0.56305224
0.047499966 0.00097992085 0.56626529
0.036602423 0.0047315862 0.56547445
0.025031988 0.0068365997 0.56006497
0.013753913 0.01039581 0.56161356
0.0025329534 0.01221703 0.55919504
0.047915101 0.0030980352 0.56186044
0.037377086 0.0065180836 0.56018043
0.033327851 0.0062138755 0.55988467
0.02814216 0.0075114463 0.55962139
0.023653127 0.0087104887 0.55875939
0.018789137 0.0099004097 0.55725759
0.015444813 0.011866635 0.5568977
0.0045226142 0.0141227 0.55476552
0.047037981 0.0051966282 0.55883229
0.044259727 0.006060645 0.55742848
0.040381677 0.0071067661 0.55752212
0.029469494 0.0093390904 0.55155474
0.026394833 0.010218926 0.55121303
0.013906255 0.013811771 0.55328012
0.01021324 0.014484568 0.55200255
0.0070647448 0.015038552 0.55243492
0.03431363 0.01132296 0.54885507
0.031078361 0.01160311 0.55036843
0.026227118 0.013093026 0.54924667
0.023868956 0.013045702 0.54641497
0.035915814 0.013194568 0.54616803
0.034694057 0.015418056 0.54644597
0.026358638 0.016897941 0.5451957
0.023898462 0.015266106 0.54364341
0.038317796 0.014452515 0.54118234
0.034301247 0.017010748 0.54091716
0.02893775 0.018246954 0.54015756
0.024334837 0.017970875 0.53917819
0.037209608 0.014613593 0.53836393
0.03346283 0.016890489 0.53746074
0.029576954 0.01751481 0.53698826
0.026062388 0.018038709 0.53689492
0.036859334 0.023795635 0.52738774
0.033018991 0.024671797 0.52674508
0.037502557 0.024328783 0.52345204
0.034022316 0.025573764 0.522874
0.037494581 0.024829037 0.52005136
0.034355666 0.025907591 0.51938838
0.020113999 -0.0068186242 0.58156532
0.017026439 -0.0064135147 0.5812816
0.030723687 -0.0076292953 0.57893956
0.026877806 -0.0078624655 0.5789966
0.021848407 -0.007979474 0.57935894
0.015533349 -0.0067720315 0.57830292
0.012150984 -0.0042066248 0.57665068
0.0090945158 -0.0022236966 0.57540184
0.036236119 -0.0057390155 0.57499719
0.03301806 -0.0073626824 0.57574517
0.028498411 -0.0089674611 0.57578772
0.011227329 -0.0045966613 0.57291716
0.0082282973 -0.0012306329 0.57165152
0.0064719291 0.0017310185 0.5702554
0.041960876 -0.0050901892 0.57130742
0.038783401 -0.0063003656 0.572357
0.034785863 -0.0078483224 0.57277435
0.007100841 -0.00067637395 0.56819308
0.0048036631 0.0021452093 0.56694454
0.0028118342 0.0045386553 0.56484896
0.043341622 -0.0041350815 0.56851494
0.040519428 -0.0054716542 0.56675273
0.0052901655 0.0032566311 0.56099308
0.0028618108 0.0058746338 0.56216043
0.045298625 -0.0029754397 0.56361485
0.040669776 -0.0046164566 0.56355858
0.036142759 -0.0017440785 0.55976123
0.030923035 0.00015710434 0.56030661
0.029249396 0.0011523496 0.55910957
0.019965012 0.0036818227 0.55728036
0.017797746 0.0034216866 0.55782694
0.012348283 0.0040868651 0.55579424
0.0062274393 0.0040580789 0.55781007
0.0033225007 0.0074148336 0.55677742
0.045875609 -0.00080407364 0.55973971
0.04233928 -0.00090772426 0.55731726
0.037409216 0.00081732124 0.55762482
0.032762766 0.0031206999 0.55918604
0.028644461 0.0039642062 0.55679882
0.022597406 0.0056013986 0.55538851
0.018124901 0.0064748423 0.5567553
0.013352995 0.0067870663 0.55364293
0.0085436422 0.0075388672 0.55194736
0.0048440443 0.0092243105 0.55322218
0.045905255 0.0026383633 0.55791551
0.043085374 0.0023273155 0.55671674
0.040057477 0.0033062492 0.55630648
0.032188147 0.004052246 0.55032265
0.029165719 0.005608798 0.55205715
0.02427255 0.0067177918 0.5513863
0.02184386 0.006737873 0.54866099
0.012899559 0.01011619 0.55206293
0.0095315743 0.010638095 0.55137682
0.034203768 0.00651515 0.54801118
0.031677809 0.0074419025 0.54998052
0.024097482 0.009413071 0.54854429
0.02205411 0.0094645582 0.54586142
0.037206311 0.0083865784 0.54417706
0.022059387 0.012265339 0.5416708
0.04003451 0.010888206 0.54098779
0.039171144 0.010544965 0.54037809
0.023030434 0.014827335 0.53748542
0.037472695 0.012206635 0.53634709
0.034240417 0.014185293 0.53385389
0.029234264 0.01515865 0.53327811
0.025673529 0.015481833 0.53486574
0.036875032 0.022090238 0.521074
0.034172252 0.0229789 0.5203557
0.037378207 0.022447117 0.5188958
0.034160495 0.023636671 0.51818466
0.024904273 -0.0087339198 0.57564712
0.020395996 -0.0089459792 0.57679808
0.017112518 -0.0083153984 0.57647187
0.014443798 -0.0063494653 0.57442707
0.031539075 -0.0090587344 0.57303816
0.027452931 -0.0091919797 0.57288593
0.021890944 -0.0091014858 0.57174134
0.017397771 -0.008174412 0.57083058
0.012717208 -0.0054260339 0.57052571
0.0095833875 -0.0036386664 0.56920302
0.03709786 -0.0085496726 0.56894708
0.033367377 -0.0089279972 0.5691421
0.028314691 -0.0088940738 0.56774133
0.023148045 -0.0084928079 0.56679708
0.018502938 -0.007471649 0.56594092
0.013697032 -0.0051290272 0.5654074
0.0092302188 -0.0029027369 0.56518871
0.0060328534 -0.00079382397 0.5638634
0.03786438 -0.0073992712 0.56624925
0.034070298 -0.0077769272 0.56446576
0.03022432 -0.0082790991 0.56336987
0.021912655 -0.0071771201 0.56279564
0.020647289 -0.0073400508 0.56357712
0.013964841 -0.0043550092 0.56087315
0.01015905 -0.0017702812 0.56062353
0.0065772701 0.00047142385 0.56111979
0.043748897 -0.0042459215 0.56069487
0.040347815 -0.004399023 0.56151462
0.035791844 -0.004496404 0.56062746
0.030656278 -0.003791465 0.55878526
0.028087325 -0.0048971092 0.55660361
0.019453906 -0.0026399484 0.55503011
0.016334059 -0.00047871377 0.55640984
0.011614637 0.0015017753 0.55654985
0.0078178188 0.0035645636 0.55636156
0.0050775651 0.0054623447 0.55437678
0.044115447 -0.0035682735 0.55959648
0.042178281 -0.0031577293 0.55856413
0.029484734 -0.0019467217 0.55613083
0.028832139 -0.0017674998 0.55388045
0.020904526 -0.00026494078 0.55257511
0.019152611 0.00057588518 0.55433971
0.0071031749 0.0056473846 0.55309421
0.031358719 0.00024430361 0.54975212
0.030199273 0.00043833768 0.55152583
0.021475403 0.0035920655 0.54993498
0.020561356 0.0027240645 0.54807591
0.035319548 0.0021699211 0.54551357
0.019850675 0.0062653637 0.54321373
0.03639178 0.0029821508 0.54233998
0.020283164 0.0073149782 0.53986585
0.037145138 0.0059512164 0.53760171
0.022738699 0.0097598974 0.53520805
0.037264533 0.0082959905 0.53334314
0.034620535 0.010109806 0.53061271
0.027964525 0.011657087 0.52973986
0.024599589 0.011216342 0.53125834
0.032720573 0.010295019 0.52951974
0.030324578 0.011121824 0.52925658
0.023715194 -0.0085076587 0.56440729
0.01867846 -0.0071907765 0.56354409
0.027926086 -0.0081722662 0.56225663
0.024671566 -0.0075605726 0.56180483
0.019159656 -0.0061664218 0.56089056
0.016005607 -0.0050410409 0.56006181
0.028444014 -0.006901992 0.5596022
0.025128551 -0.0053139138 0.55737519
0.021123117 -0.0043375124 0.55678457
0.016995342 -0.0040188176 0.55770844
0.026466325 -0.0035861507 0.55258101
0.02243623 -0.0025539938 0.55162287
0.030954905 -0.0030760514 0.54759115
0.02788154 -0.0040852963 0.54850388
0.022013152 -0.002467915 0.54781771
0.020095844 -0.00031038979 0.54574507
0.036538374 -0.0032228706 0.54160893
0.034721505 -0.001883266 0.54336619
0.018958136 0.0021428503 0.54109502
0.01728341 0.002689844 0.53913873
0.036737196 -0.0023221215 0.54153138
0.035690814 -0.00042831292 0.54030532
0.019552549 0.0037783077 0.53771275
0.01738961 0.0031051468 0.53862834
0.035776433 0.0018896209 0.53508449
0.022242786 0.00543686 0.53308606
0.036171287 0.0040100068 0.53116691
0.033146087 0.0057174182 0.52848876
0.027912803 0.0069250893 0.52771425
0.024040509 0.0067952387 0.52928263
0.032778859 0.0083582401 0.52874899
0.030411728 0.0088590197 0.52831435
0.026949726 -0.0057606651 0.54453051
0.023060732 -0.0047004391 0.54392302
0.031884342 -0.0054528778 0.54101187
0.028104119 -0.0066994959 0.54085761
0.0226174 -0.0052418988 0.54013008
0.020131759 -0.0024995636 0.53924555
0.033633314 -0.0044784285 0.53727144
0.021785287 -0.0049564764 0.53651428
0.020064397 -0.00098802336 0.53502226
0.03414223 -0.0021570884 0.53303599
0.032659218 -0.0026412569 0.5300532
0.024072271 -0.00021488871 0.52844185
0.022035414 0.00092349853 0.53095293
0.034511391 0.00055777375 0.53020239
0.031845421 0.00055009685 0.52806747
0.027082423 0.0017891498 0.5272308
0.023833955 0.0029534362 0.52863556
0.026825897 -0.0071789129 0.53771192
0.02447742 -0.0065888092 0.53772014
0.031650007 -0.0065576043 0.53579289
0.028071973 -0.0075266035 0.53289706
0.024768936 -0.006859066 0.53224915
0.021551318 -0.0039796801 0.53308707
0.032365177 -0.0054918192 0.53303069
0.028860774 -0.0061533954 0.5295068
0.025504537 -0.0051947795 0.52858865
0.022303954 -0.0027311184 0.53069854
0.029635873 -0.0023552496 0.52798969
0.026977509 -0.0019462658 0.52764785
0.01837421 -0.018533275 0.54228783
0.016824737 -0.018461883 0.54216838
0.019217368 -0.017938547 0.54067093
0.026650742 -0.0098596849 0.53014195
0.025491152 -0.0098691639 0.52983302
0.027725022 -0.0095514152 0.52786517
0.025278505 -0.0087957159 0.52734047
0.027758971 -0.0075053573 0.52536052
0.026854223 -0.0073606726 0.52527243
0.016473679 -0.021907626 0.54526216
0.015253318 -0.02175834 0.54508549
0.018393837 -0.021054693 0.54209268
0.015878262 -0.020049034 0.54223621
0.022997819 -0.020598494 0.53714943
0.019896753 -0.019306015 0.5379312
0.016901273 -0.019122008 0.53904843
0.024272356 -0.020379322 0.53374195
0.021221763 -0.019488057 0.53413063
0.026294528 -0.016839018 0.52862287
0.02438169 -0.015890235 0.52778631
0.027469108 -0.014379026 0.52549344
0.024911584 -0.013594776 0.52527273
0.022861363 -0.023064235 0.53522146
0.020198058 -0.022677233 0.53558397
0.024560247 -0.0226987 0.53168601
0.021387883 -0.021827804 0.53151232
0.025886856 -0.021086404 0.52714747
0.023565631 -0.01946719 0.5275588
0.026245391 -0.018352212 0.52462429
0.024708541 -0.017578339 0.52501059
