# .PCD v0.7 - Point Cloud Data file format
VERSION 0.7
FIELDS x y z
SIZE 4 4 4
TYPE F F F
COUNT 1 1 1
WIDTH 1159
HEIGHT 1
VIEWPOINT 0 0 0 1 0 0 0
POINTS 1159
DATA ascii
0.062662072 0.023390574 0.4831
0.067514218 0.024016723 0.48222223
0.072355583 0.024034133 0.48285717
0.063208021 0.027017474 0.48290479
0.067550629 0.027576687 0.48069993
0.072641261 0.027441183 0.48225001
0.075684644 0.025510386 0.484
0.064856485 0.030473426 0.484
0.067582875 0.032547858 0.4829376
0.071501218 0.032365482 0.48370597
0.068465866 0.035887655 0.484
0.070270568 0.035887655 0.484
0.059539236 0.019827627 0.4885
0.062741235 0.019831685 0.48860002
0.067711979 0.019820862 0.48833331
0.072449028 0.019317763 0.4881818
0.077754535 0.019076515 0.48793328
0.081320353 0.019043807 0.48842859
0.058505829 0.022388138 0.4868947
0.062419843 0.021089176 0.48610002
0.067649931 0.021434771 0.48625001
0.072514594 0.021642139 0.48581254
0.077576093 0.022362929 0.48635715
0.081781261 0.022539647 0.48806664
0.059123054 0.025784077 0.48633334
0.061147161 0.028326645 0.4868125
0.074936807 0.029180037 0.48500001
0.077549674 0.027130947 0.48634997
0.081273519 0.025604717 0.48866665
0.06285876 0.032315187 0.48672
0.065124482 0.033770699 0.486
0.073732071 0.03289333 0.48566669
0.075875133 0.032348212 0.48627272
0.063268907 0.037268348 0.48800001
0.067255892 0.038000207 0.48667857
0.072571211 0.037571236 0.48708001
0.075705506 0.035993863 0.4885
0.064310931 0.041120753 0.48899999
0.067626938 0.041981012 0.48857895
0.070668414 0.041866589 0.48883334
0.066656992 0.014524775 0.49399999
0.084616303 0.014524775 0.49399999
0.08599779 0.014524775 0.49399999
0.053209949 0.018078344 0.4927727
0.057404913 0.017959349 0.49127999
0.062481549 0.017321412 0.49214813
0.067492574 0.017122468 0.49217859
0.072556771 0.01684002 0.49252388
0.077364154 0.016976248 0.49264288
0.08296977 0.017166505 0.49199998
0.087075301 0.017450238 0.49285182
0.090142243 0.017287819 0.49400002
0.053175714 0.022158975 0.49245453
0.056105759 0.022950336 0.49033332
0.083965406 0.022639163 0.49019998
0.086863838 0.022059157 0.49280953
0.090142243 0.020050863 0.49399999
0.054223619 0.025576953 0.49399999
0.05708047 0.027571121 0.49200001
0.079444468 0.028596919 0.4905
0.082657047 0.027656958 0.49165002
0.085637681 0.026228417 0.49324998
0.058036882 0.032254655 0.49283338
0.060440302 0.033069838 0.49000001
0.079018146 0.032655288 0.49240005
0.081826732 0.031744752 0.49346668
0.059342086 0.036721468 0.49316669
0.061143994 0.037735019 0.49041668
0.074795827 0.039529994 0.49000001
0.077838145 0.037578318 0.4922353
0.080241598 0.037089638 0.49399999
0.063455127 0.042718403 0.49214289
0.066738002 0.044246074 0.49037501
0.072679386 0.04315209 0.49077776
0.07624387 0.041858494 0.493
0.064354509 0.046760295 0.49399999
0.067347869 0.047522619 0.49233332
0.071401983 0.046856761 0.49236366
0.066349991 0.050751362 0.49399999
0.04826026 0.0090897651 0.49900001
0.052911818 0.0090897651 0.49900001
0.044539008 0.014671787 0.49900001
0.047613744 0.012656431 0.49837035
0.052198295 0.012427873 0.49775007
0.05761658 0.013312527 0.49727267
0.062586583 0.01312553 0.49659091
0.067391329 0.013123468 0.49641177
0.072356045 0.013714608 0.49611765
0.077744618 0.013004253 0.49717396
0.082331091 0.013126533 0.4966363
0.087707765 0.013455542 0.49585709
0.092489988 0.013466482 0.49700001
0.096507996 0.013723092 0.49833333
0.048288692 0.017294766 0.49765214
0.051667359 0.016502477 0.49499995
0.057563379 0.015477057 0.49499997
0.077404752 0.015477057 0.49499997
0.081096172 0.015477057 0.495
0.092717238 0.017338468 0.49544996
0.096051902 0.016915457 0.4981111
0.049662773 0.020856973 0.49675
0.051146299 0.023260273 0.49691668
0.088926129 0.023796963 0.49528575
0.092158176 0.022472395 0.49658334
0.052981608 0.027473792 0.4975
0.087955676 0.027651388 0.49642107
0.091551937 0.027118357 0.49833333
0.05403845 0.032312114 0.49724999
0.055790234 0.033114698 0.49527267
0.083757237 0.033153534 0.49514276
0.086860932 0.031770922 0.4966923
0.05418016 0.036449444 0.49783334
0.057452638 0.037743229 0.49652377
0.06079337 0.039471921 0.495
0.082423992 0.037657157 0.49611759
0.085937902 0.035604365 0.49900001
0.058980048 0.041881509 0.49839997
0.061193906 0.042781305 0.49626669
0.078327604 0.04285581 0.49499992
0.081035547 0.041133393 0.49650002
0.059424002 0.045372907 0.49900001
0.062179275 0.04755814 0.49668962
0.073740914 0.048411403 0.49607143
0.077162474 0.047324024 0.49700004
0.063357882 0.052461583 0.49739999
0.067510903 0.052889392 0.49510518
0.072054937 0.05230407 0.49682614
0.075836793 0.051764265 0.49783334
0.064555585 0.0562829 0.49840003
0.06756448 0.057266612 0.49755996
0.071187012 0.057151757 0.49845457
0.049289148 0.00864188 0.5
0.0511535 0.00864188 0.5
0.0590798 0.0091808448 0.50400001
0.062368523 0.0091808448 0.50400001
0.067937925 0.0091717364 0.50349998
0.071622476 0.009162629 0.50300002
0.083980098 0.0091808448 0.50400001
0.087494977 0.0085452972 0.50350004
0.092157252 0.0089045633 0.50357139
0.09826041 0.0085890042 0.50374997
0.10192998 0.008372454 0.50323087
0.05457148 0.010350917 0.5
0.057862192 0.010538412 0.50159997
0.062502265 0.010532386 0.50129998
0.067769259 0.01063238 0.5009231
0.07266181 0.010981878 0.50046664
0.077175334 0.010638589 0.50189996
0.082997903 0.010538913 0.501625
0.087595776 0.01094494 0.50150001
0.092737325 0.010939094 0.50140005
0.098080359 0.011841969 0.50163162
0.10272094 0.012309136 0.50269705
0.10592121 0.013861403 0.50333333
0.044517532 0.017516844 0.50049996
0.045839794 0.017902838 0.50014287
0.098302133 0.017975813 0.50145453
0.10178061 0.017090078 0.50322223
0.10512187 0.016228287 0.50400001
0.044896036 0.021824252 0.50300002
0.047570076 0.022416087 0.50156003
0.050221324 0.024955403 0.5
0.094965801 0.022624899 0.5
0.097665817 0.022011265 0.50288242
0.048408873 0.027404094 0.50216669
0.05075036 0.028276481 0.5001111
0.093549818 0.028822452 0.50240004
0.096155785 0.026622444 0.50330001
0.049373012 0.032243155 0.50357139
0.051712427 0.032618381 0.50163162
0.088557079 0.033461738 0.5
0.091344103 0.03186252 0.50160003
0.052854303 0.037142143 0.50260001
0.056125108 0.03955989 0.5
0.084457599 0.03958647 0.50033331
0.087783195 0.037310503 0.50184214
0.090087734 0.038310274 0.50400001
0.054354653 0.041579142 0.50375003
0.056526478 0.042876437 0.50145459
0.082881376 0.043286983 0.50099999
0.086718209 0.041591387 0.50318754
0.090087727 0.04018959 0.50400001
0.057957023 0.047263343 0.50166667
0.060475267 0.049192637 0.5
0.079435274 0.049389407 0.50199997
0.081753999 0.04730593 0.50250006
0.059593707 0.051449575 0.50199997
0.061046671 0.052838992 0.50010002
0.074147187 0.054475114 0.5
0.078121059 0.052763011 0.50181252
0.08100234 0.051675886 0.50342858
0.062535189 0.057716988 0.50227278
0.065602235 0.059446853 0.5
0.073716268 0.057931878 0.50128567
0.07742808 0.057007216 0.50314295
0.063498393 0.06234755 0.50318754
0.067428544 0.062265612 0.50096434
0.072381578 0.062434074 0.50217396
0.075523391 0.061801746 0.50400001
0.064717606 0.065560386 0.50400001
0.067555517 0.067013301 0.50314289
0.071566664 0.066779263 0.50326669
0.062476486 0.0040498613 0.50870001
0.065359645 0.0045270198 0.509
0.097624138 0.0043372237 0.509
0.054220088 0.0080852108 0.50599998
0.05757479 0.0075666062 0.50604993
0.062385343 0.0069363904 0.50685704
0.067354016 0.0070048789 0.50745451
0.072636589 0.0073092231 0.50827765
0.077500291 0.0076663014 0.50665212
0.082196996 0.0076563186 0.50575
0.087528095 0.0069117919 0.50611115
0.092868976 0.0068696812 0.50699997
0.097181126 0.0067457003 0.50599998
0.1008222 0.0063871131 0.50599998
0.08179298 0.010140584 0.505
0.1034767 0.019023338 0.50514287
0.10567057 0.018396411 0.50549996
0.043595046 0.02332191 0.50500005
0.045074545 0.024263434 0.505
0.099433415 0.023965606 0.5053333
0.10207508 0.022087738 0.50588238
0.04384483 0.027012642 0.50575
0.046076916 0.027439093 0.50566667
0.098393686 0.027807916 0.50718182
0.10163382 0.027051823 0.50822216
0.044108659 0.031216539 0.50833333
0.046868354 0.032748181 0.50692004
0.093408674 0.033443082 0.50569999
0.097167484 0.032340445 0.50818181
0.048602566 0.036653079 0.50707692
0.051230643 0.038454883 0.50588888
0.09287893 0.037549783 0.50639999
0.096011199 0.036938798 0.50883335
0.052587703 0.042418674 0.50657135
0.088205427 0.043415554 0.50599998
0.091789715 0.042267121 0.50786662
0.053525325 0.047223404 0.50777775
0.056102253 0.048698213 0.50575
0.084333129 0.048543248 0.5057143
0.087309301 0.047376018 0.50749993
0.090032496 0.045807689 0.509
0.054276507 0.051754039 0.5088889
0.057455104 0.052793235 0.50695831
0.060138524 0.054392178 0.505
0.083373636 0.052770734 0.50637501
0.086705513 0.05224134 0.50849998
0.05832931 0.057443168 0.50838882
0.060394675 0.057625007 0.50583333
0.078758277 0.058863979 0.50566667
0.082112379 0.057350181 0.50764704
0.059286334 0.061276086 0.509
0.061251078 0.062706001 0.5064286
0.074260995 0.064748943 0.505
0.077986643 0.062592439 0.50744444
0.081116244 0.061569642 0.50887501
0.063163981 0.067405447 0.50663626
0.066964388 0.069221176 0.505
0.073321849 0.068500735 0.50644445
0.076704435 0.066784076 0.50871426
0.063903943 0.071706086 0.50833333
0.067509755 0.072595283 0.506724
0.072228037 0.072288185 0.50761104
0.067487702 0.076507501 0.50853842
0.070934758 0.076530948 0.509
0.09438134 -0.00021916929 0.51200002
0.095335878 -0.00021916929 0.51200002
0.064916864 0.0026497184 0.51300001
0.067861423 0.0032951743 0.51131254
0.072433606 0.0031208866 0.51204997
0.077186368 0.0031988174 0.51257896
0.082521632 0.0033641711 0.51275003
0.087600023 0.0029361246 0.51239133
0.092532389 0.00271444 0.51173079
0.096468456 0.0020958341 0.51150006
0.073094614 0.0054867589 0.50999999
0.077583902 0.0054903445 0.5103333
0.08286196 0.0055039721 0.51160002
0.087182708 0.0056541986 0.51083326
0.091219157 0.0054903445 0.5103333
0.10365742 0.029296139 0.51066667
0.044657398 0.034078807 0.51099998
0.099339917 0.033092752 0.51049995
0.10232472 0.031968731 0.51252633
0.10518864 0.031852573 0.51349998
0.044554256 0.036247425 0.51199996
0.047252245 0.038430225 0.51185715
0.098228253 0.037974257 0.5121429
0.10073923 0.035955913 0.514
0.048341751 0.042340808 0.51264709
0.050499123 0.042943876 0.51066667
0.094068624 0.043304116 0.51116669
0.09662158 0.042578891 0.51240003
0.049343184 0.046851695 0.51349998
0.051136699 0.047702562 0.51150006
0.089258552 0.049225647 0.50999999
0.092037246 0.047230996 0.51156253
0.052583575 0.052339695 0.51184618
0.055029031 0.054930717 0.50999999
0.088622786 0.052908525 0.51112497
0.090563141 0.050373264 0.51200002
0.054107647 0.056741424 0.51285714
0.055945657 0.058014739 0.51127273
0.084317148 0.059174746 0.51175004
0.086676583 0.057402298 0.5124616
0.054502353 0.06015306 0.514
0.05739015 0.062771738 0.51191312
0.083114378 0.063041657 0.51216668
0.085695006 0.061032102 0.51333332
0.058771811 0.066992953 0.51279998
0.060649477 0.068077169 0.51090002
0.078991018 0.067577757 0.51055551
0.081336707 0.067430526 0.51236367
0.061897621 0.072465405 0.51222223
0.074190617 0.073139906 0.51099998
0.077137217 0.072220281 0.51190007
0.080297664 0.07110478 0.51349998
0.063762538 0.076616928 0.51281816
0.067155272 0.078974456 0.51125008
0.072551213 0.078017801 0.51175004
0.075756215 0.075658493 0.51300001
0.067731008 0.082353219 0.51291311
0.071563214 0.082426883 0.5132727
0.06887652 0.086186953 0.514
0.071272209 0.085068941 0.514
0.074291296 -0.00022045345 0.51499999
0.077727064 -0.0011004714 0.51781821
0.081447996 -0.00099626579 0.51899999
0.087628007 -0.00094505679 0.51674998
0.09128581 -0.00060452038 0.51499999
0.073811226 0.0007397139 0.51499999
0.078097485 0.0009009387 0.51583332
0.082154311 0.0010150734 0.51571423
0.087253213 0.0007397139 0.51499999
0.10381566 0.034105532 0.51499999
0.10559833 0.03389883 0.51549995
0.043854795 0.037994206 0.51499999
0.045006968 0.039146408 0.51499999
0.10284697 0.037398566 0.51588893
0.105466 0.037122872 0.51800001
0.043752681 0.04220831 0.51720005
0.046019793 0.042845499 0.51559991
0.099466443 0.042077363 0.51560003
0.10215718 0.042031404 0.51782358
0.043905139 0.04719146 0.51899999
0.047021057 0.047927488 0.51650006
0.093974203 0.048748083 0.51499999
0.097239852 0.047570534 0.5175789
0.1005097 0.045256209 0.51899999
0.048067287 0.052385427 0.51795238
0.050854407 0.053322319 0.51588887
0.092657939 0.052879281 0.5159499
0.096504219 0.052546978 0.51864284
0.048904404 0.056222629 0.51899999
0.051805958 0.057621155 0.51668185
0.089042328 0.057728838 0.51516658
0.091673121 0.057082348 0.51656246
0.095671698 0.055900082 0.51899999
0.053451162 0.062369235 0.51694113
0.055568531 0.06363067 0.51499999
0.087789498 0.062580407 0.51688886
0.091156237 0.061060753 0.51899999
0.054173183 0.06615793 0.51850003
0.056590501 0.06787356 0.51668745
0.083766028 0.067812733 0.51539993
0.086861745 0.067124955 0.51800001
0.05825768 0.072462387 0.51711112
0.06072836 0.074400872 0.51533329
0.079881094 0.073998705 0.51700002
0.082719266 0.072004125 0.5176667
0.085511908 0.071382083 0.51899999
0.058764923 0.076710917 0.51850003
0.061765123 0.078073576 0.51582354
0.074363887 0.079070047 0.51549995
0.077663518 0.077844881 0.51694113
0.080190115 0.077187836 0.51899999
0.05987053 0.080090702 0.51899999
0.062653586 0.082493708 0.51665223
0.065554 0.083506145 0.51499999
0.074226357 0.082601197 0.51545447
0.077219144 0.082265928 0.5176667
0.080190115 0.080574512 0.51899999
0.06382978 0.087331228 0.5184167
0.066958658 0.087605551 0.51576197
0.072564453 0.087262578 0.51534992
0.064708523 0.090734579 0.51899999
0.067717366 0.092297837 0.51813638
0.071102716 0.092252165 0.51800001
0.069062725 0.095572703 0.51899999
0.084222473 -0.00070733851 0.51999998
0.085191935 -0.00070733851 0.51999998
0.10332534 0.044459254 0.52100003
0.099861763 0.048314359 0.52066666
0.10256522 0.04734486 0.52268744
0.044209693 0.051729191 0.52014285
0.045655303 0.05292622 0.52019995
0.09900479 0.052071769 0.520625
0.1015013 0.052052703 0.52355558
0.044731051 0.056330916 0.523
0.047336847 0.057347383 0.52188885
0.093831584 0.058596067 0.52060002
0.097152524 0.057809867 0.52249998
0.048472591 0.061926752 0.52393752
0.051131804 0.062772885 0.52116662
0.092766635 0.062999561 0.52217644
0.096392475 0.061773948 0.52450001
0.049524397 0.066429496 0.52420002
0.052099574 0.06789571 0.52195239
0.055138566 0.069580637 0.51999998
0.089115702 0.068602353 0.52139997
0.0923687 0.066933095 0.52382356
0.095798939 0.065355629 0.52499998
0.053570483 0.07219772 0.52363634
0.055910584 0.072693408 0.52145451
0.083535865 0.074221499 0.52024996
0.087708369 0.072883323 0.52241176
0.090818435 0.070672184 0.52450001
0.054637872 0.075561583 0.52450001
0.056753553 0.077946961 0.52206242
0.083049111 0.077597842 0.52174997
0.08692243 0.07675986 0.52400005
0.058382344 0.082129911 0.52257895
0.060585976 0.084284753 0.52100003
0.07932359 0.083597153 0.52125001
0.082060307 0.082410246 0.52284616
0.085032307 0.081016615 0.52499998
0.05952714 0.086318254 0.52450001
0.061401222 0.087750368 0.52175003
0.077915706 0.087734446 0.52282351
0.080962658 0.086236432 0.52399999
0.063267119 0.092456199 0.52268422
0.066168003 0.094524957 0.52033335
0.073992789 0.092865743 0.52191663
0.077130407 0.092338398 0.52406669
0.064034015 0.097174026 0.52437502
0.067204587 0.097558096 0.52173907
0.07257621 0.097586073 0.52276474
0.075172789 0.096097037 0.52450001
0.067601629 0.1019756 0.52379996
0.071446985 0.10200204 0.52406251
0.10382663 0.049789306 0.52600002
0.10500652 0.049392693 0.52700001
0.10325983 0.053596612 0.52700001
0.10546554 0.053060856 0.52711111
0.044090647 0.058726829 0.52700001
0.045520727 0.059161909 0.52649999
0.10199837 0.057678141 0.52756518
0.10535178 0.056570426 0.52750003
0.044132479 0.06247266 0.52749997
0.046106465 0.063053265 0.52678567
0.09833058 0.063187063 0.52649999
0.10154478 0.061583079 0.52789992
0.044341635 0.066966198 0.52999997
0.047423128 0.066887848 0.52876914
0.050270278 0.069930598 0.52999997
0.093752824 0.069119908 0.52633333
0.096638039 0.067748412 0.5272857
0.051538482 0.072889686 0.5273636
0.092730604 0.072692707 0.52733338
0.095789164 0.071525551 0.52899998
0.05338981 0.077531286 0.52752936
0.088561103 0.078497007 0.52685708
0.091386199 0.077005982 0.52824998
0.054314878 0.081312016 0.52850002
0.056094408 0.083169229 0.52810001
0.083993472 0.083892055 0.52666664
0.087267205 0.082355544 0.52841169
0.058048885 0.087406032 0.52775002
0.082729608 0.087933287 0.52715003
0.086242475 0.086988084 0.5298571
0.059067294 0.091971315 0.52841663
0.060982656 0.093192257 0.52742857
0.079065219 0.093429387 0.52600002
0.082225882 0.092322648 0.52841169
0.059163243 0.096116126 0.52999997
0.061650664 0.097485341 0.52805007
0.077687144 0.097670801 0.52757901
0.081180088 0.095891297 0.52966666
0.06363257 0.10199975 0.52799994
0.066244856 0.10423781 0.5266
0.073777035 0.10338381 0.52674997
0.076607667 0.10205003 0.52899998
0.064599387 0.10556674 0.52866668
0.067733981 0.10746582 0.52750003
0.072099231 0.10730083 0.52807134
0.068472281 0.11110917 0.52939999
0.071162879 0.11139747 0.52983332
0.10241904 0.064484827 0.53399998
0.044425305 0.068082556 0.53100002
0.046584502 0.068764232 0.53116673
0.099432342 0.068467192 0.53399998
0.10222176 0.065957464 0.53383332
0.044676293 0.071951762 0.53399998
0.047489155 0.072189443 0.53208005
0.050365135 0.073032536 0.53100002
0.096563809 0.073032536 0.53100002
0.047729243 0.077128902 0.53282607
0.05101236 0.077739388 0.53118187
0.093764588 0.077809155 0.53150004
0.095422588 0.076808773 0.53200001
0.049109839 0.080338992 0.53349996
0.052336484 0.082581863 0.53211766
0.055314988 0.084912509 0.53100002
0.089370012 0.083724514 0.53100002
0.092287548 0.082091637 0.53250003
0.053282972 0.087043233 0.53313333
0.055986542 0.088121094 0.53111118
0.088044979 0.088033199 0.53136373
0.090551734 0.085977621 0.53299999
0.054176036 0.091601618 0.53371423
0.056637682 0.092726804 0.53181255
0.084024169 0.094317496 0.53100002
0.08648359 0.091968276 0.53172731
0.057675663 0.097391352 0.53225005
0.060264852 0.099762484 0.53100002
0.082290001 0.097963378 0.53121436
0.085334338 0.095169596 0.53299999
0.059119575 0.10206663 0.53342855
0.061527058 0.10295947 0.53138471
0.078492567 0.1031528 0.53125006
0.080933928 0.10212701 0.53299999
0.062741943 0.10728052 0.53276467
0.065214708 0.10867246 0.53100002
0.074170977 0.10874131 0.53133333
0.076649167 0.10703853 0.53227276
0.063843556 0.11130462 0.5333333
0.066815384 0.11315849 0.53143758
0.072638586 0.11315861 0.53143758
0.075491637 0.11120877 0.53366661
0.067968152 0.11721693 0.53293335
0.07144966 0.11719023 0.5325833
0.044343978 0.069722943 0.53600001
0.099618554 0.069592871 0.53500003
0.10287318 0.068272144 0.53549999
0.043631729 0.072605148 0.5351429
0.098963112 0.072778217 0.53550005
0.102561 0.07180012 0.53715396
0.044826888 0.07769037 0.53580004
0.045800149 0.079143055 0.53550005
0.097845785 0.077647924 0.53666669
0.10036335 0.075137742 0.53899997
0.048019886 0.082686648 0.53684217
0.050744534 0.084055968 0.53500003
0.094352394 0.083253279 0.53625
0.096785307 0.081834696 0.5381
0.048921872 0.08674565 0.53790915
0.051340811 0.088174358 0.5354445
0.09241543 0.087508157 0.53659999
0.095338918 0.085689336 0.53899997
0.052336082 0.092235163 0.53638458
0.08879111 0.093186975 0.53587502
0.091533609 0.092005186 0.53857142
0.054036278 0.095727392 0.53800005
0.055859033 0.098205566 0.53783327
0.084736228 0.099110812 0.53550005
0.086901069 0.09737131 0.53722221
0.090314485 0.095236011 0.53899997
0.057707869 0.10253241 0.53670001
0.083056197 0.10316717 0.53611112
0.085290059 0.10176794 0.53899997
0.05900161 0.10755964 0.53684616
0.061140496 0.10873406 0.53520006
0.07902573 0.10856368 0.53588891
0.081998877 0.1070244 0.53718191
0.059386972 0.11077374 0.53799993
0.062019825 0.11301768 0.53634995
0.077455327 0.11264144 0.53642857
0.080693148 0.11121182 0.53849995
0.063293159 0.11738792 0.53726315
0.066099845 0.11841267 0.53550005
0.074010268 0.11781845 0.53528577
0.076557465 0.11714064 0.53883332
0.064107433 0.12138144 0.5383333
0.067456484 0.1222928 0.536174
0.072384566 0.12228865 0.53643757
0.075241193 0.12035883 0.53899997
0.068038896 0.12606141 0.53855556
0.071289673 0.12608725 0.53866667
0.10356217 0.074048772 0.54083329
0.10577884 0.07390359 0.54100001
0.10280592 0.077494182 0.54083341
0.10620618 0.077596635 0.54124999
0.046185028 0.084338158 0.54000002
0.098902747 0.082891464 0.5407778
0.10242062 0.081974752 0.54224998
0.10628314 0.080459766 0.54100001
0.046948295 0.088155329 0.5413571
0.09429016 0.089146167 0.54066664
0.097370818 0.087549843 0.5415625
0.10028017 0.087498471 0.54400003
0.048588526 0.091640256 0.54249996
0.051038206 0.093740918 0.54114282
0.09362673 0.09261591 0.54129994
0.096725725 0.092062414 0.54340005
0.052332155 0.097926334 0.54165
0.055245783 0.099439815 0.54000002
0.089387327 0.098539911 0.54150003
0.092319228 0.096871756 0.54310006
0.095209129 0.095105231 0.54400003
0.052880108 0.10230186 0.54272217
0.05603411 0.10302212 0.5405454
0.087577894 0.10262679 0.541875
0.090476155 0.1018668 0.54400003
0.053887937 0.10649606 0.54371434
0.056494646 0.10767765 0.54164284
0.084256649 0.10837902 0.54139996
0.086546093 0.10650662 0.54266661
0.057963673 0.11255784 0.54257143
0.079407796 0.11454148 0.54000002
0.082431637 0.11268944 0.54285717
0.085067049 0.11031876 0.54400003
0.059186444 0.11687563 0.54383332
0.060902894 0.11807884 0.54171431
0.078403786 0.11801212 0.54155558
0.081402339 0.11663308 0.54371434
0.062134299 0.12220501 0.54114282
0.076217927 0.12201848 0.54116672
0.064145133 0.12701547 0.54228574
0.066884704 0.12844096 0.54049999
0.072580315 0.12837009 0.54100001
0.075939178 0.1260394 0.54400003
0.067680955 0.13257127 0.542
0.071852215 0.13204856 0.54236364
0.069042556 0.13608034 0.54400003
0.070868134 0.13567464 0.54400003
0.10438129 0.083918571 0.546
0.10654406 0.08359573 0.54699999
0.10280476 0.087306194 0.54663157
0.1059186 0.087800078 0.54824996
0.044703219 0.092996448 0.54649997
0.047093093 0.092990316 0.54586673
0.098985113 0.092891723 0.54555553
0.10206875 0.09199471 0.54730761
0.10580774 0.090861574 0.54900002
0.044866815 0.097426817 0.5485
0.047957364 0.097424619 0.54718179
0.050676953 0.097312257 0.54500002
0.093863212 0.098848708 0.546
0.097050153 0.096946709 0.54675001
0.048931167 0.1015211 0.54822218
0.050954219 0.10371077 0.54525
0.092631169 0.1025074 0.54633331
0.09659598 0.10007359 0.54900002
0.052237574 0.1076936 0.54646665
0.088463724 0.10816986 0.5461818
0.0915775 0.10713621 0.54788888
0.054201227 0.11212677 0.54724997
0.056011293 0.11340511 0.54583335
0.083971657 0.11370815 0.54566669
0.087466471 0.11230401 0.54749995
0.054119486 0.11542695 0.54900002
0.056779593 0.11761814 0.54695231
0.079126984 0.11966644 0.54500002
0.08325962 0.1179487 0.54646152
0.086507842 0.11689344 0.54845452
0.057768445 0.12193001 0.547647
0.060607992 0.12368578 0.54659998
0.078416951 0.12329246 0.54555553
0.082263485 0.12217081 0.54768747
0.059237137 0.1261743 0.54900002
0.061614111 0.12760365 0.54715794
0.077793188 0.12759438 0.54715383
0.081023425 0.1259274 0.54866666
0.063072719 0.13205473 0.54729414
0.06506075 0.13320144 0.54633331
0.073386461 0.13407563 0.54575002
0.075967364 0.13188449 0.5474444
0.063974537 0.13615675 0.54866666
0.066913821 0.13760638 0.5461579
0.072441578 0.13748106 0.54657137
0.068159528 0.14165208 0.54750001
0.071097851 0.14163555 0.54799998
0.018528488 -0.036136113 0.55212504
0.022465508 -0.037026696 0.55082607
0.02653582 -0.037094306 0.55219996
0.014331164 -0.031739961 0.55400002
0.017694311 -0.031907372 0.55309516
0.022336056 -0.032661945 0.5516842
0.025553402 -0.034136299 0.551
0.01949542 -0.029157763 0.55400002
0.020528274 -0.029157763 0.55400002
0.10446239 0.092565209 0.55000001
0.10548777 0.092052497 0.55000001
0.099182993 0.099075779 0.55199999
0.10191026 0.096920408 0.55191672
0.044989515 0.10025588 0.55000001
0.046888057 0.1029883 0.55105889
0.094208442 0.10435756 0.55000001
0.097107999 0.10265996 0.55190003
0.10005785 0.10098501 0.55400002
0.047643289 0.10703328 0.55256242
0.050358016 0.10833341 0.55040002
0.093841925 0.1081263 0.55128568
0.096313007 0.10600522 0.55324996
0.048901942 0.11124713 0.55366665
0.051687915 0.11265625 0.5514667
0.089081466 0.11461177 0.55000001
0.092102505 0.11222073 0.55245453
0.052828476 0.11720279 0.55225003
0.088841796 0.11829305 0.55214286
0.090762183 0.11596175 0.55400002
0.05423094 0.12188362 0.55274999
0.056044549 0.12358928 0.55116671
0.083954491 0.12384056 0.55000001
0.087250061 0.12212791 0.55191666
0.057685576 0.12760411 0.55131257
0.079340219 0.12948039 0.55000001
0.082998946 0.12783442 0.55142862
0.085907601 0.12690642 0.55314285
0.058855508 0.13185757 0.55228573
0.060822297 0.13314164 0.551
0.078298785 0.13312174 0.55142856
0.081320018 0.13173392 0.55300003
0.059776638 0.13507003 0.55400002
0.062497109 0.1378032 0.55229414
0.074929744 0.13908795 0.55149996
0.076903805 0.13656905 0.55274999
0.063676685 0.14215109 0.55274999
0.066721529 0.14312187 0.55080003
0.072960451 0.14317229 0.55059999
0.07513354 0.14255881 0.55299997
0.06798736 0.14551313 0.55149996
0.071867503 0.14581494 0.55166668
0.013448435 -0.026451493 0.55636364
0.017392842 -0.027081965 0.55558336
0.021856593 -0.02658941 0.55585712
0.012949495 -0.022074139 0.55773687
0.017524103 -0.022565585 0.55700004
0.022731623 -0.022371836 0.55735004
0.027710995 -0.020487767 0.55900002
0.012581185 -0.017400637 0.55788887
0.017521286 -0.017890114 0.55692011
0.022627167 -0.01780379 0.55691665
0.027257727 -0.017580302 0.55885714
0.012436924 -0.012807619 0.55791664
0.017525509 -0.012700863 0.55704004
0.022733159 -0.012708328 0.55739999
0.026422312 -0.012734301 0.55850005
0.01340867 -0.0080898367 0.55861545
0.017567338 -0.0075245034 0.55835998
0.022377053 -0.0081072124 0.55861115
0.026256345 -0.009265963 0.55866671
0.036867235 0.0034084157 0.55900002
0.04408801 0.0039295158 0.55900002
0.047442228 0.0035003752 0.55900002
0.050936576 0.0049717175 0.55900002
0.043849796 0.0064307987 0.55900002
0.047810055 0.0065350188 0.55900002
0.050936576 0.0060139187 0.55900002
0.10360129 0.098839104 0.55500001
0.10541204 0.09858042 0.55500001
0.099203743 0.10375415 0.55500001
0.10252791 0.10237784 0.55521744
0.10541204 0.10168465 0.55500001
0.043710127 0.10771656 0.55627275
0.045812398 0.10861744 0.55500001
0.098149993 0.10789409 0.55614287
0.10258746 0.10725693 0.55817646
0.044138167 0.11199042 0.55650002
0.047122546 0.11271944 0.55523527
0.093771473 0.1138429 0.55500001
0.097341523 0.11236501 0.55678946
0.10148199 0.11023403 0.55900002
0.047916606 0.11731812 0.55688888
0.051277086 0.11862112 0.55516672
0.09264864 0.11779109 0.55562502
0.096510895 0.11656591 0.55812502
0.049351003 0.12112319 0.55875003
0.052109614 0.1227432 0.55693746
0.089115262 0.12341426 0.55500001
0.091777004 0.12222811 0.55666661
0.053767085 0.12675685 0.55790913
0.055550523 0.12878673 0.55720001
0.088413239 0.12731287 0.55685717
0.090458184 0.12627557 0.55850005
0.056902107 0.13260412 0.55700004
0.083462238 0.13317502 0.55525005
0.086537905 0.13167082 0.55783337
0.058502298 0.13735071 0.55635297
0.060919251 0.1394528 0.55500001
0.078557037 0.13815676 0.55533332
0.08225929 0.13729973 0.55735713
0.059060335 0.14116657 0.55700004
0.061436608 0.14203966 0.55500001
0.077766396 0.14170741 0.55572724
0.081410207 0.14063714 0.55833334
0.011354261 -0.022165092 0.56
0.026318802 -0.021817068 0.56
0.032275721 -0.02098651 0.56069225
0.036999136 -0.020112813 0.56099999
0.0087441672 -0.015900699 0.56
0.010310223 -0.015900699 0.56
0.029102903 -0.016422732 0.56
0.032174867 -0.017575001 0.5608421
0.035861276 -0.018236188 0.56119996
0.0074752318 -0.012648526 0.56104541
0.010310223 -0.010680371 0.56
0.028617075 -0.012783158 0.56069994
0.030941961 -0.013012054 0.56236362
0.0078068641 -0.0076823933 0.56178945
0.011272016 -0.0069417297 0.56024998
0.023882713 -0.0060566529 0.56
0.027838912 -0.0072623356 0.56170595
0.030749857 -0.0079942616 0.56387508
0.008550615 -0.0028162103 0.56290919
0.012439977 -0.002334354 0.56195998
0.017639656 -0.0023292571 0.56067991
0.02247767 -0.0024297114 0.56090474
0.026967755 -0.0023898301 0.5631429
0.030888021 -0.0023444749 0.56400007
0.042862784 -0.0010995789 0.56245464
0.047108676 -0.0012919829 0.56307703
0.051392179 -0.00076719024 0.56400007
0.013047225 0.0013922162 0.56300002
0.017846275 0.0019911285 0.56306255
0.02216902 0.0021031061 0.56338465
0.026156297 0.00081009447 0.56400001
0.038466811 0.0033780758 0.56069225
0.042157531 0.0024891018 0.56083328
0.048257228 0.0016746431 0.56016666
0.052449081 0.0027921093 0.56226319
0.055598158 0.0034389021 0.56400001
-0.02063524 0.0086965179 0.56400001
-0.01853225 0.0086965179 0.56400001
0.034568254 0.0092222793 0.56400001
0.037564818 0.0076138377 0.56164998
0.042277101 0.0079772146 0.56026661
0.047673281 0.0085786544 0.56011111
0.052599523 0.0077970535 0.56074995
0.056041975 0.0069483812 0.56242859
-0.02063524 0.010799563 0.56400001
-0.018388862 0.012568035 0.56400007
0.034568254 0.010273802 0.56400001
0.038093109 0.011912476 0.56294739
0.042768918 0.0123174 0.56123996
0.047711071 0.012173393 0.56118178
0.051222842 0.011894134 0.56099993
-0.017480753 0.01605718 0.56400001
0.039505132 0.017175678 0.56371433
0.042640727 0.01743439 0.56195647
0.046983548 0.016212432 0.56157142
0.039241139 0.021807976 0.56316668
0.041602835 0.021607466 0.5613749
0.10427362 0.10938716 0.56
0.10649513 0.10932038 0.5618
0.10268484 0.11264294 0.56093752
0.10687096 0.11249122 0.56318182
0.098146968 0.11836745 0.56077772
0.10291042 0.11599069 0.56333333
0.10585962 0.11626734 0.56400001
0.047672205 0.12282784 0.56066668
0.093958907 0.12312561 0.56074995
0.097108997 0.12207451 0.56233329
0.048108466 0.12665568 0.5625
0.051089916 0.12785664 0.56069225
0.089657091 0.1292244 0.56
0.092639379 0.12764709 0.56225002
0.09555497 0.12594135 0.56400001
0.049289189 0.13014744 0.56400001
0.052657727 0.13223499 0.56194443
0.055236701 0.13348068 0.56033331
0.088515006 0.13273141 0.5607
0.091308288 0.13211279 0.56266665
0.054048695 0.13668253 0.5632
0.055987701 0.13756306 0.56088889
0.084436901 0.13914302 0.56
0.087224059 0.13690649 0.56224996
0.090297498 0.13593082 0.56400001
0.083392859 0.14070913 0.56
0.034629546 -0.016042668 0.565
0.037225928 -0.016509281 0.56557143
0.033655807 -0.012733385 0.56507146
0.036592592 -0.013010071 0.56683332
0.04362645 -0.011117232 0.56900001
0.047250912 -0.011028829 0.56900001
0.033399791 -0.0074447664 0.56617635
0.036359854 -0.0089424988 0.56900001
0.043043852 -0.0074723572 0.56811762
0.04744678 -0.0076476499 0.56712002
0.052492984 -0.0072959387 0.56723815
0.056668203 -0.0069204844 0.56840003
0.029362747 -0.0012952442 0.565
0.032074474 -0.0030535189 0.56533337
0.04249274 -0.0037655579 0.56688893
0.047468647 -0.0037857862 0.56509089
0.052869301 -0.0028476045 0.56499994
0.057446331 -0.0023558636 0.56665003
-0.0022419963 0.0039787227 0.56599998
0.018318204 0.0039752079 0.56550002
0.023744831 0.003620564 0.565
0.026729351 0.0022862733 0.565
0.030416107 0.0008115308 0.565
0.054643378 0.0013382245 0.565
0.057621013 0.0022459659 0.56614286
-0.016534505 0.0076933149 0.56762505
-0.013668365 0.0079928087 0.56861538
-0.0054299613 0.0075281686 0.56833333
-0.0022463864 0.0071572848 0.56692004
0.0019810325 0.0077221463 0.56669223
0.018923571 0.0058077057 0.56785715
0.021027576 0.0058424831 0.5675
0.057675749 0.0054535507 0.56580001
-0.02184673 0.012803942 0.565
-0.016399868 0.012164707 0.565
-0.012806613 0.012433364 0.56664002
-0.0074544824 0.012884949 0.568762
-0.0022505245 0.012465431 0.56803995
0.0025138643 0.012458251 0.56764996
0.0051627494 0.013523608 0.56800002
0.029097 0.014195985 0.5666666
0.032911185 0.012999673 0.56566668
0.036385145 0.01380331 0.565
-0.020671826 0.015558956 0.565
-0.017511748 0.016085651 0.565
-0.012795773 0.016120002 0.56620002
-0.0071991994 0.017525883 0.56857151
-0.0024357964 0.017634612 0.56839132
0.0021061164 0.016481556 0.56855559
0.0051718382 0.015669107 0.56900001
0.018398257 0.019348001 0.56800002
0.022595614 0.019313939 0.56699997
0.027699476 0.018083999 0.56654996
0.032534339 0.017671984 0.56519985
0.037087385 0.017841294 0.56499994
0.018801127 0.022023648 0.56871432
0.022222621 0.022615546 0.56815785
0.027360668 0.022493687 0.56720001
0.032571007 0.022440754 0.56585002
0.036741529 0.022409512 0.56508338
0.023087855 0.026041813 0.56900001
0.027707106 0.026992809 0.56809521
0.03259493 0.026888529 0.56800008
0.035809215 0.025656637 0.56699997
0.02793023 0.030467302 0.56800002
0.10231355 0.11868526 0.56575
0.10576324 0.11942168 0.56800002
0.098884478 0.12353116 0.565
0.10265278 0.12245196 0.56762505
0.10576324 0.12048066 0.56800002
0.047142107 0.12870987 0.56599998
0.094671033 0.1287981 0.565
0.097571187 0.1275057 0.56599998
0.10097366 0.12720171 0.5682857
0.047568835 0.13233934 0.56788892
0.05084056 0.1343988 0.56566668
0.093659408 0.1328074 0.56525004
0.097510003 0.13224007 0.5675
0.049638756 0.1353064 0.56800002
0.052097972 0.13658234 0.56514287
0.092465274 0.13614902 0.56599998
0.095173717 0.1353064 0.56800002
0.039324228 -0.01570821 0.57200003
0.041299157 -0.015481859 0.57350004
0.038866874 -0.012122322 0.57050002
0.042178132 -0.012840094 0.57181245
0.047249127 -0.01241137 0.57239997
0.052587405 -0.010894932 0.57124996
0.055513803 -0.010947381 0.574
0.038013689 -0.007262927 0.57046676
0.040647916 -0.0080814799 0.56999999
0.053532928 -0.009808383 0.56999999
0.055223659 -0.0098255901 0.57099998
0.034936003 -0.0039634802 0.56999999
0.037677791 -0.002430442 0.57210004
0.040509526 -0.0021946616 0.57116669
0.061997145 -0.002061398 0.57164711
0.062185656 0.0024188301 0.57137507
0.065762967 0.0033165887 0.57316667
-0.010778166 0.0088044526 0.57099998
-0.0077660512 0.0083640367 0.57125002
0.018308925 0.0079131005 0.57066667
0.059586011 0.006687928 0.57200003
0.062107805 0.0060576755 0.57199997
0.065832764 0.0053633084 0.57300001
-0.0081025874 0.010383098 0.56999999
0.0065206988 0.013861178 0.57099998
-0.015887985 0.018279161 0.57099998
-0.01236776 0.01890748 0.57066673
-0.0094309393 0.019150451 0.56999999
-0.00013247842 0.019416127 0.56999999
0.0028636642 0.018890969 0.57018185
0.0071593458 0.017745312 0.57095009
0.012264073 0.018551124 0.57200003
0.01580774 0.019416127 0.56999999
-0.01645481 0.022111626 0.57100004
-0.012383346 0.022659602 0.57137501
-0.0075791231 0.022628795 0.57059997
-0.0022618601 0.022655271 0.57125008
0.0025358787 0.022705145 0.57249999
0.0074807308 0.022367748 0.5727827
0.012662048 0.022148879 0.57196021
0.016663434 0.022825103 0.57020003
-0.015089015 0.025393985 0.57300001
-0.012186984 0.025845766 0.57285708
-0.0070403558 0.026748907 0.57299995
-0.002272045 0.027564233 0.5736801
0.0022538244 0.026837753 0.57399994
0.0074715731 0.025899159 0.57366663
0.012860707 0.026036708 0.57218182
0.017600358 0.027244244 0.57072228
0.021659318 0.028126653 0.57018751
0.025925934 0.029006403 0.57050002
0.033341981 0.029511869 0.56999999
0.022569554 0.030796707 0.57083327
0.026641963 0.031319432 0.57066673
0.1057478 0.12328638 0.57020003
0.10344313 0.12769264 0.57077777
0.10595161 0.12703167 0.57228571
0.045562815 0.13312605 0.56999999
0.099847063 0.13324329 0.57050002
0.10179881 0.13152327 0.5715
0.043093823 -0.017796522 0.57836366
0.047044575 -0.016154839 0.57841665
0.052770603 -0.015491354 0.57716674
0.048011184 -0.013849869 0.57600003
0.052485373 -0.013134311 0.57600003
0.057310991 -0.012595005 0.57592863
0.060054787 -0.011532009 0.5765
0.058213543 -0.0091950754 0.57599998
0.060106874 -0.008853077 0.57700002
0.066269107 -0.0011853647 0.57562494
0.066050112 0.0011848169 0.57566667
-0.012664829 0.028484002 0.57608336
-0.0085015092 0.02882644 0.57539999
0.00361837 0.027626682 0.57499999
0.0062983776 0.027358674 0.57499999
0.10706666 0.12946968 0.57499999
0.10492265 0.13054171 0.57499999
0.10599466 0.13054171 0.57499999
0.044158973 0.029093292 0.59399998
0.047012847 0.028719982 0.59391659
0.04357738 0.032395542 0.59362495
0.047401316 0.032361094 0.59300011
0.050717998 0.031808291 0.59299999
0.043821324 0.037539691 0.59371424
0.047132328 0.037211921 0.59340912
0.044158977 0.042198177 0.59399998
0.047443349 0.042707942 0.59352165
0.043137636 0.048005361 0.59391659
0.046750989 0.047676772 0.59300005
0.042836003 0.052167833 0.59338456
0.046611633 0.052103784 0.59299999
0.043152217 0.056628659 0.59399992
0.045909975 0.056305915 0.59337497
0.048117332 0.023873443 0.59600002
0.050974585 0.024190923 0.59600002
0.038974117 0.028302303 0.59600008
0.042392135 0.027298847 0.59511119
0.047914114 0.026132425 0.59591675
0.051017348 0.025879856 0.59650004
0.039431952 0.03175807 0.59619999
0.041494466 0.032497518 0.59550005
0.04218141 0.037735146 0.59580004
0.049863428 0.038636316 0.59600002
0.050974589 0.038636316 0.59600002
0.039996807 0.042668156 0.59799999
0.04222285 0.042535406 0.5955385
0.038667634 0.047900844 0.597
0.041624535 0.046504594 0.59537506
0.038046777 0.052644897 0.59623533
0.040905446 0.052992642 0.59500003
0.033628006 0.05779257 0.59875
0.037794854 0.057531372 0.59699994
0.041791353 0.058325931 0.5953334
0.047693435 0.058126841 0.59550005
0.033561017 0.062882468 0.59890908
0.037665367 0.062613592 0.59809518
0.042699225 0.062612876 0.59681261
0.047179535 0.062653266 0.59718752
0.029912753 0.068196923 0.597
0.032832611 0.067859031 0.59789467
0.037428368 0.06724973 0.59821039
0.042333476 0.06706354 0.59846669
0.046764176 0.06619183 0.59899998
0.032783944 0.071731135 0.598625
0.03727182 0.070658937 0.59899998
0.040848535 0.036902718 0.60399997
0.038614079 0.042608839 0.60155559
0.04033123 0.04021433 0.60299999
0.037541535 0.046378568 0.60033333
0.032579947 0.060988791 0.60000002
0.043486413 0.069098942 0.60000002
0.046868581 0.068578012 0.60033333
0.033418905 0.074132822 0.59999996
0.037328795 0.073256247 0.6007272
0.042424478 0.071993001 0.60080004
0.047470257 0.072281122 0.60226661
0.034652643 0.076625615 0.602
0.037833527 0.076902121 0.60315388
0.042498466 0.076730981 0.60352629
0.046378415 0.075523965 0.60366666
0.037461314 0.033505052 0.60838467
0.040531881 0.034765262 0.60600001
0.038739905 0.037490193 0.60744452
0.041028962 0.038091786 0.60500002
0.037381861 0.042352404 0.6068334
0.037142485 0.046063542 0.60600001
0.043143298 0.079538412 0.6056667
0.047561001 0.077298529 0.60527271
0.033054132 0.033099271 0.611
0.036250398 0.03385745 0.61000001
0.029571585 0.035166837 0.61299998
0.032637898 0.037089016 0.6125294
0.036178917 0.038027372 0.61054552
0.033112966 0.042452678 0.61318183
0.035710551 0.042421833 0.61050004
0.034198679 0.045526899 0.61400002
0.035740264 0.045304455 0.611
0.028475102 0.037897371 0.61592305
0.031196838 0.039485808 0.61500001
0.02742446 0.042528704 0.61731809
0.031053981 0.043092966 0.61519998
0.02401302 0.047474846 0.61699998
0.027449746 0.04745204 0.61669993
0.032447442 0.047477283 0.61553329
0.03599374 0.047920842 0.61533332
0.024051938 0.050432291 0.61799997
0.027812107 0.05165673 0.61793333
0.03266653 0.052120026 0.61750001
0.036405645 0.051597215 0.6181429
0.022654334 0.052967947 0.62183332
0.026715776 0.053918935 0.62099999
0.036325209 0.054150492 0.62099999
0.02275835 0.057076693 0.62314284
0.027307542 0.057101004 0.62270594
0.032457724 0.057249207 0.62221062
0.036151435 0.055724528 0.62133336
0.023703776 0.060229022 0.62400001
0.027193846 0.060229022 0.62400001
0.031641826 0.061370756 0.62377781
0.027633252 0.061895922 0.62516665
0.030150477 0.062656045 0.625
0.033234537 0.083266146 0.64824998
0.036725182 0.083358914 0.64639997
0.038389768 0.085236169 0.64600003
0.027721005 0.083340205 0.64999998
0.047427353 -0.056073464 0.866
0.31918272 -0.12818658 0.97899997
0.32100794 -0.12818658 0.97899997
0.47888789 -0.12818658 0.97899997
0.46899843 -0.13414244 0.98699999
0.3681784 -0.14390483 0.99299997
0.37002972 -0.14390483 0.99299997
0.46352053 -0.13742511 0.99299997
0.36929074 -0.14155418 0.99599999
0.37114766 -0.14155418 0.99599999
0.44789934 -0.14217316 0.99599999
0.45099416 -0.14155418 0.99599999
0.44913727 -0.13969724 0.99599999
0.45285106 -0.13969724 0.99599999
0.45656484 -0.13969724 0.99599999
0.37186077 -0.14701828 1.008
0.39888152 -0.15591533 1.017
0.39319339 -0.15401924 1.017
0.39793348 -0.15401924 1.017
0.39720571 -0.15637526 1.02
0.43651092 -0.16206309 1.0319999
0.43970948 -0.16253422 1.035
