# .PCD v0.7 - Point Cloud Data file format
VERSION 0.7
FIELDS x y z
SIZE 4 4 4
TYPE F F F
COUNT 1 1 1
WIDTH 187
HEIGHT 1
VIEWPOINT 0 0 0 1 0 0 0
POINTS 187
DATA ascii
0.012170427 0.038651928 0.44913638
0.014008796 0.048278887 0.44947052
0.017793201 0.049447089 0.45000002
0.015169194 0.052462675 0.44938457
0.017513547 0.052663188 0.44999996
0.032998048 0.067689553 0.44949999
0.038238849 0.067319892 0.44968414
0.043457419 0.067664452 0.44933334
0.025008479 0.075566873 0.449
0.030489635 0.072977796 0.44718885
0.038369123 0.072272263 0.44729474
0.045376837 0.07237158 0.44883326
0.024355819 0.079627611 0.44915786
0.029804636 0.08047387 0.44709
0.03811302 0.080006786 0.44523731
0.045221657 0.078386903 0.44871429
0.029951025 0.085474603 0.44937497
0.034216519 0.085193716 0.449
0.01490988 0.041128498 0.45100006
0.0061221761 0.047793705 0.45222446
0.012065291 0.045156918 0.45105469
0.020361466 0.047853611 0.45158705
0.026945081 0.050713286 0.45699999
0.0049307789 0.055251587 0.45329988
0.012445792 0.055576064 0.45143211
0.021535933 0.055084646 0.45179161
0.029132565 0.056010563 0.45610824
0.038688969 0.058959626 0.45711765
0.046826966 0.058521923 0.45768759
0.051237602 0.058851011 0.45899999
0.006160256 0.063450493 0.45523345
0.01301684 0.06374079 0.45417008
0.020861056 0.062554084 0.45385075
0.030032065 0.062452283 0.45742387
0.038467154 0.062903866 0.45398894
0.046726711 0.06369292 0.45452887
0.052831754 0.06480857 0.45741028
0.0077748713 0.069670998 0.45699999
0.01280276 0.069955289 0.45659462
0.018711772 0.069090024 0.45879999
0.049345687 0.071609169 0.45147222
0.054886568 0.072327256 0.45461282
0.060615197 0.07242091 0.45823082
0.022311684 0.083829127 0.45384997
0.026018262 0.084920228 0.45199999
0.049171839 0.080952927 0.45214292
0.054359071 0.080230318 0.45429859
0.059943315 0.077380128 0.4585
0.016386252 0.089724578 0.45871428
0.021006621 0.088786051 0.45524481
0.028118322 0.088731699 0.45174408
0.019525422 0.093994029 0.45788887
-0.013900326 0.058119498 0.46600002
0.032827623 0.05409988 0.46115384
0.038036209 0.05511174 0.46098766
0.045377038 0.056154612 0.46377775
0.051840421 0.058425616 0.46700001
-0.011957596 0.064141273 0.46448338
-0.0073035457 0.066209115 0.465
0.024763558 0.065840229 0.46000001
0.031706501 0.066269808 0.46023077
0.035150077 0.066793159 0.45999998
0.056760296 0.064151965 0.46075541
0.061000671 0.066066757 0.46088237
-0.010157222 0.070386387 0.46503693
-0.0050633457 0.072790414 0.46588221
0.032982327 0.06856183 0.461
0.034701258 0.06856183 0.461
0.058210049 0.068413109 0.46000001
0.064675063 0.073224649 0.46553645
0.068673037 0.076419584 0.46700001
-0.0028656067 0.077580489 0.46700001
0.0070212586 0.084494941 0.4664
0.0090139732 0.084509656 0.46599999
0.058686823 0.082547128 0.46149996
0.063571893 0.080355383 0.46432292
0.068673037 0.077725604 0.46700001
0.0062523102 0.089219838 0.46533334
0.012086623 0.089465179 0.46156228
0.040804591 0.088652633 0.46608338
0.046858326 0.089908391 0.4658708
0.055088345 0.088669091 0.46282798
0.06155663 0.086095326 0.4628461
0.0084875226 0.094346516 0.461
0.013843772 0.096055903 0.46072981
0.018817147 0.097357251 0.46065524
0.049518675 0.093833111 0.46700001
0.052130636 0.093833111 0.46700001
0.048564162 0.053875018 0.47032443
0.051741451 0.055408411 0.46899995
-0.020121612 0.072115287 0.47050002
-0.0138722 0.073151574 0.4697904
0.067075059 0.073093064 0.46799999
-0.027621025 0.081797145 0.47599992
-0.020965844 0.081087947 0.47346509
-0.012702371 0.080584407 0.46986187
-0.0044825086 0.081546858 0.46955007
0.0026990522 0.083422929 0.46987501
-0.018667938 0.085518606 0.47400001
-0.012039077 0.087594636 0.47315922
-0.0042838939 0.088350482 0.471984
0.0025725781 0.087510318 0.46900004
0.044171479 0.091634542 0.46799999
0.057406753 0.092880547 0.47099999
0.065988608 0.089668237 0.47549993
0.041756418 0.099343516 0.47555554
0.046915915 0.09829507 0.47291958
0.05549923 0.098109722 0.47195071
0.060695518 0.097691625 0.47518185
0.040787458 0.10616367 0.47479552
0.046889193 0.10616937 0.47235107
0.055434249 0.10622746 0.47225305
0.060804561 0.10661478 0.47457689
0.041118089 0.11462183 0.47558334
0.046762045 0.1146986 0.47460017
0.053993881 0.11318136 0.47397676
0.060168564 0.1106777 0.472
0.042190298 0.11989857 0.47599998
0.045148402 0.11982461 0.47600004
-0.026214993 0.079593338 0.47733331
-0.023795372 0.07850989 0.47760001
-0.012561013 0.090061799 0.477
0.041093998 0.092912428 0.47839993
0.042575363 0.09317442 0.477
0.059471995 0.09317442 0.477
0.062838696 0.092196941 0.47705567
0.038753923 0.097720429 0.47972298
0.042575363 0.094063736 0.477
0.064041704 0.098413683 0.4786216
0.037080482 0.10596725 0.47775608
0.064105801 0.1051105 0.47747219
0.032693081 0.11635213 0.48161536
0.037018314 0.11486465 0.47845152
0.050134383 0.1189647 0.477
0.055968937 0.11733326 0.47881481
0.061071496 0.11776824 0.4835
0.031737141 0.123362 0.48076776
0.038081896 0.12319162 0.47853333
0.046928234 0.1236977 0.47839117
0.055344809 0.12329268 0.48053956
0.060414016 0.12129764 0.48275003
0.031339142 0.130868 0.48313522
0.037782066 0.13073188 0.48193437
0.046013825 0.12906756 0.48103565
0.052779671 0.12842759 0.48200002
0.030529993 0.11593638 0.48500007
0.05866101 0.11598663 0.48500001
0.06062014 0.11613733 0.48500004
0.025309131 0.1269065 0.48699999
0.027280508 0.12680683 0.48574999
0.023839753 0.13230395 0.48715001
0.028005436 0.13237208 0.48544192
0.035621278 0.13549751 0.48525003
0.023698837 0.1397845 0.4880285
0.02981933 0.14033377 0.48751357
0.038082331 0.14107017 0.49044916
0.043570936 0.14265788 0.49200001
0.025413068 0.14474985 0.48899999
0.031260412 0.14745411 0.49036589
0.038394041 0.14852533 0.49110961
0.043850284 0.14777221 0.49299997
0.033893082 0.15328711 0.493
0.037293848 0.15356287 0.49299997
0.045013715 0.14438787 0.49399999
0.046742845 0.14909373 0.49492687
0.039243106 0.1573437 0.49622709
0.045658488 0.15705769 0.49780849
0.040690284 0.16208375 0.49933335
0.043900747 0.16224024 0.50019997
0.040676504 0.16813545 0.50714988
0.046066944 0.16672976 0.50507122
0.030103821 0.1727321 0.50910521
0.038830251 0.1724437 0.50800002
0.046130162 0.17283756 0.50599998
0.18442495 -0.089294717 0.917
0.49692574 -0.10139824 0.93400002
0.48820686 -0.10369173 0.93900001
0.48640659 -0.10776386 0.94400001
0.45747045 -0.13407193 0.98200005
0.4599115 -0.13346165 0.98200005
0.45819581 -0.13694073 0.98949999
0.45842358 -0.13489111 0.98799998
0.46579149 -0.13489111 0.98799998
0.44944838 -0.14658074 1.005
0.44094342 -0.15637526 1.02
0.44628268 -0.15401924 1.017
0.40765074 -0.16013904 1.0319999
