# .PCD v0.7 - Point Cloud Data file format
VERSION 0.7
FIELDS x y z
SIZE 4 4 4
TYPE F F F
COUNT 1 1 1
WIDTH 144
HEIGHT 1
VIEWPOINT 0 0 0 1 0 0 0
POINTS 144
DATA ascii
0.058549501 0.12944859 0.54406416
0.088081889 0.12350515 0.55853128
0.052000202 0.12733069 0.5481239
0.056785055 0.12467591 0.55441624
0.080209486 0.11988329 0.56595027
0.088262998 0.11992441 0.56597555
0.066536151 0.12946175 0.52691871
0.071924008 0.12846243 0.52866262
0.092334799 0.12433242 0.53879249
0.096709661 0.12336066 0.54166055
0.059987627 0.12678358 0.5346626
0.067201592 0.1248134 0.53756154
0.08719825 0.1207713 0.54725432
0.09377756 0.12007634 0.55088395
0.051627867 0.12468665 0.54608756
0.059210606 0.12236957 0.5502128
0.081245564 0.11788896 0.56101918
0.088840447 0.11706116 0.56447703
0.067091428 0.12005254 0.52483201
0.070129685 0.11676263 0.52428699
0.092796676 0.11277524 0.53570867
0.095123313 0.11520148 0.53890651
0.064141162 0.11170474 0.52553922
0.068864547 0.11174866 0.52758193
0.089322887 0.10721272 0.53754646
0.093560986 0.10579669 0.54005033
0.061730497 0.098979197 0.52245641
0.069290169 0.097862244 0.52381575
0.087408908 0.094213367 0.53312314
0.09320306 0.092366695 0.53816819
0.057182156 0.090345912 0.52985471
0.061849333 0.089684844 0.53282958
0.082366697 0.085646406 0.5428459
0.087704711 0.084444508 0.54463381
0.068910144 0.08378984 0.5076285
0.077703618 0.08569473 0.50729346
0.090804063 0.083113506 0.51429236
0.096039318 0.078548104 0.52096456
0.062579744 0.082477473 0.51713729
0.067993961 0.083311759 0.5207116
0.086322866 0.07935822 0.52930588
0.092260234 0.076184034 0.53058267
0.057698213 0.082201071 0.5256952
0.06332884 0.079646043 0.52864641
0.081566386 0.075951263 0.53735018
0.087826155 0.076247267 0.5404343
0.069343708 0.075963221 0.50241238
0.079211064 0.075326383 0.50105226
0.091932349 0.073230714 0.50759661
0.097219743 0.068848036 0.51528728
0.063749425 0.071897157 0.50944602
0.073170595 0.068013296 0.51492786
0.082330815 0.06638293 0.51964402
0.094262086 0.065723531 0.52360582
0.059871964 0.072396502 0.51860952
0.067630418 0.069626309 0.52169329
0.082026355 0.066066585 0.52828437
0.08930587 0.067191549 0.53243035
0.070039965 0.064903319 0.49672243
0.079336904 0.063404635 0.49386427
0.09362904 0.060569063 0.50034159
0.097499676 0.059391186 0.5102495
0.067965113 0.063377194 0.50112092
0.071270488 0.055878036 0.50739014
0.085933901 0.052837119 0.51471221
0.094807394 0.058064036 0.51532423
0.055337287 0.042555153 0.51686627
0.073331811 0.054786809 0.51591176
0.078552894 0.053620014 0.51888412
0.083523802 0.036925167 0.53036952
0.053985216 0.041713353 0.51909345
0.056084402 0.038387388 0.52629918
0.074681081 0.034655556 0.53531212
0.082134478 0.035903335 0.53295511
0.056210153 0.032173447 0.54033828
0.061771922 0.030737905 0.54330444
0.051471718 0.028898586 0.55238342
0.054593913 0.028471477 0.55392557
0.080631159 0.048206747 0.48830605
0.092538081 0.045976482 0.49399379
0.066869639 0.038348213 0.49282545
0.07206098 0.043667253 0.49992019
0.087271355 0.04066043 0.50713623
0.093501203 0.032651812 0.50643587
0.054803856 0.036578067 0.50762069
0.065857716 0.034041621 0.50843906
0.081574403 0.030928522 0.51640552
0.088593833 0.029829193 0.52428383
0.052029483 0.035731368 0.51783121
0.056367792 0.033266034 0.52335596
0.07514865 0.029452162 0.53226495
0.082566999 0.029633801 0.53268552
0.055183254 0.024903882 0.5374037
0.062809341 0.023304682 0.5410462
0.050151609 0.01841509 0.54825765
0.055036061 0.017531063 0.55105853
0.046586417 0.015188918 0.55639935
0.050005235 0.013152409 0.55767727
0.070325814 0.037476934 0.4842805
0.079831503 0.035658143 0.48337018
0.092873655 0.033342667 0.48933941
0.09812554 0.031916648 0.49771196
0.064298503 0.031061463 0.48859394
0.069893144 0.030858088 0.48856422
0.092642747 0.026994206 0.50019789
0.096266694 0.024854863 0.50400507
0.055824928 0.026554031 0.49860233
0.066482835 0.023470102 0.50390607
0.080889337 0.020950032 0.51101232
0.092029832 0.019248627 0.51608211
0.055829518 0.028311744 0.51052201
0.061449416 0.016521763 0.51848072
0.069987677 0.014691197 0.52242756
0.08367119 0.022698855 0.52399254
0.056636564 0.011718492 0.53223693
0.061893933 0.010288538 0.53361255
0.052722789 0.0048900247 0.54008079
0.056463994 0.0040476155 0.5406127
0.046329178 0.0060766768 0.55262089
0.050153337 0.0059125293 0.55514789
0.083933286 0.025533052 0.48418179
0.087220512 0.024952481 0.4854525
0.065050267 0.022099989 0.48772553
0.074750118 0.019946219 0.48870435
0.086818807 0.017738201 0.49435008
0.093881674 0.01633634 0.50173211
0.059835784 0.019713558 0.49406555
0.069588505 0.012779418 0.49998823
0.078862302 0.011013551 0.50453657
0.090929396 0.013646027 0.50874835
0.060684465 0.0052024405 0.50973642
0.073956065 0.0025165565 0.51638031
0.058670588 -0.00023843534 0.51987064
0.065819345 -0.001352245 0.52318066
0.071634285 -0.012034146 0.49636269
0.076910965 -0.0096937474 0.49577773
0.064948224 -0.011126822 0.50855953
0.067461245 -0.011278054 0.51045376
0.062903099 -0.0082974266 0.51491445
0.064920031 -0.011058101 0.51436585
0.071302526 -0.015011812 0.49544656
0.073966555 -0.015037304 0.49597257
0.067108445 -0.018656125 0.50035411
0.070555829 -0.018037422 0.50025791
