# .PCD v0.7 - Point Cloud Data file format
VERSION 0.7
FIELDS x y z
SIZE 4 4 4
TYPE F F F
COUNT 1 1 1
WIDTH 730
HEIGHT 1
VIEWPOINT 0 0 0 1 0 0 0
POINTS 730
DATA ascii
0.024101291 0.102981 0.53399998
0.027730757 0.10224041 0.53360009
0.032717444 0.10277621 0.53380001
0.036794741 0.10306397 0.53399998
0.019388953 0.10848995 0.53399998
0.022752427 0.10719827 0.53352004
0.027701952 0.10710248 0.53303999
0.032668225 0.1070943 0.53299999
0.037668914 0.10718257 0.53343999
0.041120708 0.10800637 0.53399998
0.019270869 0.11216807 0.53349996
0.022731222 0.11206294 0.53299999
0.027699726 0.11206294 0.53299999
0.032719597 0.11241487 0.53272402
0.037560862 0.11217725 0.53299999
0.041674357 0.11223115 0.53380001
0.019270869 0.11564938 0.53349996
0.022751624 0.11613994 0.53346658
0.027948935 0.11690605 0.53345454
0.032662574 0.11746346 0.53221732
0.037744705 0.11718773 0.53333336
0.041490488 0.11655425 0.53399998
0.028747261 0.12073571 0.53399998
0.032647792 0.12218512 0.53340912
0.036365058 0.12151514 0.53377771
0.023735557 0.093286507 0.53846157
0.027505523 0.09319298 0.53794992
0.033025298 0.09389694 0.53781247
0.037654072 0.093586646 0.53773677
0.042054549 0.094172813 0.53866667
0.018476358 0.098067231 0.53857887
0.022838907 0.097500585 0.53717244
0.02795078 0.097650409 0.53634632
0.032864355 0.097739629 0.53620017
0.037871391 0.097761281 0.53632003
0.04254429 0.097527072 0.53723997
0.045401681 0.098022185 0.53866667
0.013863695 0.10302877 0.53837502
0.017779101 0.10252039 0.53675002
0.022101587 0.10228971 0.53581262
0.03279081 0.10051398 0.53500003
0.038643949 0.10187617 0.53530765
0.042839762 0.10268429 0.53592008
0.047087144 0.10281003 0.53811765
0.050119039 0.10428023 0.53899997
0.013160947 0.10768771 0.53747821
0.017447334 0.10730727 0.53555006
0.043415952 0.10731906 0.53550005
0.047455523 0.10751521 0.537
0.050119035 0.10729496 0.53899997
0.0099235894 0.1138269 0.53899997
0.012893095 0.11255296 0.53723997
0.016858967 0.11266603 0.5358668
0.044269614 0.11250411 0.53509998
0.047444232 0.11261977 0.53633338
0.050366301 0.1126601 0.53857142
0.0099235894 0.11583672 0.53899997
0.013064041 0.11722748 0.53773683
0.017662471 0.11789026 0.53600013
0.022824492 0.11901158 0.5352
0.026141286 0.11913317 0.53500003
0.043584984 0.11799563 0.53526664
0.047296237 0.11766571 0.53636855
0.050461002 0.11688632 0.538625
0.013935477 0.12086927 0.53871429
0.017941635 0.12255411 0.53713042
0.022850046 0.12264156 0.5358001
0.02749416 0.12295499 0.53510523
0.030795952 0.12445292 0.53500003
0.038535319 0.12286103 0.53512496
0.042861473 0.12273329 0.53620011
0.047481429 0.12229341 0.53756255
0.018618155 0.12736617 0.53860003
0.022893835 0.12738672 0.53685004
0.02794324 0.12762086 0.5360834
0.03285411 0.12769453 0.53604007
0.037866041 0.12774208 0.53623998
0.042438801 0.12756862 0.53684217
0.046243493 0.12692104 0.53854549
0.019972453 0.13040796 0.53899997
0.02320032 0.13080081 0.53877777
0.027747607 0.13144678 0.53822219
0.032778613 0.13172406 0.53844446
0.037522655 0.13179344 0.53850001
0.042139146 0.13147345 0.53833336
0.022497106 0.088819914 0.5427857
0.027286517 0.087848291 0.54195666
0.032137018 0.088126749 0.54238093
0.037169434 0.08853513 0.54311109
0.041751623 0.089266151 0.54344451
0.013793522 0.094170198 0.54299998
0.017402677 0.092776224 0.542
0.021567451 0.091879338 0.5404706
0.027392348 0.090546608 0.54000002
0.031854238 0.091542475 0.5405333
0.037351068 0.091126345 0.5406363
0.042543739 0.092025429 0.54123813
0.047206838 0.092893779 0.54217398
0.050814275 0.094047293 0.54375005
0.0095989155 0.098849945 0.54339999
0.012676393 0.097686723 0.54167998
0.016695738 0.096069969 0.54030001
0.047759719 0.097236998 0.54042101
0.051721383 0.09760467 0.54247367
0.0093085309 0.10271709 0.54225004
0.011877052 0.10184801 0.5406363
0.048820801 0.10128921 0.5402
0.052443396 0.10267217 0.54179174
0.05565501 0.10372622 0.54400003
0.0083641298 0.1077494 0.54230011
0.01095551 0.10655361 0.54033333
0.052812882 0.10766294 0.54085004
0.055886209 0.10744476 0.54229993
0.0049446053 0.11285435 0.54400003
0.0077582286 0.11244385 0.54232007
0.052978847 0.11253379 0.54083329
0.057206184 0.11283349 0.54299998
0.061588928 0.11308237 0.54266667
0.0079003368 0.11756678 0.54165006
0.010948752 0.11856859 0.54000002
0.053009741 0.11782882 0.54093748
0.057580844 0.11720863 0.54345459
0.06154231 0.11614435 0.54337502
0.0049446053 0.1229967 0.54400003
0.0081206914 0.12249498 0.54290003
0.012577637 0.12304692 0.54079998
0.015003487 0.12484001 0.54100001
0.049205281 0.12460925 0.54000002
0.05233112 0.12254608 0.54152179
0.055824041 0.12215149 0.54400009
0.0094993357 0.1254169 0.54350001
0.012553091 0.12711398 0.54266667
0.015917564 0.12787135 0.54066664
0.048256002 0.12823811 0.5406363
0.052304115 0.12727328 0.54299998
0.014063855 0.13153766 0.54366666
0.017167576 0.13253985 0.54136366
0.021864433 0.13355039 0.5404706
0.026821313 0.13400494 0.54033333
0.031917766 0.13408171 0.54018182
0.037124269 0.13417365 0.54000002
0.042405281 0.13396482 0.54081815
0.047522392 0.13269438 0.54266673
0.050895918 0.13117328 0.54299998
0.017495031 0.13611403 0.54228574
0.022314928 0.13699082 0.54263633
0.027190376 0.13736746 0.54266661
0.032400478 0.13763459 0.54238892
0.036829669 0.1369652 0.54138458
0.041861463 0.13625784 0.54171431
0.04551293 0.13567464 0.54400003
0.032835327 0.14074582 0.54400003
0.022390058 0.084720232 0.54900002
0.02789546 0.084273465 0.54799998
0.032819983 0.083747454 0.54830766
0.037498891 0.083312117 0.54805875
0.041154772 0.084379047 0.54900002
0.013502532 0.089046858 0.54833335
0.017452553 0.087816775 0.54704756
0.021959685 0.086522304 0.54624999
0.026907619 0.085520931 0.54571432
0.032679472 0.085744187 0.54611111
0.037819888 0.086103477 0.54641664
0.042735457 0.087132424 0.54666674
0.047379695 0.088841729 0.54745448
0.050955907 0.089674376 0.54799998
0.008556325 0.094271526 0.54799998
0.012108184 0.092560284 0.54695237
0.016005946 0.09104383 0.54571432
0.048248138 0.090705968 0.54542857
0.052916043 0.092094488 0.54659998
0.05579127 0.0935359 0.54866666
0.0049839928 0.098928511 0.54833335
0.0074515352 0.097676948 0.54668748
0.010378885 0.095677026 0.54533333
0.054448206 0.097420834 0.54642856
0.057149868 0.098037973 0.54799998
0.060260665 0.09905003 0.54900002
0.0044655846 0.10286244 0.54749995
0.0069256648 0.10244889 0.54607141
0.054741245 0.1008686 0.54500002
0.057596058 0.10236915 0.54711759
0.060260665 0.10007359 0.54900002
0.0035243253 0.1078632 0.5475263
0.006383141 0.10637039 0.54560006
0.058272019 0.10790367 0.54633337
0.061060935 0.10939739 0.54699999
0.0035557533 0.11211733 0.54669231
0.058848698 0.11141554 0.54540002
0.06145734 0.11123239 0.546
0.0034716853 0.11744488 0.54717648
0.059313573 0.11966644 0.54500002
0.0036954314 0.12136006 0.54691666
0.0059779827 0.12186379 0.54575002
0.057871882 0.12288793 0.54576927
0.060041133 0.12163533 0.54699999
0.004971873 0.12724437 0.54699999
0.0074077742 0.12767005 0.54619998
0.010846915 0.12860812 0.54500002
0.054741245 0.12779523 0.54500002
0.056130733 0.12617867 0.54533339
0.008029622 0.13129988 0.54689997
0.011615175 0.13253824 0.54647368
0.015114419 0.13490793 0.54500002
0.013372298 0.13553372 0.54649997
0.017652225 0.13871786 0.54799998
0.023242999 0.13897234 0.54500002
0.047120702 0.13592403 0.54500002
0.024303583 0.14024529 0.546
0.027659897 0.1414876 0.54659998
0.03099096 0.1420989 0.54725003
0.024286343 -0.040814966 0.55333334
0.027241807 -0.041035868 0.55399996
0.019389849 -0.035163585 0.551
0.022643104 -0.037098233 0.55186957
0.027048329 -0.037563644 0.55355543
0.018697117 -0.031706326 0.55263638
0.021834284 -0.032922283 0.55157149
0.026709922 -0.034301504 0.55366665
0.01949542 -0.029157763 0.55400002
0.020528274 -0.029157763 0.55400002
0.029095907 0.079747438 0.55000001
0.032230586 0.079378791 0.551
0.036786363 0.079234727 0.55000001
0.018647254 0.083040856 0.55292857
0.02253272 0.082170889 0.55251992
0.027335612 0.082015432 0.55147618
0.032452576 0.081603281 0.55041677
0.037968595 0.081233576 0.55014282
0.042727873 0.083188616 0.55166668
0.047254175 0.083118752 0.55324996
0.052044302 0.084204853 0.55233335
0.0074394257 0.089515485 0.55333334
0.012363804 0.08762531 0.55226672
0.01616079 0.085761584 0.551
0.043701638 0.085370667 0.551
0.047473922 0.086296283 0.55131257
0.052296165 0.087365501 0.55224991
0.056073528 0.088273033 0.55385715
0.0072286404 0.092223465 0.5519501
0.010396269 0.090893917 0.55075002
0.053355724 0.090274386 0.55166668
0.056573909 0.091862291 0.55300003
0.0031039272 0.098737322 0.5521428
0.0062394487 0.095711887 0.551
0.057859495 0.09572795 0.55050004
-0.00012812058 0.1030524 0.55124998
0.0020547162 0.10238618 0.55112505
0.059345037 0.10230672 0.55000001
0.060993828 0.10300636 0.55100006
-0.00012823679 0.10726342 0.55175
0.0014113492 0.10653893 0.55066663
0.058939308 0.10762916 0.55100006
0.061021503 0.10716389 0.55125004
-0.00087945873 0.11251691 0.55345446
0.0011937978 0.11237975 0.55199999
-0.00033458529 0.11675817 0.55239999
0.0014138743 0.11646435 0.55149996
0.016426463 -0.030245136 0.55500001
0.01387661 -0.026564747 0.55649996
0.017402017 -0.027096616 0.55587488
0.022266772 -0.026719909 0.55583328
0.013140967 -0.022254011 0.55764711
0.017520677 -0.022561254 0.55690008
0.022873776 -0.022343623 0.55736369
0.025924414 -0.020041108 0.55900002
0.031656366 -0.020562209 0.55900002
0.012760507 -0.017167255 0.55874997
0.017524101 -0.017892461 0.5570001
0.022588616 -0.017717283 0.55717397
0.026445501 -0.017435607 0.55900002
0.030614194 -0.018998908 0.55900002
0.01288035 -0.012729554 0.55829996
0.017536463 -0.012708328 0.55739999
0.022572162 -0.01285457 0.55786955
0.025924414 -0.013787903 0.55900002
0.013712401 -0.0087233251 0.55885714
0.017253714 -0.0083771832 0.55874997
0.021547284 -0.0092022177 0.55900002
0.037537206 0.0031850871 0.55900002
0.043641362 0.0043761735 0.55900002
0.04598625 0.0041900668 0.55900002
0.043269161 0.0073538912 0.55900002
0.046172354 0.0073538912 0.55900002
0.038845312 0.079092763 0.55500001
0.041719522 0.078862816 0.55500001
0.045915868 0.079437673 0.55500001
0.012984634 0.083741494 0.55672723
0.016331498 0.082689621 0.5553
0.039190214 0.080472417 0.55500001
0.04238059 0.08124847 0.55499995
0.04660568 0.080817327 0.55500001
0.0078430558 0.08764147 0.55618745
0.011168004 0.086114891 0.55655551
-0.0011658048 0.10445939 0.55599999
-0.0053121261 0.10912412 0.55599999
-0.0026394285 0.10756863 0.55599993
-0.0027202871 0.11095791 0.55566669
0.011354261 -0.021121025 0.56
0.027536845 -0.021121025 0.56
0.0087441672 -0.015900699 0.56
0.011006248 -0.018336853 0.56
0.028580885 -0.017466798 0.56
0.032462992 -0.017319994 0.56088895
0.036488451 -0.017868096 0.56280005
0.0078314878 -0.012503866 0.5612222
0.010310223 -0.012768502 0.56
0.02492675 -0.011202404 0.56
0.02782849 -0.012590963 0.56029409
0.031303741 -0.012813359 0.56199998
0.004067672 -0.0070637828 0.56300002
0.0072134696 -0.0075856345 0.56283998
0.011889383 -0.0070918892 0.56066668
0.018198511 -0.0060400805 0.56
0.023151889 -0.0071305484 0.56000006
0.027607555 -0.0075651817 0.5614
0.03087905 -0.0086507462 0.56383342
0.0036478196 -0.0035999087 0.56300002
0.0073649497 -0.0026278459 0.56336361
0.012543865 -0.0024248683 0.56270832
0.017653715 -0.002331252 0.56115991
0.022491178 -0.0024305643 0.56123811
0.026348623 -0.002640476 0.56328571
0.031203469 -0.0028702361 0.56400007
0.039090939 -0.00024014447 0.56099999
0.042963438 -0.00097569125 0.56239998
0.047115404 -0.0012920159 0.56315386
0.050340682 -0.00024142864 0.56400001
0.013230802 0.0012603368 0.56371433
0.017886119 0.0021044593 0.5626471
0.022160895 0.0021016272 0.56315386
0.0251048 0.00081009447 0.56400001
0.038413171 0.003823041 0.56044441
0.042307273 0.0023135762 0.56050003
0.047874302 0.0027090188 0.56047058
0.051414188 0.003145702 0.56246156
-0.02063524 0.0086965179 0.56400001
0.034568254 0.0092222793 0.56400001
0.037561096 0.0076134866 0.56159997
0.041121416 0.0081155328 0.56016666
0.048693016 0.007593499 0.56016666
0.052761555 0.0074246516 0.56205261
-0.02063524 0.011325326 0.56400007
-0.017796202 0.013007763 0.56400001
0.034568254 0.010273802 0.56400001
0.037896179 0.012117936 0.56304544
0.042769436 0.012318071 0.56124002
0.047365803 0.012086027 0.56127769
0.051045261 0.011147126 0.561625
-0.016955005 0.015531418 0.56400001
0.039137341 0.017434584 0.56372732
0.042582575 0.01733019 0.56190914
0.046536818 0.015490111 0.5625
0.038764153 0.021835292 0.56385714
0.041256152 0.020715313 0.56199998
0.012920317 0.082241453 0.56
0.038041171 -0.015637605 0.56560004
0.03413333 -0.012892229 0.56550002
0.037074383 -0.012596998 0.56712502
0.043573409 -0.011276359 0.56900001
0.046720501 -0.011205636 0.56900001
0.033114258 -0.0073031993 0.56652629
0.036465935 -0.0092607532 0.56900001
0.043299537 -0.0076604416 0.56819999
0.047409676 -0.0076416447 0.56668001
0.052425262 -0.0070858635 0.56678945
0.056699369 -0.0062446534 0.56800002
0.010402278 -0.0002418567 0.565
0.028625399 -0.0017165992 0.565
0.033016972 -0.0034111093 0.56619996
0.043131694 -0.0039359774 0.56599998
0.047461379 -0.0037850693 0.565
0.052624445 -0.0024364137 0.56499988
0.057404004 -0.0022463796 0.56705266
0.060334321 -0.0018348367 0.56900001
-0.0053981137 0.0029183058 0.565
-0.0027654578 0.00239293 0.56518751
0.010402278 0.0008115308 0.565
0.024095951 0.0029183058 0.565
0.026466012 0.001733245 0.565
0.053707063 0.0018649182 0.565
0.057444654 0.0023987235 0.566625
0.060334321 0.0024085438 0.56900001
-0.022076307 0.0081852432 0.565
-0.017556958 0.0076774838 0.56649995
-0.014016342 0.0080237789 0.56850004
-0.0054267766 0.007172334 0.56800002
-0.0022461445 0.0071564247 0.56684005
0.0019042747 0.0072987317 0.56621426
0.057243433 0.0063500479 0.56746155
-0.022251865 0.012560853 0.565
-0.017412176 0.012191882 0.56520003
-0.012891057 0.012517489 0.5664584
-0.0072975452 0.013216868 0.56823528
-0.0022502262 0.012465729 0.56803995
0.0019871814 0.012473808 0.56833339
0.029362749 0.014505568 0.565
0.032948148 0.01287275 0.56527776
0.036034022 0.014154439 0.565
-0.020145146 0.015558956 0.565
-0.019091787 0.015558956 0.565
-0.0128016 0.01612588 0.56639993
-0.0073962482 0.016631609 0.5682143
-0.0022508972 0.016714644 0.5684666
0.022664655 0.01990374 0.56875002
0.027801603 0.018245496 0.56661111
0.032538794 0.017674858 0.56527984
0.036661029 0.017816216 0.565
0.046908639 0.016671147 0.56699997
0.022667322 0.022557341 0.56881255
0.027382752 0.022511855 0.56764996
0.032613993 0.022471009 0.56659997
0.036399383 0.022239843 0.56522226
0.023736134 0.025747135 0.56900001
0.027828008 0.026525805 0.56862509
0.032592043 0.02638766 0.5685001
0.035914477 0.026262784 0.5686667
0.039186727 -0.013527866 0.56999999
0.042045236 -0.012885188 0.57126671
0.047982879 -0.012427804 0.57171434
0.051702101 -0.011528669 0.57242858
0.055417087 -0.010928309 0.57300001
0.037883803 -0.0072888024 0.57037508
0.040794872 -0.0076851002 0.57020003
0.053290971 -0.0095470073 0.57024997
0.057610225 -0.0079972222 0.57163638
0.037880052 -0.00302002 0.57273334
0.041109219 -0.0028503002 0.57211113
0.059377674 -0.0044948352 0.56999999
0.061990298 -0.0019650362 0.57146156
0.062403616 0.0024178196 0.57128572
0.065031558 0.002959627 0.57300001
-0.011330249 0.0088198734 0.57200003
-0.0079381093 0.0086252056 0.57088894
0.05840135 0.0087271426 0.57085717
0.062280226 0.0067651332 0.57147378
-0.010778166 0.010401314 0.57099998
-0.0081025874 0.010914453 0.56999999
0.0041182465 0.013571228 0.56999999
0.0065467581 0.013692663 0.57100004
0.054396238 0.010981938 0.57350004
0.057722203 0.010900404 0.57233334
0.060599405 0.010943642 0.5715
-0.015575671 0.0183939 0.57124996
-0.012155855 0.018695612 0.57070005
-0.0077660084 0.019274397 0.57009095
-0.0022578409 0.019416129 0.57000005
0.0025263571 0.017837254 0.57045001
0.0072262026 0.017465556 0.57157147
0.012414049 0.01804141 0.57390904
0.017468097 0.018422384 0.57221425
0.021138743 0.018900717 0.57049996
-0.015822703 0.021838719 0.57145458
-0.012518914 0.022394724 0.57216674
-0.0075911707 0.022664674 0.57150006
-0.0022631416 0.022667076 0.57155007
0.0025376556 0.022720253 0.57287496
0.0072875121 0.021577265 0.57341182
0.012695253 0.022207066 0.57348007
0.01732986 0.02247737 0.57076472
0.020058466 0.022604257 0.56999999
-0.011360426 0.025416143 0.57350004
-0.0072565973 0.02557973 0.57316667
-0.0026290936 0.026996065 0.57373333
0.00093673065 0.025438301 0.574
0.013224624 0.025939682 0.57324994
0.017800452 0.026809542 0.57064289
0.021892998 0.027707068 0.5703333
0.026804032 0.028820446 0.5703333
0.032825261 0.028993458 0.57024997
0.022229783 0.030638944 0.57120001
0.02754881 0.031166429 0.57110006
0.031216616 0.030574579 0.56999999
0.042573083 -0.016763644 0.57678568
0.047247548 -0.01586237 0.57760006
0.051006846 -0.015859716 0.57750005
0.04761279 -0.01419488 0.57550001
0.052909821 -0.013307066 0.57575005
0.057226546 -0.011932913 0.57566667
0.060570866 -0.011382256 0.57800001
0.058537394 -0.0095479274 0.57566667
0.061763961 -0.0074706613 0.57840002
0.0644098 -0.0023985142 0.57700002
0.065962709 -0.0011081458 0.57739997
0.066082008 0.00082948501 0.57749999
0.056684818 0.012961152 0.57657146
0.013095732 0.016677316 0.5753333
0.0078298096 0.024104295 0.57499999
-0.015247016 0.027279124 0.579
-0.01274174 0.027371565 0.57830769
-0.0075854044 0.028102901 0.57570589
-0.0017416447 0.028484305 0.57499993
0.002546367 0.027090667 0.57499993
0.0073724627 0.026561057 0.57513326
0.011233273 0.026993072 0.57519996
0.045821503 -0.017549934 0.57999998
0.063773118 -0.011080884 0.58099997
0.063313209 -0.009042412 0.58049995
0.068105876 -0.0099976668 0.58099997
0.066907339 -0.0024109846 0.57999998
0.066907339 0.002455106 0.57999998
0.063992657 0.0095329592 0.583
0.066242777 0.0089997649 0.58366668
0.049948245 0.014993366 0.58399999
0.052838139 0.014249429 0.581375
0.057186775 0.014172622 0.58011109
0.06252297 0.013079637 0.58280003
0.066249475 0.012809146 0.58373338
0.052416727 0.016582221 0.58455551
0.057343502 0.017074613 0.58328575
0.062723055 0.016464094 0.58466667
0.065302826 0.016109714 0.58499998
-0.012029375 0.028948268 0.57999998
0.013772422 0.003774358 0.58899999
0.015611839 0.0037767012 0.5893333
0.0097184638 0.0085094115 0.58733338
0.012600314 0.0076692766 0.58833331
0.015661983 0.0078531457 0.58949995
0.0083634965 0.012034521 0.58676922
0.012458337 0.012342695 0.58743751
0.016584236 0.012667959 0.58884609
0.012448886 0.015070387 0.58700001
0.016874783 0.015479221 0.58866668
0.048728731 0.0189652 0.58899999
0.052169763 0.018743379 0.58672726
0.057805192 0.019209618 0.58640003
0.060783792 0.019083826 0.58700007
0.052970786 0.021714363 0.58907139
0.057574943 0.022284148 0.589625
0.060693681 0.021002397 0.58966666
0.049361445 0.028897375 0.58999997
0.052907944 0.027803274 0.58952636
0.057567406 0.027225479 0.5895499
0.061048605 0.028209878 0.58999997
0.048994791 0.032564033 0.58999997
0.052727211 0.032508601 0.58913022
0.057467986 0.032600626 0.58942103
0.061146818 0.031490229 0.58999997
0.053761318 0.036047358 0.58999997
0.056511238 0.036597356 0.58999997
0.018042881 0.0041544614 0.59100002
0.018351749 0.0072720642 0.59152937
0.021675764 0.0072842371 0.59309083
0.018977739 0.011510248 0.59149998
0.021108577 0.011611645 0.59200001
0.047241449 0.01958053 0.59100002
0.06327197 0.019046165 0.59149998
0.065947838 0.019378677 0.59324998
0.04790169 0.022387967 0.59237492
0.051846672 0.023627454 0.59116668
0.062672779 0.022758335 0.59178573
0.066481702 0.022320932 0.59308332
0.044158973 0.029093292 0.59399998
0.047165155 0.027216977 0.59247816
0.051846672 0.025464205 0.59116668
0.063334554 0.026831355 0.59143746
0.067469329 0.027465621 0.59338886
0.044158973 0.032415658 0.59399998
0.046542585 0.032156903 0.59214288
0.063488431 0.032663241 0.59153849
0.067524739 0.032258704 0.59346145
0.043472212 0.037822738 0.59369993
0.047332373 0.037283212 0.59215999
0.052260909 0.037638828 0.5909999
0.058000892 0.038034946 0.59157145
0.062595345 0.037138741 0.59213042
0.066223763 0.037352916 0.59324992
0.043281123 0.041936632 0.59377772
0.04748166 0.042615838 0.59221739
0.052249555 0.042209707 0.59156251
0.057303943 0.0422762 0.59250009
0.062028095 0.04199028 0.59366661
0.065200053 0.041275296 0.59399998
0.04366678 0.047612395 0.59399992
0.047250558 0.047588088 0.59300017
0.052389912 0.04729899 0.59315008
0.056659799 0.046411537 0.59376913
0.060770355 0.04515139 0.59399998
0.043131944 0.052476581 0.59372717
0.047401316 0.052261718 0.59300011
0.051879682 0.051965941 0.59363627
0.055233229 0.050688669 0.59399998
0.043051545 0.056225948 0.59399992
0.047258619 0.056416199 0.59381241
0.050803527 0.055118486 0.59399998
0.023156803 0.0052918997 0.59500003
0.043432854 0.023754567 0.59619999
0.045342606 0.023041015 0.59500003
0.039235547 0.027998146 0.59660012
0.042427238 0.027321421 0.59561121
0.069746993 0.028032951 0.59500003
0.03965167 0.031744584 0.597
0.042084102 0.032524802 0.59600008
0.041668013 0.037106212 0.59640002
0.039996807 0.042482343 0.59799999
0.041424084 0.043117192 0.59650004
0.06369938 0.0436005 0.59549999
0.038615178 0.047683779 0.59712505
0.041630112 0.047265589 0.59527278
0.058401253 0.048483636 0.59525007
0.062690489 0.047684692 0.59644449
0.03822742 0.052570179 0.59650004
0.041127302 0.052105188 0.59500003
0.053773213 0.053214509 0.59500003
0.057769444 0.052624099 0.59610534
0.061862152 0.052114397 0.59622228
0.034479953 0.057816003 0.59899998
0.037888464 0.057492822 0.59765208
0.042147849 0.058382951 0.59545463
0.047949333 0.059054554 0.59522223
0.052506648 0.057131428 0.5957334
0.057255637 0.056027014 0.59660012
0.032979202 0.063748211 0.59877777
0.037645396 0.062535107 0.59849989
0.042716768 0.06263946 0.59706253
0.04695756 0.061874457 0.59720004
0.05106011 0.060962107 0.597
0.02996286 0.068311155 0.59799999
0.032750066 0.067753688 0.59799987
0.037133843 0.067268364 0.59835291
0.04194098 0.066493981 0.59869999
0.045647427 0.065633439 0.59899998
0.03297301 0.072046302 0.59866667
0.035968948 0.071589582 0.59899998
0.038436461 0.04280407 0.60149997
0.04033123 0.04021433 0.60299999
0.037334047 0.04560747 0.60000002
0.032859601 0.058471847 0.60000002
0.032921746 0.061392751 0.59999996
0.048041541 0.063611954 0.60100001
0.050323576 0.063105181 0.60150003
0.038452659 0.069098942 0.60000002
0.043013826 0.068515658 0.60033333
0.047062337 0.067397781 0.60280001
0.033698559 0.074412487 0.60000002
0.037786558 0.072984442 0.6006667
0.042380646 0.072230242 0.60166675
0.046391115 0.07197997 0.60383338
0.034623861 0.076561503 0.60150003
0.037657809 0.07717827 0.60272735
0.042126074 0.076293379 0.60381824
0.046028458 0.07519009 0.60399997
0.038306698 0.032894589 0.60855556
0.040732536 0.034937371 0.60900003
0.039344061 0.038090616 0.60860002
0.040665653 0.037711095 0.60800004
0.03706469 0.042236689 0.60783333
0.049166199 0.067902252 0.60500002
0.050938666 0.067902252 0.60500002
0.048586115 0.072720274 0.60500002
0.052236661 0.072663568 0.60546666
0.055892102 0.07369744 0.60839999
0.043526534 0.077892788 0.60500002
0.047775559 0.077298976 0.60562491
0.052344527 0.07705722 0.6072858
0.055492621 0.076380238 0.60900003
0.042539772 0.081290454 0.60827279
0.047484662 0.080248669 0.60819995
0.033462025 0.033912953 0.611
0.036392555 0.034283932 0.61000007
0.029571585 0.035738278 0.61299998
0.032422118 0.037447982 0.6128999
0.036720652 0.037740763 0.61026669
0.033607755 0.042070124 0.61366671
0.035804383 0.04219342 0.61071432
0.053877853 0.079348877 0.61000001
0.056948446 0.077870406 0.61000007
0.047196675 0.083010703 0.61183333
0.05247673 0.082574755 0.61215788
0.05656755 0.082332104 0.6124444
0.047744449 0.085974492 0.61400002
0.052765522 0.086540096 0.61384606
0.055948224 0.085592911 0.61400002
0.028463464 0.038366735 0.61600006
0.024051938 0.044671286 0.61799997
0.027454481 0.042860344 0.61679995
0.031861782 0.043100007 0.6153
0.024051938 0.047551788 0.61799997
0.027474228 0.047494229 0.61724991
0.032590311 0.04740347 0.61606258
0.03603274 0.047399301 0.61599994
0.028006757 0.051427703 0.61841667
0.03266212 0.051536422 0.61741668
0.035544857 0.050967589 0.61749995
0.023047987 0.049599059 0.62199998
0.023455117 0.052739307 0.62255555
0.026940174 0.053615198 0.62149996
0.032851923 0.054150492 0.62099999
0.03691848 0.052435372 0.62125003
0.023368271 0.056838438 0.6236667
0.027051546 0.057150416 0.62339997
0.032392759 0.057257742 0.6232999
0.036290765 0.056362193 0.62239999
0.024285454 0.060229022 0.62400001
0.026612168 0.060229022 0.62400001
0.032041162 0.060616817 0.62400001
0.028985256 0.059160296 0.625
0.028223591 0.061718419 0.62533331
0.031322587 0.062004514 0.62514287
0.033289388 0.083125696 0.64833331
0.036748577 0.083412066 0.64679998
0.03899195 0.085236169 0.64600003
0.028326921 0.082128353 0.64999998
0.030144665 0.082128353 0.64999998
0.06795942 -0.052847318 0.85819995
0.070840597 -0.052847318 0.85819995
0.47281033 -0.12662393 0.97399998
0.47553414 -0.12662393 0.97399998
0.46862563 -0.12900689 0.97600001
0.47241652 -0.12915853 0.97600001
0.47833025 -0.12779379 0.97600001
0.48014984 -0.12779379 0.97600001
0.45333833 -0.13927644 0.99299997
0.45518965 -0.13927644 0.99299997
0.44879746 -0.14245927 0.99799997
0.44913727 -0.13969724 0.99599999
0.4519226 -0.13969724 0.99599999
0.3832452 -0.15657394 1.005
0.38761711 -0.15594935 1.005
0.38282582 -0.15238139 1.0062
0.3873764 -0.15235148 1.006
0.39065346 -0.15077692 1.008
0.36138564 -0.14658074 1.005
0.38313639 -0.1488976 1.008
0.38595527 -0.1488976 1.008
0.43820632 -0.14658074 1.005
0.44008002 -0.14658074 1.005
0.39486924 -0.15167442 1.0140001
0.43461141 -0.1568352 1.023
0.41269314 -0.15936317 1.0270001
