# .PCD v0.7 - Point Cloud Data file format
VERSION 0.7
FIELDS x y z
SIZE 4 4 4
TYPE F F F
COUNT 1 1 1
WIDTH 1190
HEIGHT 1
VIEWPOINT 0 0 0 1 0 0 0
POINTS 1190
DATA ascii
0.029919229 0.1732109 0.50848538
0.029798437 0.15679082 0.53759116
0.025196195 0.17721462 0.50030434
0.024640474 0.17658557 0.50118709
0.027983073 0.17330246 0.50810057
0.027713858 0.15615487 0.53830922
0.025105581 0.15224896 0.54432875
0.025029603 0.15177129 0.54545504
0.020276867 0.17473947 0.50406027
0.019885063 0.17293812 0.50676125
0.019978143 0.17066512 0.5115844
0.019865543 0.15768197 0.53433645
0.019636627 0.15438198 0.53973413
0.021162305 0.153218 0.54214841
0.023967933 0.15185839 0.54507816
0.018645868 0.17448653 0.50411916
0.018812418 0.17244895 0.50736552
0.018193647 0.17058493 0.51106298
0.018189199 0.15743221 0.53445077
0.018421162 0.15493344 0.53821659
0.018422268 0.15348017 0.54124403
0.050010201 0.1705253 0.50821507
0.050143395 0.16931584 0.5111624
0.049905755 0.15657188 0.53334808
0.049784794 0.15504 0.53555542
0.046771687 0.17244416 0.50781041
0.047509205 0.17032647 0.51205999
0.046252467 0.16756764 0.51401389
0.046265438 0.15805304 0.5301348
0.04749348 0.15790647 0.5332914
0.046831612 0.1555343 0.53743899
0.04037236 0.17217042 0.50408334
0.041957788 0.17284106 0.50655615
0.041458439 0.1699398 0.51206261
0.042718291 0.16729476 0.51349705
0.043592568 0.15759359 0.52994823
0.04189717 0.15783283 0.53319442
0.04192508 0.15473464 0.53849304
0.039855778 0.15201718 0.53897089
0.037577346 0.17276596 0.50380194
0.036786117 0.1729333 0.50759661
0.03714253 0.16832913 0.51156664
0.037352312 0.15658596 0.53235435
0.037169442 0.15552679 0.53817403
0.036952235 0.15237306 0.53975356
0.031754043 0.17356339 0.50284469
0.032043003 0.17344695 0.50752348
0.031817131 0.16792123 0.51210636
0.031796388 0.15674527 0.53178334
0.032126382 0.1559296 0.53843796
0.031887803 0.15197356 0.54060209
0.02607698 0.17530538 0.49893904
0.026099298 0.17385279 0.50181377
0.02572662 0.17264077 0.50720787
0.027319144 0.16800617 0.51206177
0.02728688 0.15687029 0.53181994
0.026259631 0.15517138 0.53898281
0.026390739 0.1510694 0.54178578
0.025823645 0.1496529 0.54445159
0.024017546 0.17574999 0.49944612
0.022090297 0.17303985 0.50165516
0.022149984 0.17029354 0.50634646
0.021704711 0.16750722 0.51092452
0.021559857 0.15565343 0.53184134
0.021987282 0.15341862 0.53640878
0.022390701 0.15073247 0.54120445
0.023790557 0.15018436 0.54448098
0.018076766 0.17296772 0.50256693
0.018410884 0.17044535 0.50685763
0.017533254 0.16829261 0.5100978
0.017426077 0.15528153 0.53294665
0.018245555 0.15354602 0.53650033
0.017776944 0.15145373 0.54056019
0.050460003 0.1680547 0.50664091
0.050756395 0.16650654 0.50951463
0.050429948 0.15382847 0.53181338
0.050257739 0.15294462 0.5344792
0.04780788 0.16853645 0.50493383
0.049776275 0.16463308 0.51116508
0.047188539 0.16462736 0.51274163
0.046966963 0.15569566 0.52860254
0.049563728 0.15411913 0.52938026
0.048005156 0.15115324 0.53527343
0.040254235 0.17077731 0.50339091
0.042686757 0.16890353 0.50339633
0.040643964 0.16385619 0.5108192
0.042840347 0.16421388 0.51206362
0.043357965 0.1549027 0.5283401
0.041042067 0.15428102 0.52883708
0.04254197 0.1500009 0.53651547
0.039874986 0.15121794 0.53840071
0.037206963 0.16924046 0.5019846
0.037583165 0.16758569 0.50266516
0.037109982 0.16477475 0.51038176
0.037119366 0.15375873 0.52976561
0.03790604 0.14905415 0.53649092
0.036788113 0.14930238 0.53771061
0.032338902 0.16995567 0.50112146
0.032598447 0.16634442 0.50376672
0.032655586 0.16495378 0.5088768
0.032933868 0.15265332 0.5305841
0.03255485 0.14901856 0.53426486
0.032582786 0.14873242 0.53848934
0.027841844 0.17043206 0.50080591
0.027364161 0.16733409 0.50411713
0.027225081 0.165178 0.50838321
0.027340267 0.15230444 0.53110182
0.027369736 0.14986798 0.53498
0.028003622 0.14877944 0.53920406
0.023184981 0.16968067 0.50167882
0.02416357 0.1681623 0.50342715
0.023247264 0.16555294 0.50838488
0.023130797 0.15254976 0.53143072
0.023734987 0.15002219 0.53571779
0.023182556 0.14907119 0.53794217
0.05040494 0.16523939 0.50588685
0.050590634 0.16441882 0.50746912
0.047435354 0.16439225 0.50272131
0.048785713 0.16127406 0.50734401
0.046399254 0.1611715 0.51001126
0.046086676 0.15193386 0.52698344
0.048453934 0.1496858 0.52836835
0.047429353 0.14720798 0.53268993
0.042781983 0.16396452 0.50196528
0.041442119 0.16021772 0.50705391
0.043665048 0.15972251 0.50963253
0.043502424 0.15067655 0.52580941
0.041456908 0.14845262 0.52716374
0.042973213 0.14629081 0.53333473
0.038523734 0.16426185 0.50332725
0.039296664 0.16181745 0.50655496
0.038963113 0.14906807 0.52913046
0.03849804 0.14757054 0.5327692
0.047052544 0.15956658 0.50183952
0.048123248 0.15766478 0.50444692
0.047846548 0.14507893 0.52661443
0.046875641 0.14448561 0.52980578
0.04401461 0.1592062 0.50126368
0.043274544 0.15693595 0.50496143
0.044145897 0.1573806 0.50761312
0.044142611 0.14784704 0.52475357
0.04316796 0.14542609 0.52563691
0.043934561 0.14327271 0.52955461
0.041229282 0.15607563 0.5017336
0.041065019 0.14273849 0.52615023
0.040959619 0.14156303 0.52721274
0.046726584 0.15499441 0.50013065
0.047706451 0.15352637 0.50176197
0.04758466 0.14075071 0.52447623
0.04430645 0.15452661 0.49836743
0.044625789 0.15192261 0.50280517
0.044624731 0.14077628 0.52247989
0.044461623 0.13841291 0.52692032
0.040442448 0.15388136 0.49817562
0.040306292 0.15233251 0.50109273
0.039932683 0.13934313 0.52312201
0.040283315 0.13796209 0.52658874
0.047573105 0.14950955 0.4996241
0.047377281 0.13735142 0.52217913
0.04480486 0.15045433 0.49551353
0.04596439 0.14789572 0.4999674
0.043891892 0.14601244 0.50158721
0.043890201 0.13663724 0.51782644
0.046088614 0.1361082 0.52083874
0.044716269 0.13371499 0.52480251
0.039636787 0.15022154 0.49500075
0.03908075 0.14809357 0.50011843
0.041015431 0.14562225 0.50143349
0.04056336 0.13647684 0.51769942
0.038726494 0.13672005 0.52066743
0.03975543 0.13321614 0.52518493
0.036888268 0.14792648 0.49488696
0.036867067 0.14647427 0.49776012
0.036595482 0.13383125 0.52007997
0.036749408 0.13239893 0.52327561
0.045375705 0.14649358 0.49268162
0.047154985 0.14412369 0.49727112
0.04483214 0.14205842 0.50002038
0.044681139 0.13353713 0.51540297
0.046891306 0.13202883 0.51865023
0.045263521 0.12923703 0.52281547
0.040171891 0.14675172 0.4911316
0.040758759 0.14157593 0.50039619
0.040596198 0.1336152 0.51473945
0.040081434 0.1281193 0.52406681
0.035600051 0.14507023 0.49228209
0.034795512 0.14309083 0.49627057
0.036152095 0.14041878 0.49893263
0.036176212 0.13219431 0.51491326
0.034507666 0.13070288 0.5185082
0.035488788 0.12818028 0.52215981
0.032684963 0.14204569 0.49281618
0.032857444 0.14147007 0.49380565
0.033197142 0.12973611 0.51443291
0.032646272 0.12821366 0.51764518
0.032831438 0.12680808 0.52004915
0.045506015 0.1420006 0.49069983
0.046586074 0.13972934 0.49478668
0.044767797 0.13802986 0.49771836
0.044750735 0.12939888 0.51327825
0.046285175 0.12766582 0.51620775
0.045242611 0.12535991 0.52011055
0.040901586 0.14280148 0.48833254
0.041115284 0.13675812 0.49811003
0.041073862 0.1291416 0.51175451
0.040979885 0.12336145 0.52176106
0.035914894 0.14193901 0.48837849
0.03323606 0.14050108 0.49514455
0.036463216 0.1364665 0.49765101
0.036336958 0.12864189 0.51169437
0.035634875 0.12348628 0.52142709
0.031396341 0.14028735 0.48991787
0.030638628 0.13801077 0.49363464
0.032455325 0.13619252 0.49613577
0.03226288 0.12724318 0.51236397
0.030419987 0.12590754 0.51500255
0.031331073 0.12346851 0.51924407
0.027758613 0.13800855 0.48964605
0.02749056 0.13700525 0.49175137
0.027439147 0.1239142 0.51525754
0.027731523 0.12224378 0.51749313
0.044463336 0.13850832 0.48969755
0.04485653 0.13665733 0.49275309
0.044004213 0.1354163 0.49550423
0.0445408 0.12433111 0.51456726
0.044438396 0.1230188 0.51767045
0.041166432 0.13757324 0.48791167
0.041857298 0.13417564 0.49153984
0.041137476 0.13387361 0.49534336
0.041315746 0.12533441 0.5109176
0.041709535 0.12200189 0.51333976
0.04123608 0.12089868 0.51785845
0.036894836 0.13710867 0.48638922
0.038620729 0.13246182 0.49089441
0.036704276 0.13279827 0.49508029
0.036751427 0.12424645 0.50988215
0.038260445 0.12025896 0.51244283
0.036786053 0.11918111 0.5180127
0.031323638 0.13694745 0.48622194
0.030196747 0.1339388 0.49359903
0.031803034 0.1319204 0.49362308
0.031413916 0.12283117 0.50999916
0.030380124 0.1241129 0.51183522
0.03144392 0.11883242 0.51820612
0.026798438 0.13541541 0.48711625
0.025811762 0.13348646 0.49104381
0.028203193 0.13125059 0.49285746
0.028071783 0.12194562 0.50985324
0.02573923 0.12168559 0.51256543
0.026852809 0.11883803 0.51646763
0.024252437 0.13223819 0.48850653
0.024012089 0.11898997 0.51314288
0.024141505 0.11837414 0.5142011
0.035758644 0.13209035 0.4858211
0.036297578 0.13052571 0.48913515
0.035725623 0.1285131 0.4918384
0.035841685 0.11920866 0.50790191
0.036148176 0.11807628 0.51117456
0.035495017 0.11610328 0.51415098
0.031736515 0.13234678 0.48394501
0.034492251 0.1307755 0.48831451
0.032039706 0.12805885 0.49200657
0.032091416 0.11940825 0.50738084
0.034372821 0.11750181 0.5115571
0.032057211 0.11465235 0.51529843
0.027220944 0.13141829 0.48493797
0.025837716 0.12892468 0.48885304
0.028520413 0.12775557 0.49140829
0.028140336 0.11875898 0.50756192
0.025655799 0.11657935 0.50985181
0.027320052 0.11485846 0.51417232
0.024371874 0.13111526 0.48794216
0.024248984 0.11776422 0.51146698
0.024432112 0.11694272 0.5138436
0.055826277 0.12536953 0.48869231
0.056613997 0.12417559 0.49159291
0.057050794 0.12166868 0.49587309
0.057053596 0.1195247 0.50017512
0.055869192 0.11700023 0.50442094
0.055566903 0.11454878 0.50617385
0.052817494 0.1255659 0.4864203
0.054633141 0.1161174 0.50550735
0.052679978 0.11399482 0.50850779
0.050676513 0.11169857 0.51062602
0.049995054 0.12598337 0.48433292
0.049828004 0.11199652 0.5097087
0.048958115 0.11094855 0.51093334
0.041048601 0.12599106 0.48351404
0.041845232 0.12590533 0.48631209
0.041535031 0.12320532 0.49013561
0.041206531 0.11518356 0.50463301
0.041828237 0.11291631 0.50857061
0.040810555 0.11090282 0.51008701
0.037556004 0.12756716 0.48317984
0.039374184 0.12757735 0.48737699
0.037707031 0.12291373 0.49152562
0.037474904 0.11629871 0.50311375
0.039236054 0.11473296 0.5095821
0.03728215 0.11140439 0.51161748
0.03249228 0.12782148 0.48181498
0.032552496 0.12306686 0.49077553
0.03283048 0.11553884 0.50339907
0.03260389 0.1102694 0.51249146
0.029303847 0.12723045 0.48321143
0.028462704 0.12503657 0.48609212
0.029304549 0.12300047 0.48892173
0.028991798 0.11423602 0.50475025
0.028144514 0.11269669 0.50804681
0.029188745 0.11106059 0.51148611
0.056680281 0.12255823 0.48571303
0.057968911 0.12110788 0.48964426
0.058578331 0.11852548 0.49411789
0.057967532 0.11637174 0.49831125
0.057630599 0.11349335 0.50271493
0.05659809 0.11135098 0.50484705
0.051186819 0.12421773 0.4826597
0.053603608 0.12348052 0.48497218
0.054343108 0.12044264 0.48819733
0.055204716 0.11703022 0.49344578
0.055105984 0.11484003 0.4975639
0.053030565 0.11292484 0.50233781
0.053601556 0.11107828 0.50707084
0.051231697 0.10862587 0.50914782
0.048312478 0.12472645 0.48210734
0.047914248 0.12213394 0.48485067
0.047303069 0.11907504 0.48820153
0.046877373 0.11647546 0.49013752
0.047573827 0.11119844 0.50189722
0.047889203 0.11042407 0.50616723
0.048239838 0.10821739 0.51018798
0.042937223 0.12358876 0.48080003
0.04467538 0.1235787 0.48459727
0.043843798 0.12056108 0.48984122
0.042609636 0.11744352 0.49132189
0.042753272 0.11322133 0.49887902
0.043776814 0.11343216 0.50213611
0.044562407 0.11018507 0.50773579
0.042633854 0.10744129 0.51007318
0.038885266 0.12333207 0.47969452
0.03685613 0.11817259 0.49018526
0.039317973 0.11783227 0.49108472
0.039239909 0.11302055 0.49914148
0.036796086 0.11253862 0.49980062
0.038558125 0.10615943 0.50993294
0.033114694 0.12315589 0.48041037
0.031764485 0.12024838 0.4828797
0.033149309 0.11876288 0.48808378
0.033290308 0.11116761 0.50126064
0.031632639 0.10725584 0.50548166
0.032932341 0.10677083 0.50938964
0.029903205 0.12132744 0.48506793
0.030115316 0.12069361 0.48737302
0.030086068 0.11069012 0.5033018
0.029732581 0.10968368 0.50542498
0.030339962 0.10846622 0.50903565
0.057384033 0.11868064 0.48338351
0.059695203 0.11677381 0.48713547
0.060460057 0.11423416 0.4915652
0.059976812 0.11218609 0.49584615
0.059268489 0.10966111 0.50025868
0.057219163 0.10709284 0.5036658
0.053250685 0.11974411 0.47945145
0.055245884 0.11970237 0.48119354
0.052733496 0.11607253 0.4873344
0.054024957 0.1133431 0.49060303
0.053984478 0.11129498 0.4956404
0.051990397 0.10888714 0.49845171
0.054728642 0.10586333 0.50567585
0.052509286 0.10422187 0.50703287
0.048673581 0.11972769 0.47808275
0.050487265 0.1190972 0.48569727
0.049925525 0.11648316 0.48788661
0.047886394 0.11389767 0.48988196
0.047639064 0.11013362 0.49655765
0.049808912 0.10966867 0.5000841
0.049157362 0.10342258 0.50794262
0.043586634 0.12035507 0.47738531
0.043982103 0.11382364 0.49011722
0.04361669 0.11003938 0.49629125
0.043893151 0.10217202 0.5086022
0.038242847 0.12039703 0.47736794
0.038083456 0.11354816 0.48736405
0.038008183 0.11222085 0.48963019
0.038031295 0.10949695 0.49439618
0.037877142 0.10777901 0.49769154
0.038728498 0.10206699 0.5084008
0.034287479 0.11900268 0.47817412
0.033518523 0.11676557 0.48141485
0.034112364 0.11488959 0.48617643
0.034176044 0.11227681 0.49052653
0.035016667 0.10974666 0.49485001
0.033781543 0.10684462 0.4993847
0.033201184 0.10414291 0.50343889
0.034943756 0.10313789 0.50718719
0.061969444 0.10979385 0.48978785
0.062084924 0.10670955 0.4922612
0.058126688 0.11417191 0.48100027
0.060529694 0.11221465 0.48469537
0.061251137 0.11032693 0.48877507
0.061048605 0.10827714 0.49358177
0.060569499 0.10428981 0.49811971
0.058302257 0.10252933 0.50176775
0.053486213 0.11572886 0.47736108
0.05569211 0.11502443 0.4785656
0.05252371 0.11232171 0.48730206
0.05276024 0.10906154 0.48874295
0.052635327 0.10696652 0.49294004
0.055936828 0.10143858 0.50368911
0.053695068 0.099832051 0.50463623
0.049591668 0.1160695 0.47641376
0.049236886 0.10900205 0.48814261
0.049584821 0.10597214 0.49316826
0.049436044 0.098942801 0.5057655
0.044226348 0.11535221 0.47543809
0.044494089 0.10854894 0.4867681
0.044602096 0.10509548 0.49376795
0.042503614 0.10269672 0.49369469
0.043995466 0.098234698 0.506271
0.039592959 0.1152997 0.47568107
0.0375905 0.11163428 0.47777396
0.040076237 0.10990435 0.48499182
0.039261986 0.10751782 0.4883787
0.038460385 0.10529327 0.4924362
0.040092826 0.10409832 0.49532843
0.038166352 0.098097205 0.50202227
0.039580032 0.098410264 0.50526655
0.036118984 0.11512363 0.47747704
0.036015198 0.11313297 0.47977981
0.036016032 0.11033368 0.48391819
0.036218483 0.10833158 0.48752877
0.036591303 0.1058567 0.49223784
0.035544805 0.10290658 0.49669132
0.036180928 0.10071204 0.50062853
0.035876818 0.10040419 0.50414038
0.063027382 0.10540988 0.48300475
0.062762201 0.10516451 0.4866645
0.062713869 0.10330724 0.48982441
0.062659949 0.10015757 0.49279895
0.059023276 0.10950065 0.4786939
0.060892515 0.10850759 0.48207322
0.061981007 0.10569149 0.48672718
0.062004674 0.10206567 0.49181318
0.061248098 0.10074848 0.49554944
0.058845527 0.09828493 0.49931529
0.053341702 0.1111595 0.47496727
0.055795331 0.11046086 0.47617665
0.056449346 0.096525878 0.50099951
0.053855419 0.095989868 0.50215864
0.049777392 0.11104544 0.47443387
0.049215317 0.10466356 0.48717004
0.049050689 0.10302378 0.49012592
0.049767151 0.094955891 0.50266963
0.04514505 0.1104366 0.47414637
0.042757358 0.10837055 0.47434071
0.044718962 0.10461543 0.48595074
0.044954509 0.10200379 0.49059117
0.044723861 0.094246015 0.50225151
0.04095985 0.1110934 0.47492087
0.039579961 0.10847573 0.47647408
0.038070716 0.10593371 0.48091239
0.038398884 0.1030844 0.4856829
0.037757009 0.10070974 0.48964307
0.038313285 0.097306453 0.49388936
0.039456002 0.095550232 0.49843258
0.040724404 0.095097214 0.50199193
0.036936074 0.10680613 0.48110434
0.037008822 0.10433672 0.48491687
0.037310518 0.10007788 0.49010739
0.036843941 0.099327825 0.49460724
0.037159041 0.098247111 0.4976142
0.063317731 0.10503648 0.47685772
0.064125344 0.10384615 0.48003024
0.064907715 0.1016895 0.48435667
0.064553447 0.099247232 0.48882779
0.064005062 0.096604675 0.49287599
0.063288495 0.094978049 0.49571547
0.060468614 0.10626183 0.4754732
0.062422816 0.10559265 0.47887787
0.062516488 0.1005866 0.49056649
0.062114853 0.097479478 0.49482909
0.060385782 0.093850121 0.49752587
0.054833066 0.10695581 0.47237822
0.056002196 0.10712817 0.47376826
0.055926204 0.094075292 0.49934211
0.055077028 0.091357812 0.49950305
0.050380513 0.10664742 0.47219157
0.050138105 0.091304272 0.49988347
0.04695107 0.10634957 0.47241777
0.044636682 0.10487704 0.47322935
0.044363156 0.091059558 0.49720177
0.046486147 0.091302514 0.49951193
0.041563246 0.10354062 0.47538897
0.039762501 0.10162283 0.47853294
0.0385908 0.099819735 0.48278797
0.038534276 0.097141489 0.48801973
0.039663956 0.093825817 0.49193832
0.041483425 0.092634305 0.49559206
0.03779304 0.097407863 0.48283345
0.037748139 0.09568958 0.48674056
0.038041111 0.093747273 0.48932588
0.064233229 0.10029407 0.47854692
0.064732917 0.097246245 0.48201892
0.064965583 0.094912514 0.48621175
0.064141713 0.093413845 0.49052185
0.059796631 0.10192643 0.47378784
0.062067933 0.099266902 0.47651395
0.063416727 0.096357405 0.47939989
0.063431934 0.092048466 0.48692989
0.062354043 0.091285229 0.49069482
0.059967909 0.089986697 0.49409744
0.05847289 0.089806125 0.49789485
0.055372544 0.10380507 0.47094744
0.056219589 0.10122198 0.47231206
0.056579784 0.087944962 0.49411777
0.055298861 0.088473484 0.49774596
0.050652917 0.10361071 0.47095352
0.051200666 0.10024065 0.47124586
0.050923891 0.086887553 0.49414268
0.051535737 0.088101253 0.49744481
0.047830582 0.10306696 0.47076812
0.046070516 0.10030406 0.47190234
0.04447297 0.096958756 0.47490725
0.044429414 0.088377163 0.48976031
0.046126544 0.087145992 0.49387592
0.047183089 0.08847709 0.49763095
0.042326577 0.099972412 0.47339502
0.04095424 0.097725376 0.47668242
0.040752128 0.095007032 0.48065686
0.040785022 0.092364982 0.4852336
0.040846016 0.090280242 0.48939446
0.042241789 0.08839795 0.49312231
0.037968874 0.09656179 0.48116994
0.038005289 0.094036609 0.48579529
0.038283974 0.092361547 0.48893869
-0.010241002 0.087532014 0.47712216
-0.010212757 0.085910454 0.48059458
-0.013665833 0.087411501 0.47732985
-0.01348757 0.085800603 0.4805744
-0.016515821 0.086512811 0.47791916
-0.016594693 0.085746042 0.47961661
0.064845808 0.092271611 0.48063084
0.064890966 0.09131974 0.48301056
0.059172992 0.097867288 0.47312453
0.061209977 0.095026948 0.47487244
0.063300252 0.093393184 0.4781442
0.063352555 0.089182526 0.48479301
0.061514854 0.087771282 0.48775443
0.059274048 0.086742535 0.49071196
0.056201808 0.097024404 0.47202715
0.057177603 0.094030812 0.47211412
0.057170697 0.084628873 0.48883748
0.056189228 0.085934639 0.49116316
0.051571954 0.097123154 0.47188199
0.051212501 0.093579628 0.47270811
0.051167466 0.084972084 0.48813319
0.05167374 0.085910738 0.49126807
0.047986809 0.097168311 0.47249454
0.046636879 0.093646266 0.47440952
0.044878259 0.08931008 0.47779095
0.044815566 0.08695896 0.48182276
0.046728704 0.086366549 0.48714295
0.047515318 0.086653024 0.49096796
0.04345452 0.093896605 0.47644266
0.043081611 0.091506295 0.47886729
0.043217659 0.089055791 0.4826569
0.043459415 0.088269725 0.48668641
0.02468235 0.09359087 0.46451145
0.024915796 0.092954352 0.465305
0.024898864 0.078273304 0.49108002
0.024833359 0.077928789 0.49213731
0.022283021 0.093698442 0.46439004
0.021558516 0.092118211 0.46695647
0.019840799 0.080264166 0.48671573
0.021634299 0.079221822 0.48971674
0.02223444 0.077866748 0.49228889
0.018575195 0.092726067 0.46469694
0.017097611 0.091405988 0.46755892
0.016456213 0.089723587 0.47021562
0.016451448 0.080823682 0.4859482
0.017043706 0.079366937 0.48877937
0.018680941 0.077644445 0.49135649
0.012952439 0.090368137 0.46806577
0.01182903 0.088665172 0.4713732
0.010101002 0.086830705 0.47339559
0.010544974 0.081775025 0.48163095
0.011797585 0.081275553 0.4845207
0.012849778 0.079380035 0.48765922
0.0078085102 0.087335311 0.47259063
0.0065920651 0.086392596 0.47500527
0.0065524951 0.083096787 0.4805871
0.0080563091 0.081385903 0.48318911
0.0016939305 0.08610449 0.4725762
0.0020839348 0.085576698 0.47566006
0.0024140254 0.083031617 0.479633
0.0020310432 0.080940321 0.4817268
-0.00064244494 0.08560919 0.4724912
-0.0031334572 0.085686691 0.47523749
-0.0033742934 0.082924142 0.47947094
-0.00087873638 0.080810882 0.48150119
-0.008342579 0.085367739 0.47598457
-0.0082677603 0.083378777 0.47921699
-0.012819193 0.08638645 0.47670162
-0.012949474 0.084777117 0.47973296
-0.016390875 0.085851684 0.47715318
-0.016386263 0.084916972 0.47926128
0.065111704 0.087748855 0.47798875
0.06518878 0.086775899 0.4801538
0.060806777 0.090230174 0.47302926
0.063299343 0.088837244 0.47605258
0.063164517 0.085091874 0.48215801
0.061004873 0.083883002 0.48488036
0.055593047 0.090031922 0.46853805
0.057537328 0.090586349 0.4708657
0.057525165 0.082061842 0.48649108
0.055544421 0.079797328 0.48689815
0.05208965 0.090244874 0.46821868
0.051588804 0.091043413 0.47135708
0.051595695 0.082406454 0.48646134
0.052055448 0.079423338 0.48730329
0.04935275 0.089673355 0.46870869
0.047474504 0.088826537 0.47196427
0.045307104 0.08839649 0.47534084
0.04527574 0.084487468 0.48246515
0.047348961 0.081874408 0.48424062
0.049413748 0.079463482 0.48659638
0.044423863 0.086651728 0.47175533
0.043558076 0.086165339 0.47584346
0.043628737 0.083946198 0.4802115
0.044324689 0.080651514 0.48238257
0.026530752 0.09165591 0.4619821
0.025568318 0.090674289 0.46511233
0.025635175 0.076912768 0.48920897
0.026581246 0.074761681 0.49184525
0.022049595 0.092210531 0.46130446
0.023228519 0.089301087 0.46697146
0.021267526 0.086922668 0.46895552
0.021454033 0.078276202 0.48435223
0.023442067 0.077844068 0.48741618
0.022181153 0.074438944 0.4926194
0.017405294 0.090345621 0.46204418
0.015398514 0.090814918 0.46476081
0.017496675 0.086266436 0.47066978
0.017432094 0.079499662 0.48247513
0.015583538 0.076587677 0.48984301
0.017436475 0.074038364 0.49069616
0.014716063 0.088275991 0.4624534
0.012320742 0.088032395 0.46510389
0.01344322 0.086108148 0.47171625
0.011564378 0.084233232 0.47263119
0.011832114 0.080077797 0.4799774
0.013498005 0.08072418 0.48218659
0.012416206 0.075640261 0.48745051
0.014833916 0.073571824 0.48893496
0.0097153299 0.086026646 0.46661815
0.0071668029 0.085274935 0.46961188
0.007302817 0.082430527 0.47472426
0.0075307451 0.081018575 0.47752371
0.0069896579 0.077817053 0.48284787
0.0095250122 0.076113567 0.48500288
0.0022823624 0.084011346 0.4704282
0.0031649098 0.080763176 0.47540799
0.0027316324 0.080507264 0.47561276
0.0023211241 0.077936374 0.48132697
-0.0024501644 0.083179086 0.47000504
-0.0030107014 0.081709042 0.47417757
-0.0031268485 0.079963982 0.47674912
-0.00235774 0.077326037 0.48063287
-0.0071637481 0.082324937 0.46971211
-0.0078471676 0.081994966 0.4738889
-0.0076909885 0.079581849 0.47663683
-0.0074676722 0.076827794 0.48000148
-0.010282733 0.081360281 0.47004536
-0.012715772 0.080421746 0.47279406
-0.012830213 0.078525968 0.47691604
-0.010767445 0.076421201 0.47944558
-0.01736857 0.079799727 0.47284079
-0.01744242 0.078449942 0.47647476
-0.021326475 0.079288803 0.47262475
-0.021463528 0.077962063 0.47633958
0.065850638 0.083459668 0.47542027
0.065764368 0.082186379 0.47799507
0.060967956 0.086355217 0.46659726
0.061925832 0.085807398 0.47060931
0.063616633 0.085116908 0.47346944
0.063731812 0.08138939 0.48014328
0.061840646 0.079063818 0.4825131
0.060782023 0.076217525 0.48505083
0.057661433 0.08747182 0.46622434
0.059275165 0.088191763 0.46957451
0.059394356 0.079612419 0.48480505
0.057721298 0.076350801 0.48596475
0.052335214 0.08784081 0.46594754
0.049982052 0.088374518 0.46842274
0.050189145 0.078503519 0.48569456
0.052455798 0.076005876 0.48644775
0.048262835 0.086195692 0.46588558
0.046551835 0.086449884 0.46841237
0.046479993 0.077609539 0.48400319
0.048343636 0.07532502 0.48505268
0.043620981 0.084080882 0.46892515
0.041974071 0.082374223 0.47331327
0.041992582 0.079838 0.47806337
0.043727018 0.076949827 0.48195183
0.040331498 0.079813749 0.47211719
0.040438198 0.077942342 0.47623727
0.031084459 0.08767987 0.45564672
0.031627212 0.087359242 0.45838496
0.030916169 0.070404276 0.48658013
0.031495459 0.069597393 0.48962802
0.031142134 0.06745562 0.49135241
0.02790916 0.088125587 0.4554818
0.028575404 0.088762127 0.4589031
0.027129347 0.085345775 0.46307719
0.027517209 0.07234817 0.48586121
0.028508188 0.070602939 0.49083146
0.028001232 0.067461647 0.49203166
0.024638474 0.088443205 0.45633033
0.022189092 0.087434173 0.45887631
0.022559799 0.084308736 0.46358299
0.021234792 0.084154442 0.46672496
0.02124504 0.074977487 0.48278192
0.022626869 0.072216041 0.48476532
0.022256147 0.069916114 0.49002048
0.024784472 0.068079107 0.49189878
0.01769739 0.08738859 0.4599885
0.018520482 0.08369308 0.46267971
0.017569736 0.082679316 0.46753621
0.017200716 0.075006224 0.48096442
0.018475421 0.071212471 0.48467812
0.017734904 0.070837453 0.48928329
0.015034549 0.086759314 0.46140262
0.013190988 0.084486492 0.46350655
0.012804709 0.081775032 0.46719906
0.011043947 0.081460096 0.47086027
0.011801332 0.077049769 0.47873294
0.012870327 0.074268028 0.48053265
0.013179161 0.072348326 0.48499691
0.015052535 0.072013192 0.48825839
0.0080497563 0.081685975 0.46858606
0.0071477741 0.079364166 0.47105697
0.0072287358 0.076407269 0.47659376
0.0075195394 0.075232089 0.47974083
0.0097769238 0.074277952 0.48347184
0.0029658936 0.079705186 0.4680528
0.0038667396 0.07748729 0.4728989
0.0037923008 0.076841123 0.47409442
0.0029745251 0.073322266 0.47888908
-0.002042789 0.079230621 0.4678244
-0.0025466904 0.076661892 0.47239277
-0.0023086816 0.075878814 0.47384426
-0.0019495487 0.072950736 0.47876328
-0.0057175308 0.078697756 0.4681249
-0.0074164346 0.077708423 0.46981671
-0.0069220215 0.075199679 0.47305688
-0.0066579878 0.072987713 0.47811997
-0.010710344 0.076587401 0.47068772
-0.010941982 0.073896125 0.47500041
-0.0097930059 0.071442649 0.47642228
0.066330627 0.079543017 0.47244602
0.066490881 0.077607349 0.47588712
0.061468825 0.083253473 0.46506113
0.063393511 0.08206401 0.46740612
0.065080501 0.081389017 0.47061548
0.065203547 0.076769538 0.47849184
0.063333936 0.07442008 0.48079851
0.061280847 0.073092267 0.48309791
0.05854344 0.083644673 0.4636502
0.060427692 0.074936673 0.4835155
0.058516692 0.072213963 0.48407236
0.05331216 0.084158495 0.46194646
0.053696416 0.070724286 0.48516765
0.048762895 0.082676813 0.45906511
0.047604978 0.083581783 0.46210346
0.047756597 0.070647329 0.48488426
0.04808224 0.067618944 0.4855175
0.043882586 0.081194356 0.46281439
0.042148571 0.081502356 0.46634373
0.042343926 0.07336092 0.4810603
0.043964699 0.070296913 0.48243627
0.036519594 0.08429841 0.45376885
0.036825344 0.083930507 0.45637175
0.040892392 0.079225034 0.46295768
0.038816843 0.079039663 0.46581221
0.038177356 0.076796852 0.47093844
0.038196892 0.07475742 0.47492948
0.03880246 0.071625568 0.47904181
0.038565516 0.068053298 0.48244435
0.036725622 0.065977536 0.48738661
0.036223114 0.063906386 0.4890798
0.032855961 0.086143121 0.45348364
0.034001887 0.085381456 0.45765707
0.032897718 0.081338525 0.46026203
0.036072761 0.076327428 0.46663886
0.035903901 0.070579708 0.47646597
0.032861836 0.068234116 0.48365575
0.03428486 0.067530908 0.48869947
0.032835968 0.064790279 0.49107701
0.02887632 0.086065963 0.45350537
0.026718896 0.082922958 0.45528167
0.028450137 0.080994606 0.46204349
0.028682964 0.069306992 0.48243743
0.026896244 0.064445056 0.48778766
0.028919365 0.064802073 0.49128941
0.025323484 0.086334795 0.45518526
0.024089184 0.08311373 0.45771974
0.024223924 0.081148557 0.4608967
0.024211895 0.068217248 0.48342803
0.023877669 0.067003548 0.48688343
0.025310721 0.066320166 0.49083996
0.0026674159 0.075599775 0.46610463
0.0040870383 0.073504023 0.4686853
0.0038155392 0.071235903 0.47263283
0.0025943108 0.069801308 0.47644636
0.00051280111 0.074769013 0.46625036
-0.0022976547 0.073394999 0.46785316
-0.0028453358 0.070820458 0.47182336
-0.0013050623 0.069303654 0.47561994
-0.0062123165 0.075743735 0.46686363
-0.0060876459 0.072449505 0.46785527
-0.0059544891 0.070418194 0.47245029
-0.0064324513 0.06965436 0.47591913
-0.011393353 0.072163038 0.46792522
-0.011874132 0.070079409 0.47250336
-0.011068076 0.069402486 0.475418
-0.016043775 0.070814542 0.46757701
-0.016427316 0.069068991 0.47189125
-0.02047012 0.069859557 0.46707377
-0.020707518 0.067909442 0.47115999
0.067231871 0.075608648 0.47028148
0.067409322 0.073526263 0.47402522
0.061387345 0.079520121 0.46318549
0.063565411 0.077825882 0.46497121
0.065502703 0.076149344 0.46816495
0.065644786 0.071783051 0.47530654
0.063553669 0.070171081 0.47828272
0.061385527 0.068492956 0.4800764
0.057180341 0.080110475 0.45695713
0.058927681 0.079384565 0.46088794
0.061534975 0.066957831 0.47898841
0.058934271 0.06762109 0.48180208
0.057170738 0.064449027 0.48441479
0.053802025 0.080822408 0.45596707
0.054609898 0.081642091 0.45955718
0.054390948 0.067563817 0.48443311
0.053959548 0.064068966 0.48553061
0.048857689 0.080767572 0.45646867
0.049053837 0.06450624 0.48528466
0.041948877 0.080492169 0.45101178
0.043418765 0.078692883 0.45546195
0.043419141 0.078080103 0.45942363
0.04344045 0.065422624 0.48160088
0.043673731 0.062408324 0.48420602
0.042200536 0.059712317 0.48758462
0.038507007 0.082039304 0.45076153
0.039527956 0.081068598 0.45584014
0.039097562 0.07713569 0.45937404
0.038373202 0.077452153 0.46283674
0.036707304 0.072191171 0.46996489
0.036873519 0.07125444 0.47065991
0.038374238 0.067875966 0.47925493
0.03906339 0.065136053 0.48088139
0.039633546 0.063592412 0.48616987
0.03862131 0.060297485 0.48913664
0.033978835 0.081982628 0.45096049
0.034131333 0.077121064 0.45876214
0.035451867 0.074500516 0.4633998
0.03587959 0.072013952 0.46753472
0.035762884 0.069436163 0.47235826
0.035339646 0.067253932 0.47703165
0.034138698 0.064751402 0.48082331
0.034067258 0.060634609 0.48910242
0.030602673 0.080799907 0.4518699
0.028954066 0.079023875 0.45449615
0.028818667 0.07707312 0.45845312
0.028960004 0.064045265 0.48100132
0.028954813 0.061984144 0.48509353
0.030858666 0.060618959 0.48781267
0.025866203 0.079933316 0.457066
0.02587248 0.078620151 0.45848116
0.022254925 0.068910658 0.46704251
0.022129036 0.067770958 0.46921653
0.026016682 0.06486737 0.48234603
0.025889419 0.064428627 0.48441043
0.018038895 0.070176333 0.46608201
0.01800203 0.067778118 0.47018155
0.015612558 0.069468983 0.46645895
0.015847154 0.067462012 0.46972746
0.0019523241 0.072378471 0.46477503
0.0025447682 0.069815263 0.46594483
0.0024276711 0.067409568 0.47097808
0.0018571727 0.066958435 0.47361064
0.00093527138 0.071761638 0.46459869
-0.001005061 0.068490006 0.46604872
-0.0011039712 0.066160284 0.46994859
-0.00020184368 0.066573784 0.47353181
-0.0037541017 0.066155702 0.46617651
-0.0037923306 0.064957649 0.46944866
-0.016813368 0.068829581 0.46607697
-0.018470794 0.06649714 0.47088456
-0.020318381 0.067836598 0.46587604
-0.020694084 0.066318333 0.47018775
0.067386076 0.071975276 0.46937424
0.067437023 0.070711538 0.47148111
0.0631928 0.073806137 0.46342927
0.064648405 0.071077511 0.46682999
0.064932436 0.068213001 0.47149974
0.063087396 0.066735618 0.47577012
0.057314023 0.078132696 0.45638877
0.058996711 0.075456239 0.45806456
0.061047554 0.072886087 0.46110034
0.060882382 0.06434498 0.47639787
0.058957271 0.063153729 0.47990021
0.057594534 0.063273266 0.48311478
0.053807773 0.077017918 0.45443344
0.055502981 0.074672684 0.45553899
0.055497061 0.060636193 0.48062623
0.053798735 0.060880244 0.48318234
0.047988184 0.07598795 0.44965798
0.049996663 0.077098288 0.45185873
0.049925935 0.058716387 0.48458338
0.047799643 0.05639923 0.48485288
0.043593362 0.077849694 0.44888723
0.044985075 0.077710412 0.45284218
0.042092688 0.075583182 0.4583233
0.042013675 0.063421242 0.47977525
0.045105685 0.059979301 0.48452711
0.043923993 0.056610942 0.48665631
0.039339356 0.078752249 0.44745958
0.039611574 0.074323431 0.4581258
0.037101187 0.065955944 0.46767837
0.03949143 0.062489197 0.47883764
0.039491229 0.055808656 0.48834798
0.034537695 0.077826619 0.44784525
0.034154758 0.072911367 0.45790818
0.035116948 0.070240587 0.46082664
0.035587095 0.067901671 0.46561754
0.035434701 0.065571234 0.46972585
0.034858793 0.062665626 0.47403342
0.034432109 0.061732907 0.47779214
0.034368705 0.05564471 0.48737651
0.031212024 0.076910689 0.44940862
0.030340968 0.07505963 0.45190874
0.030892679 0.073517159 0.45557737
0.027688609 0.065294981 0.4646216
0.02775877 0.063871965 0.4675051
0.030871872 0.06001826 0.47969538
0.030438986 0.057596967 0.48280552
0.031329602 0.056364052 0.48565045
0.023206573 0.067774713 0.46171439
0.025146682 0.066925935 0.4646042
0.024727203 0.064419143 0.46913773
0.02303721 0.061468221 0.47055817
0.019633107 0.068333536 0.46125823
0.019048907 0.069127336 0.46361247
0.019432977 0.064544089 0.47082901
0.019625202 0.061288163 0.47152683
0.014275767 0.067707337 0.45949298
0.013800602 0.066798411 0.46415085
0.013940368 0.064045392 0.46897513
0.014470451 0.060695041 0.4722487
0.012166541 0.065606698 0.46007243
0.011240248 0.064329334 0.46426156
0.011543225 0.062214263 0.46760038
0.012112372 0.06046186 0.47064018
-0.0014222972 0.064859867 0.46451047
-0.0013987981 0.062828504 0.46794584
-0.0050926507 0.063369356 0.4638074
-0.0052968562 0.061802838 0.46719864
-0.0081379488 0.061781809 0.46366221
-0.0084159151 0.060263731 0.46667445
0.06297338 0.066814773 0.4660022
0.063335642 0.065130211 0.46861154
0.058475606 0.070958473 0.4569073
0.059638787 0.068642765 0.45975915
0.061300766 0.065887183 0.46364301
0.06145858 0.06240657 0.46914876
0.059675924 0.061097156 0.47313112
0.058435932 0.059847046 0.47655651
0.052847013 0.073076554 0.45325562
0.05512109 0.070665456 0.45485774
0.057143897 0.06712798 0.45738736
0.057047099 0.058262907 0.47310469
0.055075843 0.057870492 0.47733393
0.052880418 0.057874959 0.48033148
0.048001423 0.074707821 0.44870949
0.050302643 0.072736487 0.45057514
0.052468967 0.069740571 0.45278472
0.052246172 0.055641189 0.47808376
0.0503834 0.055332642 0.48143521
0.047963176 0.054471727 0.48417175
0.044864312 0.074528456 0.4478474
0.044828076 0.071126536 0.44897971
0.044804245 0.052983794 0.48093745
0.045063302 0.053816095 0.48459172
0.039742701 0.073635109 0.44637892
0.041731045 0.069958344 0.44895771
0.038327537 0.066988468 0.4537285
0.039164111 0.065442167 0.45902628
0.038109578 0.064418621 0.46077693
0.037731208 0.059602968 0.46929809
0.038874593 0.058505431 0.47089544
0.038281031 0.054653212 0.47526339
0.041539557 0.052240938 0.48027262
0.039739948 0.052026026 0.48445448
0.03530708 0.073128022 0.44674313
0.034287572 0.069693938 0.44909942
0.034943067 0.068075791 0.45403174
0.036260985 0.067663923 0.45926872
0.034940258 0.064486578 0.46266446
0.034519222 0.061222535 0.46817851
0.036358602 0.059940401 0.47237459
0.03488173 0.055665784 0.47585335
0.034355007 0.052419931 0.47982284
0.035505868 0.052019991 0.48390555
0.032052416 0.074209973 0.44859123
0.031957418 0.071740031 0.45042861
0.031908818 0.070365623 0.45332745
0.028656738 0.06298399 0.45909151
0.030074906 0.063149609 0.46263096
0.030230155 0.060638938 0.46702361
0.02861163 0.05774717 0.46855468
0.032010525 0.056537539 0.47803998
0.032055736 0.054539517 0.48088467
0.024984132 0.064344764 0.45872858
0.02678632 0.064545624 0.46152669
0.026572147 0.060588825 0.46843374
0.024872541 0.0579606 0.46969056
0.02010522 0.065071292 0.45702964
0.020006433 0.057330206 0.47084343
0.01548107 0.066435173 0.45594078
0.01537868 0.065394931 0.45631805
0.015015319 0.05711285 0.47109991
0.011664335 0.063188478 0.45811531
0.0094500482 0.061145317 0.46150663
0.0097816102 0.058540717 0.46591648
0.011845332 0.057572316 0.46909562
-0.005746007 0.060341496 0.46259692
-0.0060861632 0.058928467 0.46514612
-0.0078469738 0.059638284 0.4621315
-0.0082004592 0.058115222 0.46526676
0.057842329 0.065128624 0.46030399
0.060065135 0.063051783 0.46383107
0.060328804 0.061367214 0.46672553
0.058343075 0.059888247 0.46973181
0.054142937 0.067293897 0.45459798
0.055145744 0.064784572 0.45766965
0.055602785 0.061013423 0.46189144
0.055549599 0.058489602 0.46582907
0.055117518 0.05729232 0.47111434
0.053936332 0.05583901 0.47446957
0.049081724 0.068523213 0.45004064
0.050402027 0.066262648 0.45273218
0.050545231 0.062607646 0.45648894
0.050906356 0.059361748 0.4606218
0.050889645 0.056837745 0.46474272
0.050508399 0.05519715 0.46984491
0.050356857 0.053855449 0.47465461
0.049026631 0.052558098 0.47825664
0.046082586 0.068161681 0.44978857
0.045793936 0.064768545 0.45226282
0.046146747 0.061651595 0.4547936
0.047271907 0.057228751 0.46185052
0.048324876 0.056837533 0.46283877
0.046321467 0.053304777 0.46950081
0.045790914 0.052541353 0.47401336
0.045989171 0.052113004 0.47824156
0.038391761 0.07036154 0.44640711
0.040025309 0.068772003 0.44906563
0.040528178 0.065607451 0.45242512
0.039989442 0.062064886 0.45659938
0.039425667 0.058715075 0.45762041
0.039226748 0.054250434 0.46550292
0.040071648 0.054528192 0.46944207
0.040405147 0.053092115 0.47434527
0.040187798 0.052053109 0.47853807
0.038304549 0.050525259 0.4815661
0.03705024 0.070371784 0.4463909
0.036496367 0.068935707 0.44800887
0.037176076 0.06103405 0.45828581
0.035405964 0.059520546 0.45859918
0.035627484 0.055154454 0.46550545
0.037104301 0.055634167 0.46762177
0.036631517 0.051088333 0.47993323
0.030337609 0.059895594 0.45731658
0.031996749 0.060330287 0.45857605
0.031351596 0.056344762 0.46707794
0.030502686 0.054266602 0.46700311
0.024850342 0.060980525 0.45485196
0.024894599 0.053299785 0.46907699
0.021552853 0.060326796 0.45409018
0.021499332 0.052325521 0.46893466
0.015957344 0.05992363 0.4546915
0.015794497 0.052627549 0.46790218
0.011237409 0.059046041 0.45546606
0.0087594092 0.057109576 0.45826703
0.0089834593 0.05373973 0.4642714
0.011327676 0.052384719 0.46681923
0.0082605667 0.055525377 0.45970932
0.0082460754 0.054503318 0.46204358
0.048803825 0.058353819 0.45984948
0.048732754 0.055779546 0.46445554
0.045774397 0.05978037 0.45649433
0.045937024 0.058031455 0.45933774
0.045908011 0.055202808 0.46435359
0.045474038 0.053612418 0.46738401
0.042814501 0.059372526 0.45651498
0.041038863 0.057193629 0.45976663
0.041097019 0.055156834 0.46339896
0.042764951 0.053492516 0.46692622
0.035876296 0.056346241 0.45914292
0.035610653 0.054125238 0.46277907
0.030354027 0.056464031 0.45529622
0.032413803 0.054597788 0.45718613
0.032551266 0.051825631 0.46264696
0.030250372 0.050877914 0.46518362
0.024066292 0.056263983 0.45006099
0.025300622 0.05700317 0.45253357
0.025479976 0.049127478 0.4669486
0.02402984 0.047412261 0.46832189
0.023493454 0.056878265 0.45045012
0.02179591 0.056740411 0.45226228
0.021716908 0.048580378 0.46703619
0.023372114 0.04744079 0.46842593
0.016308036 0.055294011 0.45291668
0.016376175 0.048560113 0.4653419
0.01191071 0.054628156 0.45338529
0.0096285753 0.052437749 0.45642397
0.0097368099 0.049733985 0.46112752
0.012095697 0.048302963 0.46426746
0.0085961856 0.053963762 0.45836869
0.0085989572 0.052666612 0.46045688
0.030243019 0.050850868 0.45634305
0.030214522 0.048922077 0.4599342
0.025916189 0.051917911 0.45222408
0.027403548 0.048911624 0.454373
0.027489157 0.046239175 0.4594335
0.026014544 0.045976445 0.46293175
0.021895152 0.05143619 0.45095983
0.024590153 0.043930005 0.45976731
0.021795332 0.044508815 0.46334365
0.017105039 0.050780784 0.45142055
0.015285797 0.047984872 0.45187208
0.014957774 0.043627955 0.45981744
0.016970534 0.044537313 0.46243891
0.013302758 0.051059399 0.4524211
0.012244843 0.048341941 0.45419914
0.012164056 0.045892499 0.45854828
0.013569325 0.045509152 0.46197751
0.025394946 0.046145793 0.45464638
0.025711283 0.045158662 0.45683479
0.022251446 0.048224993 0.45102203
0.021293461 0.043982789 0.45281455
0.02127922 0.042131018 0.45570353
0.021339681 0.04248549 0.46008721
0.019255701 0.047747269 0.45074913
0.017606575 0.043384627 0.45258874
0.017236304 0.041528095 0.45566159
0.018548276 0.042346556 0.45994806
0.014230035 0.045278996 0.45411798
0.014431246 0.043810837 0.45638847
0.037113972 0.036985215 0.45484567
0.037381615 0.036072992 0.4560771
0.035265036 0.036931589 0.45433819
0.020584367 0.040233541 0.4521116
0.020636316 0.039391268 0.45296484
0.018278964 0.039774094 0.4511593
0.018098902 0.038535234 0.45345378
0.015173592 0.039639361 0.45205331
0.015262458 0.039158642 0.45283324
0.041764144 0.035508197 0.45464805
0.041859869 0.034800101 0.45566401
0.03822938 0.035367846 0.45325318
0.038489114 0.034610402 0.45584524
0.032742843 0.035545185 0.44928998
0.033533029 0.034978461 0.45259947
0.035134442 0.033989802 0.45519042
0.029501986 0.034520276 0.44797468
0.030160023 0.033522736 0.45094511
0.022974271 0.034978542 0.44789034
0.022301544 0.03398953 0.44984689
0.018849533 0.035401687 0.44806853
0.01893346 0.034284815 0.45050785
0.032447141 0.032911502 0.44761905
0.033239342 0.0318176 0.44997492
0.028916759 0.032147445 0.44604689
0.029154811 0.030756086 0.44902346
0.024025746 0.031365711 0.44539532
0.024143387 0.031238209 0.44825
0.020471398 0.031821925 0.44645795
0.020794336 0.031620838 0.44817993
