# .PCD v0.7 - Point Cloud Data file format
VERSION 0.7
FIELDS x y z
SIZE 4 4 4
TYPE F F F
COUNT 1 1 1
WIDTH 283
HEIGHT 1
VIEWPOINT 0 0 0 1 0 0 0
POINTS 283
DATA ascii
0.032776535 0.056750685 0.65115082
0.036462642 0.062289815 0.64468074
0.060297593 0.075597048 0.62345058
0.067812778 0.076982409 0.61940801
0.039673045 0.055200554 0.65053564
0.045106523 0.057794038 0.64621276
0.064839043 0.068993449 0.62843579
0.068915658 0.072538853 0.62347269
0.022920201 0.071903273 0.6320594
0.027996467 0.072455481 0.62868702
0.040516786 0.079460278 0.61727256
0.043096483 0.083251014 0.61378288
0.026701625 0.062665716 0.63972121
0.029064951 0.06627804 0.63625032
0.030574577 0.069515735 0.63023394
0.042895295 0.076999143 0.6180979
0.04994759 0.078589693 0.61705434
0.055213563 0.0787469 0.6148994
0.031778201 0.057008471 0.64614105
0.036512181 0.060417023 0.63864851
0.055697121 0.071627274 0.62099922
0.063032299 0.075168431 0.61737639
0.036975555 0.053709183 0.64901692
0.042610094 0.05625638 0.64378661
0.06303525 0.067900524 0.62537467
0.068060413 0.07184653 0.62075138
0.022438008 0.065313712 0.62586457
0.027098538 0.068099633 0.62587428
0.040509023 0.075764835 0.61426008
0.041286729 0.075862855 0.60888761
0.026149154 0.061189685 0.62876701
0.02891521 0.065421999 0.62566066
0.041730769 0.072789133 0.61428505
0.046256214 0.072722286 0.61055613
0.021809781 0.058448274 0.61943144
0.039601147 0.068849429 0.60365146
0.023672355 0.053482395 0.62075925
0.026921717 0.053176422 0.61593431
0.039772712 0.060378399 0.60439688
0.043384582 0.064888 0.60285664
0.027421448 0.047068074 0.6205886
0.046984762 0.05830922 0.6031636
0.02017197 0.047360048 0.61478603
0.026189212 0.048667662 0.61073458
0.037837468 0.05532413 0.60061187
0.041369475 0.059413593 0.59561729
0.02755543 0.039402094 0.61825413
0.03094835 0.042671554 0.61239278
0.042912453 0.049686484 0.60224128
0.049305059 0.051871356 0.59874094
0.032173153 0.03372496 0.61726451
0.051580638 0.044993121 0.59976083
0.021473994 0.040974747 0.6097638
0.025879128 0.042829379 0.60744399
0.038020022 0.049925286 0.59652513
0.040875979 0.051949922 0.59240603
0.025363861 0.032973085 0.61168587
0.030334663 0.035725292 0.60791487
0.042579189 0.042783014 0.5969547
0.046763189 0.045509998 0.59206611
0.031746611 0.028731555 0.6143254
0.03365935 0.030822508 0.60914052
0.046667375 0.038229886 0.59787524
0.051992014 0.040358178 0.59606987
0.01209857 0.038764808 0.59523404
0.014818174 0.043509945 0.59011465
0.022371212 0.047393374 0.58392388
0.029944204 0.048340384 0.5805344
0.017284798 0.03173542 0.59987599
0.022923907 0.034051668 0.59478045
0.032067142 0.039509915 0.58654672
0.036931194 0.043539807 0.58150452
0.022929637 0.025879107 0.60527462
0.02933199 0.029617783 0.59972292
0.038632058 0.03481812 0.59109014
0.044669613 0.038822342 0.58498681
0.029440556 0.024741385 0.60711551
0.031948231 0.026455708 0.60407013
0.044370152 0.033201236 0.59246135
0.047985606 0.035275124 0.59040904
0.01191064 0.039460089 0.57854372
0.014074198 0.039889187 0.57526064
0.0086428644 0.032714222 0.58967406
0.012646224 0.037455495 0.58331865
0.019566067 0.0415348 0.57789207
0.027508711 0.043267284 0.57264549
0.012801704 0.025281496 0.59505385
0.021190451 0.031511579 0.58718944
0.026800595 0.035059616 0.5820483
0.036305137 0.039177943 0.57349432
0.021666113 0.020680003 0.59869558
0.028557656 0.02466023 0.59215254
0.034833081 0.02837863 0.58569521
0.042083561 0.032262888 0.57992351
0.0031015091 0.028961349 0.57659072
0.0070338212 0.033016581 0.57337272
0.012887813 0.036316242 0.56844717
0.017736614 0.037745111 0.56372815
0.0057065962 0.026235005 0.58204478
0.0085700955 0.033622831 0.57807088
0.01678361 0.03822796 0.56963283
0.02426132 0.037091695 0.56528258
0.01137438 0.019113177 0.58673543
0.021502769 0.026466414 0.58133048
0.024469713 0.028269704 0.57856762
0.03271804 0.03098036 0.56751889
0.01841739 0.016550012 0.58836102
0.024429262 0.017250657 0.58364832
0.031889327 0.021420341 0.57699931
0.035384212 0.026145946 0.57255757
0.0064680791 0.028758127 0.5676958
0.010728252 0.031552535 0.56401926
0.0053752782 0.02055588 0.57661164
0.0053532347 0.022937093 0.56973714
0.014713468 0.028790375 0.56066108
0.022054035 0.030281503 0.56073356
0.010797535 0.015132781 0.57987601
0.015084295 0.013340342 0.57367706
0.024770679 0.018603196 0.56526041
0.028194273 0.024909921 0.56336921
0.016681451 0.012696392 0.58200371
0.021976782 0.013795281 0.57766032
0.028171204 0.017339639 0.57162035
0.032226294 0.021385167 0.56765079
0.024511842 -0.0060906988 0.5858928
0.045725726 0.0062860847 0.56637216
0.029781576 -0.008095067 0.58647376
0.034900345 -0.0083728489 0.58493322
0.047142364 -0.0012027975 0.57369149
0.048011251 0.0023207497 0.56997055
0.035827436 -0.011530155 0.58747989
0.042639658 -0.011473686 0.58558875
0.050096348 -0.0071629882 0.57874256
0.051185265 -0.002683606 0.57367671
0.051221281 -0.016065469 0.58770585
0.055062473 -0.014450192 0.5844785
0.058931768 -0.020420043 0.59200269
0.061413184 -0.018865084 0.58974552
0.064004883 -0.022884645 0.59453416
0.065484196 -0.021912046 0.59347075
0.0050455569 0.02128738 0.55860519
0.0068698996 0.022457309 0.55710858
0.0031527332 0.010797793 0.56582606
0.0047400454 0.017173823 0.56349111
0.013220254 0.022209613 0.55596435
0.018225545 0.019688338 0.55193478
0.0083096474 0.0069798985 0.56920779
0.013480205 0.0094752945 0.57017952
0.023559583 0.015579149 0.56083798
0.023573574 0.015963601 0.55513078
0.018314831 0.0052725952 0.56811231
0.024387933 0.009265394 0.56284541
0.01673005 -0.012888596 0.58145559
0.02061832 -0.0087862946 0.58171552
0.043448418 0.0044303015 0.56084687
0.045252807 0.0035567032 0.55560309
0.019922361 -0.014227479 0.58326763
0.026994256 -0.012692405 0.58357388
0.033085719 -0.0098274145 0.58025658
0.043771662 -0.0036780164 0.57032311
0.047839932 -0.00050718896 0.56452054
0.047642492 0.0018285764 0.55770135
0.034153447 -0.015976429 0.58505917
0.042198859 -0.01545435 0.58202261
0.049133271 -0.011545317 0.57573789
0.051487356 -0.005952904 0.56967646
0.048868038 -0.021111477 0.58374381
0.05445081 -0.018061174 0.57868981
0.055900984 -0.026319478 0.58724391
0.060340196 -0.024087494 0.58317947
0.063832149 -0.03067339 0.59089804
0.066552959 -0.028671972 0.58893967
0.0021830834 0.015015537 0.55260056
0.0046838326 0.016367879 0.54952735
0.00048627146 0.0051315669 0.56092328
0.0006128056 0.010646992 0.55624068
0.010309303 0.016160158 0.54741353
0.017167063 0.014670422 0.54581827
0.0040497296 -0.00050535519 0.56575966
0.024255015 0.011411002 0.54705065
0.0075856512 -0.013072319 0.5728302
0.011338403 -0.0074921371 0.56776726
0.018957775 -0.0030745333 0.56565046
0.02697893 0.0015603211 0.55824327
0.030169083 0.0035910569 0.55028576
0.037198789 0.0040598195 0.54547769
0.012708703 -0.014740739 0.57707274
0.01846309 -0.013419516 0.57276928
0.020926595 -0.0085463077 0.56341368
0.028362732 -0.0041769249 0.55696434
0.038362935 -0.0016982602 0.55446064
0.042246208 0.0024078051 0.55054426
0.01905336 -0.015599586 0.58137345
0.023170279 -0.015451956 0.57687485
0.034507081 -0.019015718 0.5678643
0.037750922 -0.017300397 0.56501812
0.043299556 -0.0038341377 0.5587402
0.046879828 0.00058598816 0.55616313
0.036741525 -0.020536516 0.56838846
0.039156325 -0.01899986 0.56582457
0.047556937 -0.027715778 0.57705122
0.052300096 -0.024983753 0.57306564
0.054798454 -0.031968791 0.581204
0.058608294 -0.029158233 0.57777339
0.061284289 -0.039239962 0.58300757
0.064735554 -0.036510769 0.58108783
0.0013091834 0.011153117 0.54751754
0.0029317187 0.012101803 0.5459345
-0.00090197846 -0.00081026554 0.55588949
0.0013088677 0.0031641726 0.549465
0.0085002128 0.0073855659 0.54270589
0.015912753 0.0090687601 0.54070908
0.00069070375 -0.012805427 0.56282139
0.0004565022 -0.0072067399 0.55901688
0.0014224146 -0.0051043332 0.55030429
0.013761817 0.0019615358 0.53919363
0.02201828 0.0052855369 0.53933847
0.02843708 0.0031360919 0.53751087
0.0043851528 -0.016841125 0.56732208
0.0085985791 -0.012744015 0.56335944
0.015824936 -0.014590399 0.55620658
0.025133932 -0.0095193191 0.54794937
0.029441485 -0.0013790103 0.54446608
0.034429014 0.001012533 0.53987312
0.0095721465 -0.020729417 0.56981552
0.01519793 -0.01902055 0.56545144
0.022025235 -0.014987401 0.55849701
0.027433012 -0.011619026 0.55353552
0.034928016 -0.0074272524 0.54734439
0.03914801 -0.0036011084 0.54279971
0.028652277 -0.02204443 0.56399816
0.035930227 -0.017850371 0.55767286
0.030295946 -0.029379694 0.56806356
0.035224259 -0.027487192 0.5673157
0.042156503 -0.023560245 0.56105953
0.048437141 -0.033351716 0.57215798
0.051119834 -0.031824585 0.56962818
0.051356517 -0.038222525 0.57168043
0.054084599 -0.036846489 0.56994271
0.0044118837 -0.00086692115 0.5441978
0.006615377 0.00066698482 0.54184204
0.0025661304 -0.011608327 0.55364454
0.0067382418 -0.0083602555 0.54687047
0.012761169 -0.0044884058 0.54106468
0.020358348 -0.0017109952 0.53770149
0.0067795999 -0.021728151 0.56363147
0.0077273496 -0.017998273 0.55784768
0.012978094 -0.016073838 0.55019945
0.020338688 -0.011793098 0.54327297
0.027107131 -0.0065799602 0.53983009
0.034291051 -0.0058533642 0.53871661
0.0077237496 -0.022473849 0.56422526
0.009479627 -0.022279957 0.56285912
0.020222712 -0.021572489 0.55211258
0.025614994 -0.018330837 0.54736668
0.034276545 -0.0076743262 0.54028702
0.022444319 -0.033195604 0.55715305
0.024390265 -0.030114921 0.55852324
0.03595357 -0.023419704 0.54868287
0.036523759 -0.024657965 0.54526341
0.033358045 -0.035998955 0.5606668
0.041230612 -0.03143017 0.5535239
0.039984323 -0.03564753 0.56077129
0.041620806 -0.034720864 0.5591743
0.022942878 -0.027929612 0.54794449
0.025748739 -0.026275471 0.5454933
0.026307581 -0.036167923 0.54868734
0.03106584 -0.033727042 0.54435951
0.031307742 -0.040501881 0.54996896
0.034765288 -0.038842414 0.54655278
0.016721226 -0.02946532 0.52956402
0.019249268 -0.038364362 0.53499335
0.019906327 -0.0336923 0.53239143
0.024969921 -0.043605465 0.53907907
0.026780967 -0.041741583 0.53851759
0.029481981 -0.044419695 0.54340702
0.031494327 -0.043164924 0.54215497
0.018822601 -0.040882032 0.53317809
0.020052867 -0.039273683 0.53136867
0.022085279 -0.046100073 0.53519982
0.023482336 -0.043670032 0.53331023
0.026784722 -0.048783164 0.53766483
0.02775507 -0.047481176 0.53697693
