# .PCD v0.7 - Point Cloud Data file format
VERSION 0.7
FIELDS x y z
SIZE 4 4 4
TYPE F F F
COUNT 1 1 1
WIDTH 1190
HEIGHT 1
VIEWPOINT 0 0 0 1 0 0 0
POINTS 1190
DATA ascii
0.33548939 -0.072837785 0.88411689
0.33085215 -0.089246713 0.91285753
0.33206519 -0.06869185 0.87537891
0.33137411 -0.069303676 0.87617373
0.33362865 -0.072687231 0.88346875
0.32867011 -0.08981882 0.9132781
0.32513833 -0.093643397 0.91886318
0.32489306 -0.094118536 0.9199661
0.32660159 -0.07101588 0.87840897
0.32578611 -0.072804451 0.88102233
0.32514316 -0.07507927 0.88580245
0.32149574 -0.088053077 0.90826595
0.32042363 -0.09134458 0.91356623
0.32156521 -0.092554562 0.91616321
0.32389677 -0.093999103 0.91944665
0.3249712 -0.07121896 0.87824094
0.32462597 -0.073260695 0.88147056
0.32344621 -0.075104989 0.88503927
0.31981292 -0.088251606 0.9081465
0.31944674 -0.090756297 0.91189778
0.31898561 -0.092208952 0.91489017
0.35533464 -0.076134793 0.88661265
0.35502273 -0.077347763 0.88954502
0.35133702 -0.090078689 0.91143131
0.35086602 -0.09160617 0.91359431
0.35224256 -0.074118055 0.88577271
0.35232151 -0.076257281 0.89007449
0.3507241 -0.078976512 0.89182442
0.34822205 -0.088487178 0.90775228
0.34899715 -0.08867114 0.91104764
0.34769717 -0.091022052 0.91505402
0.3464143 -0.074196525 0.88119644
0.34766236 -0.073574543 0.88386726
0.34631953 -0.076459259 0.88923973
0.34728861 -0.079141498 0.89082325
0.34558794 -0.088864915 0.90719646
0.34346825 -0.088574089 0.91017836
0.34267017 -0.091671735 0.91541696
0.34047356 -0.094324842 0.91559291
0.34370425 -0.073516026 0.88053417
0.34240168 -0.073324658 0.88418388
0.34206688 -0.077937566 0.88814563
0.33904752 -0.089681797 0.90871334
0.33803034 -0.090734936 0.91444755
0.33750182 -0.093880579 0.91596854
0.33809584 -0.072541371 0.87878525
0.33773187 -0.0726666 0.88345855
0.33670813 -0.078182891 0.88794297
0.33363116 -0.089353144 0.90738112
0.33301365 -0.090178534 0.9140141
0.33235899 -0.094125465 0.91610783
0.33306813 -0.070627056 0.87414032
0.33264914 -0.072079681 0.87698436
0.33149827 -0.073279798 0.88227016
0.3322641 -0.077960841 0.8872779
0.3291657 -0.089090668 0.90679508
0.32710773 -0.090757504 0.91374022
0.32672632 -0.094861597 0.91651714
0.32575378 -0.09626016 0.91907305
0.33097276 -0.07011988 0.87435997
0.3286778 -0.072769985 0.87627017
0.3280057 -0.07551688 0.88091314
0.32684818 -0.078288347 0.88537407
0.32345656 -0.090132318 0.90602016
0.32318106 -0.092379153 0.91059345
0.32283664 -0.095076382 0.91538745
0.32375312 -0.09566693 0.9188236
0.32457644 -0.072719701 0.87661856
0.32423815 -0.07525111 0.88090366
0.32285661 -0.077376105 0.88398242
0.31920034 -0.090378001 0.90654242
0.31946814 -0.092137717 0.91016781
0.31838006 -0.09421476 0.91411519
0.35592282 -0.078617938 0.88510531
0.35577241 -0.080174446 0.88798589
0.35198516 -0.092836782 0.90997219
0.35141963 -0.09371499 0.9125849
0.35354781 -0.078055538 0.88305032
0.35451749 -0.082017146 0.88947725
0.35173777 -0.081943966 0.89068121
0.34905705 -0.090864845 0.9063217
0.35147262 -0.092519835 0.90744394
0.34902585 -0.095436856 0.91305286
0.34635097 -0.075585373 0.8804884
0.34870169 -0.077532463 0.88082188
0.34550133 -0.082515202 0.88787007
0.34751448 -0.08222466 0.88940746
0.34549662 -0.091547392 0.90556002
0.34311658 -0.092098162 0.90572971
0.34341115 -0.096422069 0.91352355
0.34054723 -0.095124274 0.9150275
0.34348223 -0.07702858 0.87866825
0.34371063 -0.07869406 0.87938726
0.34209105 -0.081489302 0.88695264
0.33908921 -0.09250059 0.9061054
0.33879662 -0.097227007 0.91285497
0.33752888 -0.096944824 0.91390961
0.33880398 -0.076165244 0.87714404
0.33858633 -0.079782762 0.87978452
0.3378948 -0.081174515 0.88484764
0.33479932 -0.093477868 0.90633327
0.33380574 -0.097099394 0.90991104
0.33324105 -0.097386278 0.91409761
0.33441013 -0.075551949 0.87621242
0.33338612 -0.078633919 0.87941289
0.33259386 -0.080784798 0.88360971
0.32917988 -0.093656018 0.90607202
0.3285996 -0.096092269 0.90990674
0.32861057 -0.097199664 0.91417325
0.32965678 -0.076160982 0.87643063
0.33033806 -0.077708498 0.87829095
0.32866713 -0.080288745 0.88306355
0.32497469 -0.093282446 0.90581739
0.32490408 -0.095827289 0.9101361
0.32402113 -0.096761025 0.9122588
0.3558875 -0.081430264 0.88433897
0.3558279 -0.082256131 0.88592827
0.35335958 -0.082186438 0.88079017
0.35396343 -0.085344374 0.8855418
0.35122931 -0.085374147 0.88785344
0.34829572 -0.094598047 0.90458071
0.35037991 -0.096917257 0.90626979
0.34869367 -0.099362716 0.91039795
0.34884453 -0.082472056 0.87939686
0.34670186 -0.086176299 0.8842358
0.34853119 -0.086739086 0.88709462
0.3458617 -0.095775977 0.90305567
0.34358245 -0.097936481 0.90410513
0.3441655 -0.10014357 0.91041726
0.34444988 -0.082045041 0.88015884
0.34469521 -0.084511891 0.88345206
0.34086055 -0.097245291 0.90571117
0.33985212 -0.098727979 0.90924442
0.35295674 -0.086998194 0.87984353
0.35359895 -0.088931769 0.8825658
0.34988186 -0.10150347 0.90442932
0.34846184 -0.1020669 0.90745348
0.35001802 -0.087265767 0.87885213
0.34870589 -0.089512408 0.8824026
0.34921551 -0.089094549 0.88515115
0.34655589 -0.098623671 0.9020865
0.34539586 -0.10101377 0.90281653
0.34554839 -0.10318956 0.90679342
0.34710121 -0.09030994 0.8789196
0.34316197 -0.103636 0.90302312
0.3428753 -0.10480772 0.90405589
0.35273209 -0.091558278 0.87808675
0.35343236 -0.093055539 0.87983161
0.34978735 -0.10582168 0.9022572
0.35056579 -0.091952063 0.87600422
0.35019007 -0.094564594 0.88043255
0.34713379 -0.10570584 0.89987135
0.34628737 -0.10806316 0.90423667
0.34674767 -0.092479177 0.87527788
0.346163 -0.094023161 0.87814164
0.34235692 -0.10699525 0.89985323
0.34218329 -0.10838637 0.90332931
0.35347444 -0.097066402 0.87767887
0.3497968 -0.10921303 0.89993918
0.35133055 -0.096037626 0.87322938
0.35178575 -0.098630428 0.87778986
0.34945339 -0.10044964 0.87909997
0.34692466 -0.10982052 0.89514363
0.34866875 -0.11041637 0.89842844
0.34669024 -0.11276665 0.90215456
0.34627828 -0.096112706 0.87200671
0.3449564 -0.09822277 0.87698954
0.34661528 -0.10075194 0.8785488
0.34364396 -0.1098794 0.89455765
0.3414228 -0.10958031 0.89724457
0.34171134 -0.11311399 0.90184599
0.34350377 -0.098322891 0.87150478
0.34304193 -0.099773794 0.87434125
0.33930713 -0.11240279 0.89635623
0.33897468 -0.11383915 0.89953637
0.35216737 -0.10001393 0.87048674
0.35322303 -0.102437 0.87526798
0.35048127 -0.10443049 0.87766135
0.34794888 -0.1129433 0.89283955
0.34964257 -0.11451831 0.89635456
0.34737131 -0.1172592 0.90024322
0.34723783 -0.099597208 0.86823398
0.34638232 -0.10478855 0.87746888
0.34399906 -0.1127407 0.89161855
0.34203464 -0.1182184 0.90076214
0.34250221 -0.10113852 0.8687349
0.34109485 -0.10309248 0.87256563
0.34198925 -0.10580467 0.87537825
0.33955657 -0.11402614 0.89117426
0.33736303 -0.11546603 0.89449793
0.33775353 -0.11801739 0.89823937
0.33945128 -0.10407276 0.8688485
0.33946791 -0.10465337 0.86984986
0.33659959 -0.11639236 0.89027661
0.3355644 -0.11789733 0.89337564
0.3353731 -0.11930791 0.89577615
0.35243452 -0.10450877 0.868523
0.3528704 -0.10681194 0.87271023
0.35061398 -0.10845521 0.87535548
0.3481864 -0.11708174 0.89072734
0.34924829 -0.1188608 0.8938334
0.34760728 -0.12113388 0.89754498
0.34822768 -0.10356786 0.86554587
0.34690568 -0.10961498 0.87523359
0.34474927 -0.11722677 0.88870937
0.343099 -0.12300142 0.89858252
0.34325871 -0.10427786 0.86489904
0.33962846 -0.10563347 0.87122411
0.34235498 -0.10976459 0.87413526
0.3400532 -0.11758181 0.8879934
0.33785763 -0.12271366 0.8975141
0.338523 -0.10579097 0.86579257
0.33719057 -0.10804342 0.86935943
0.33858848 -0.10991623 0.87207985
0.33588532 -0.11885563 0.88808805
0.33365601 -0.12013447 0.89044112
0.33389819 -0.12260017 0.89475751
0.33489057 -0.10795779 0.86501133
0.334304 -0.10895246 0.86705518
0.33060971 -0.12203598 0.89027357
0.33053979 -0.12371457 0.89252102
0.35143533 -0.10796764 0.86737156
0.35134646 -0.10982977 0.8704443
0.35008508 -0.11104425 0.8730461
0.34764743 -0.12214077 0.89195365
0.34707761 -0.12344936 0.89500737
0.3483901 -0.10880174 0.86514354
0.34847009 -0.11221884 0.86881799
0.34722281 -0.1124988 0.87248439
0.34498939 -0.12103955 0.88789779
0.34494388 -0.12438255 0.89033705
0.34381747 -0.12547085 0.89474237
0.34435779 -0.10913582 0.86304379
0.34530348 -0.11383317 0.86772454
0.34283805 -0.11343846 0.87160701
0.34058118 -0.12198782 0.88623732
0.34160078 -0.12601949 0.88896501
0.33933902 -0.1270519 0.89427328
0.33886084 -0.10912707 0.86210793
0.33663505 -0.11210002 0.86924595
0.33816093 -0.11416646 0.86948311
0.3352384 -0.12323969 0.88561004
0.33400002 -0.12192704 0.88729107
0.33401334 -0.12723754 0.89372551
0.33421129 -0.11052044 0.86236227
0.33263358 -0.11241842 0.8661077
0.33468282 -0.11472619 0.86822486
0.33192328 -0.12402291 0.88500023
0.32923156 -0.1242117 0.88736308
0.32970876 -0.12709191 0.89136964
0.33140284 -0.11361854 0.86337417
0.3273606 -0.12685342 0.88768506
0.32732388 -0.12747291 0.88874841
0.34315997 -0.11411718 0.86230302
0.34318829 -0.11569753 0.8656531
0.34218779 -0.11769178 0.86824298
0.33980206 -0.12699552 0.88412911
0.33961907 -0.12813674 0.88740796
0.3385016 -0.13008893 0.8902573
0.33944526 -0.11373819 0.85989046
0.34152207 -0.1153928 0.86459208
0.33850196 -0.11803342 0.86789852
0.33616751 -0.12668167 0.88309598
0.33779135 -0.1286568 0.88753921
0.334896 -0.13143435 0.89091283
0.33480984 -0.11452857 0.86024636
0.33282423 -0.11697885 0.8639223
0.33509156 -0.11822925 0.86681861
0.33221152 -0.12721014 0.88272691
0.32936972 -0.12931302 0.88464242
0.33036828 -0.13108388 0.88914412
0.33156514 -0.11474458 0.86282694
0.32778966 -0.12808581 0.88605285
0.32761773 -0.12891251 0.88842845
0.36242616 -0.12144681 0.86788994
0.3627691 -0.12266422 0.87086648
0.36253437 -0.12518331 0.87515539
0.36187795 -0.12732641 0.87940747
0.36004251 -0.12981361 0.88343829
0.35942703 -0.13225472 0.8851223
0.3597675 -0.12115877 0.86522502
0.35864213 -0.13065836 0.88433987
0.3562299 -0.1327204 0.88703281
0.35388452 -0.13495451 0.88884437
0.35727447 -0.12065541 0.8627696
0.35318032 -0.13463081 0.88781983
0.35211828 -0.13565177 0.88890821
0.34853134 -0.1203749 0.86072296
0.34893072 -0.12048491 0.86360383
0.34801379 -0.12317423 0.86733645
0.3454431 -0.13118233 0.88161558
0.34544599 -0.1334675 0.88559175
0.34416822 -0.13544902 0.88694447
0.34516764 -0.11869305 0.85991627
0.34638789 -0.11873832 0.86432427
0.34402341 -0.12334896 0.8681832
0.34199259 -0.12995389 0.87960017
0.34279495 -0.13157266 0.88624316
0.34047893 -0.13484012 0.8879751
0.34035107 -0.11828443 0.85786617
0.33902895 -0.12303872 0.86672902
0.33733249 -0.13057178 0.87923813
0.33569267 -0.13583192 0.88818979
0.33698389 -0.11877797 0.85880637
0.33568689 -0.12094519 0.861534
0.3360678 -0.12300602 0.86444414
0.33330634 -0.13175696 0.88004065
0.33196557 -0.13326976 0.88318205
0.33247465 -0.13493696 0.88672572
0.36359835 -0.12428282 0.86504531
0.36428702 -0.12577182 0.8691107
0.36419415 -0.12837163 0.87361467
0.36294502 -0.13050577 0.8776744
0.36191607 -0.13337258 0.88197714
0.36053461 -0.13548248 0.88393718
0.35863212 -0.12245657 0.86126953
0.36068282 -0.12326714 0.86389059
0.36087748 -0.12632617 0.86717409
0.36090216 -0.12976332 0.87247682
0.36016923 -0.1319495 0.87653255
0.3573972 -0.13380054 0.88096589
0.35725269 -0.13566369 0.88572466
0.35454559 -0.13804269 0.88744402
0.35587835 -0.12186043 0.86032766
0.35502678 -0.1244396 0.86297876
0.35386634 -0.12747845 0.86620015
0.3530989 -0.13006388 0.86804783
0.35200405 -0.13535973 0.87976861
0.35170287 -0.13614339 0.88403797
0.35142773 -0.13835976 0.88805926
0.35070342 -0.12283367 0.85828567
0.35189912 -0.12289676 0.86228651
0.35026017 -0.12588765 0.8673526
0.34873965 -0.12896614 0.86863548
0.3477101 -0.13319077 0.87612212
0.34827965 -0.13301128 0.87949026
0.34818554 -0.13628083 0.885131
0.34587055 -0.13896455 0.88716799
0.34683722 -0.12296668 0.85663009
0.34322307 -0.12806195 0.86671817
0.34552559 -0.12847719 0.86794758
0.34418973 -0.13328433 0.87589598
0.34166485 -0.13369152 0.8762092
0.34181646 -0.14012153 0.88646084
0.34102041 -0.12296681 0.85654134
0.33925477 -0.12583181 0.85878825
0.33986172 -0.12735888 0.8641274
0.33795115 -0.134955 0.87716526
0.33560878 -0.13881442 0.88110036
0.33634076 -0.13933887 0.88514829
0.33714241 -0.12469652 0.86070293
0.33701473 -0.12533653 0.86301255
0.33448267 -0.13533457 0.87874228
0.33380896 -0.13632977 0.88079208
0.33387455 -0.13756521 0.8844468
0.36449981 -0.12818006 0.86281902
0.36621171 -0.1301565 0.86684614
0.36628008 -0.13271831 0.87132829
0.36514831 -0.13475072 0.87549281
0.36376113 -0.13725296 0.87975448
0.36118406 -0.13975757 0.88283509
0.36098346 -0.12699103 0.85835826
0.36271662 -0.1270936 0.86035901
0.35927132 -0.13064517 0.86607867
0.36001572 -0.13341273 0.86948282
0.35921773 -0.13545869 0.8744576
0.35678253 -0.13780463 0.8769564
0.35840371 -0.14091057 0.88447672
0.35596958 -0.14248359 0.88550723
0.35664099 -0.12686786 0.85637045
0.35736525 -0.1275534 0.86415976
0.35642767 -0.13014911 0.86623949
0.35405526 -0.13267124 0.8679232
0.35277429 -0.13642603 0.87448478
0.35442102 -0.13695695 0.87827516
0.35250151 -0.1431803 0.88594192
0.35172048 -0.12608564 0.85497981
0.35015547 -0.13262618 0.86761665
0.34882632 -0.13639757 0.87366498
0.34716129 -0.14426978 0.88586289
0.34643409 -0.12588075 0.85422468
0.34468824 -0.13272163 0.86407399
0.34426048 -0.13404605 0.86630243
0.34354255 -0.13676941 0.87101442
0.34288272 -0.13848187 0.87424964
0.34207323 -0.14421725 0.88494962
0.342365 -0.12715384 0.85447097
0.34108841 -0.12936647 0.85756499
0.34096166 -0.13125974 0.86235499
0.34034473 -0.13387325 0.86666113
0.34050307 -0.13642788 0.87104857
0.33856612 -0.13929094 0.87535691
0.3373498 -0.14197372 0.87928069
0.33852658 -0.14303143 0.88322949
0.3678858 -0.13720259 0.86975771
0.36756518 -0.14028898 0.87221026
0.36542812 -0.13270934 0.86054218
0.3672373 -0.13473898 0.86452544
0.36733076 -0.13664784 0.86865771
0.36640418 -0.13869053 0.87338167
0.3651824 -0.14266142 0.87779307
0.36238071 -0.14435196 0.88108557
0.36138418 -0.13101159 0.85630351
0.36338019 -0.13178295 0.85779822
0.35895485 -0.13438785 0.86600184
0.35889143 -0.13765372 0.86744779
0.35812455 -0.13974398 0.87157857
0.35974064 -0.1453701 0.88265717
0.35734203 -0.14690752 0.88327885
0.35766998 -0.13055232 0.85482883
0.35548466 -0.13760576 0.86636639
0.35504314 -0.14064488 0.87137908
0.35294291 -0.14766648 0.88380527
0.35247177 -0.13110566 0.85311848
0.35096577 -0.13791402 0.86434811
0.35000119 -0.14136921 0.87128115
0.34786147 -0.14370286 0.87090868
0.34746581 -0.14820836 0.88355154
0.34784979 -0.13101687 0.85271895
0.34546757 -0.13461953 0.85449976
0.34687871 -0.1364245 0.86198437
0.3455326 -0.13878512 0.86521626
0.3441112 -0.14098421 0.86911476
0.3452915 -0.14222839 0.87219965
0.34227821 -0.14816803 0.87853789
0.34323883 -0.14789824 0.88194764
0.34415725 -0.13108695 0.8540172
0.34367621 -0.13307351 0.85627514
0.34302065 -0.13587156 0.86036211
0.34266168 -0.13787892 0.86395758
0.34230533 -0.14036405 0.86866254
0.34056488 -0.14328089 0.87291628
0.34058431 -0.14549385 0.87689435
0.33978871 -0.14579231 0.88032919
0.36973798 -0.14161673 0.86316729
0.36896235 -0.14185393 0.86675429
0.36842179 -0.14370888 0.86986935
0.36786225 -0.14685544 0.87279463
0.36649331 -0.13740575 0.85836202
0.36784685 -0.13845536 0.86196291
0.36819628 -0.14130338 0.86671066
0.36740741 -0.14492826 0.87173587
0.3661024 -0.14622179 0.87532622
0.36312923 -0.14861095 0.87871373
0.36143389 -0.13557439 0.85389346
0.36367467 -0.13634753 0.85542715
0.36047128 -0.15029612 0.88004345
0.35772708 -0.1507528 0.88083088
0.35797569 -0.13557972 0.85287243
0.35546666 -0.14194155 0.86538184
0.35484573 -0.14357556 0.86827976
0.35357806 -0.15166162 0.88076806
0.35341126 -0.13604701 0.85194528
0.35095832 -0.13803929 0.85179931
0.35118255 -0.14185254 0.86355305
0.35069564 -0.14447019 0.86817044
0.34862182 -0.15221737 0.87965441
0.34918094 -0.13526289 0.85213709
0.34752125 -0.13783728 0.85347378
0.34533712 -0.14033213 0.8576504
0.34491676 -0.14319013 0.8624084
0.34366241 -0.14554414 0.86623192
0.34352359 -0.14896284 0.87049997
0.34397399 -0.15075311 0.87514997
0.34472415 -0.15124463 0.87884849
0.34421372 -0.1394255 0.85768747
0.34368435 -0.14189601 0.86146307
0.34313717 -0.14616209 0.86662745
0.34203085 -0.1468976 0.8710165
0.34189466 -0.14798744 0.87403363
0.3708635 -0.14199878 0.85711777
0.3711887 -0.14321321 0.86036634
0.37130025 -0.14539273 0.86475027
0.37025797 -0.1478231 0.86911923
0.36907592 -0.15044773 0.87304175
0.36792508 -0.15205176 0.87574816
0.36827135 -0.14068711 0.85535818
0.36971524 -0.1414156 0.85899729
0.36804169 -0.14642224 0.87056559
0.36696124 -0.14951569 0.87471873
0.36476731 -0.15309066 0.87713552
0.36314109 -0.13982159 0.8515175
0.36411157 -0.13968498 0.85305637
0.36010841 -0.1527296 0.87831938
0.35916346 -0.15541993 0.87835002
0.35874975 -0.13999406 0.85071635
0.35422 -0.15532285 0.87804443
0.35531455 -0.1401872 0.85046548
0.3528668 -0.14158848 0.85094345
0.34886628 -0.15539134 0.8745898
0.35065603 -0.15521324 0.87717205
0.34948549 -0.14283057 0.85265219
0.3472105 -0.14469257 0.85550922
0.34540817 -0.14645912 0.85955399
0.34454843 -0.14913443 0.86471647
0.34502515 -0.15248305 0.86873949
0.34628546 -0.1537295 0.87260449
0.34453931 -0.14884555 0.85947865
0.34390309 -0.15056169 0.86333483
0.34377724 -0.15251204 0.86592764
0.37139317 -0.14676692 0.85889715
0.37131605 -0.14982858 0.86239207
0.37089652 -0.15216835 0.86656696
0.36944011 -0.15364122 0.87071556
0.36770809 -0.145 0.85357785
0.36949953 -0.14772756 0.85658032
0.37034813 -0.15067686 0.85961258
0.36919257 -0.1549843 0.86705428
0.36758223 -0.15571433 0.87063104
0.36471069 -0.15693952 0.87366599
0.36270055 -0.15707444 0.87721968
0.36377767 -0.14298731 0.85016161
0.36434963 -0.14559504 0.85161924
0.36129218 -0.15887699 0.87320954
0.35953873 -0.15830967 0.87662822
0.35909879 -0.14303766 0.84951502
0.35949886 -0.14642286 0.84986597
0.35565776 -0.15976144 0.87244856
0.35584381 -0.15856698 0.87580866
0.35631403 -0.14349508 0.84893924
0.35433149 -0.14620304 0.84980786
0.35223377 -0.14949811 0.8525492
0.34987912 -0.15807445 0.86721754
0.35095331 -0.15935683 0.8715229
0.35152057 -0.15805858 0.87539345
0.35040891 -0.14642039 0.85076773
0.34852827 -0.14862454 0.85382462
0.3476969 -0.15133549 0.85772151
0.34701729 -0.15397733 0.86224777
0.34643975 -0.15606299 0.86636835
0.34724954 -0.157987 0.87024528
0.34491768 -0.14969659 0.85785186
0.34423834 -0.15222174 0.86242718
0.34402931 -0.15390453 0.86557186
0.29747909 -0.15725204 0.84714633
0.29697824 -0.15887372 0.85058254
0.29405633 -0.15726806 0.84687853
0.29373583 -0.15888368 0.85010976
0.29112643 -0.15807943 0.84706479
0.29079065 -0.15884346 0.84873182
0.37146935 -0.15480433 0.86101186
0.37115648 -0.15575714 0.86337101
0.36705977 -0.14903823 0.85281771
0.36874896 -0.15193938 0.85481817
0.3703168 -0.15363614 0.85834038
0.36932272 -0.15784648 0.86491483
0.36705166 -0.15920104 0.8675881
0.36439365 -0.16016099 0.87020344
0.36424464 -0.14979011 0.85131693
0.36510819 -0.15281208 0.85152519
0.36250663 -0.16220953 0.86804754
0.36125308 -0.16087446 0.87022084
0.35968435 -0.14955023 0.85053414
0.35910735 -0.15308115 0.85128772
0.35667142 -0.16168341 0.86652231
0.35676777 -0.16076064 0.86970097
0.35605198 -0.14939578 0.85064584
0.35434464 -0.15287504 0.85234112
0.35200551 -0.15715559 0.85542893
0.35131535 -0.15950373 0.85940349
0.35245621 -0.16015424 0.86493438
0.35271505 -0.1598919 0.86883259
0.35092092 -0.15252778 0.85391629
0.35014454 -0.15490562 0.85625613
0.34968156 -0.15735915 0.86001778
0.34934035 -0.15815225 0.86403871
0.33397686 -0.15226087 0.83950555
0.33407909 -0.15290421 0.84032106
0.33005738 -0.16757807 0.86578453
0.32983604 -0.16792044 0.86682123
0.33162168 -0.15208018 0.83905441
0.33050209 -0.1536376 0.84148949
0.32571334 -0.16543387 0.86077195
0.32704267 -0.16653043 0.86398745
0.32724044 -0.1679032 0.86661208
0.32787934 -0.15293905 0.83884215
0.32598129 -0.15421346 0.84146702
0.32492843 -0.15587553 0.84400254
0.32248104 -0.16477126 0.85954601
0.32263213 -0.1662454 0.86242568
0.32384479 -0.16801703 0.86519694
0.32177639 -0.15512444 0.84139216
0.32015583 -0.15679237 0.84450549
0.31811035 -0.1585733 0.84626204
0.31725922 -0.16364022 0.85445845
0.31808484 -0.16417767 0.85749137
0.31863555 -0.16610441 0.86073709
0.31596735 -0.15799902 0.84515035
0.31440103 -0.15890422 0.84736985
0.31349105 -0.16219732 0.85287875
0.31456852 -0.16395329 0.85565627
0.30987906 -0.15904282 0.84428632
0.3098231 -0.15958227 0.84739226
0.30952403 -0.16213626 0.85136199
0.30879241 -0.16421491 0.85337394
0.30756298 -0.15946664 0.84387738
0.30471987 -0.15931323 0.84625363
0.30381304 -0.16206717 0.85040152
0.30593917 -0.16425556 0.8527481
0.29945025 -0.1594732 0.84627271
0.29901758 -0.16146353 0.8494761
0.29495031 -0.15831846 0.84636891
0.2943539 -0.15992308 0.8493464
0.291336 -0.15874407 0.84632057
0.29102105 -0.15967849 0.84840518
0.37196109 -0.15933308 0.85841274
0.37170884 -0.16030796 0.86056358
0.36845964 -0.15672162 0.85291672
0.37046733 -0.15818992 0.85624945
0.36937714 -0.16192947 0.86226189
0.3668265 -0.16307195 0.86465472
0.36391294 -0.15676077 0.84774768
0.36553279 -0.1562659 0.85032392
0.36310422 -0.16478616 0.86576176
0.36101875 -0.16698922 0.8658818
0.36049533 -0.15644108 0.84694844
0.35958996 -0.15562767 0.8499909
0.35724887 -0.16426089 0.86491483
0.35749757 -0.16725665 0.86579961
0.35770097 -0.15692888 0.84705335
0.35536617 -0.15771805 0.85001469
0.352741 -0.15808183 0.85305768
0.35160747 -0.16198811 0.86009282
0.35333562 -0.16466318 0.86212659
0.3549813 -0.16713597 0.86473477
0.35230941 -0.15979882 0.84937727
0.35087273 -0.16025861 0.85330451
0.35027209 -0.16247889 0.85763109
0.35056156 -0.16579327 0.85986352
0.33609775 -0.15425128 0.83724761
0.33468279 -0.15520312 0.84021074
0.33100376 -0.16896041 0.86402738
0.33151108 -0.17113936 0.86675996
0.331772 -0.15356027 0.83595991
0.33206815 -0.15650435 0.84172308
0.32978091 -0.15882187 0.84340721
0.32757691 -0.16747008 0.85864556
0.32910854 -0.16796266 0.86195284
0.3270385 -0.17132778 0.86691761
0.32701588 -0.15528269 0.83604318
0.32466805 -0.15475243 0.8384586
0.32579127 -0.15936282 0.84458148
0.32389173 -0.16612454 0.8562361
0.32095575 -0.16897884 0.86326575
0.32259518 -0.17158349 0.8643558
0.3242346 -0.15726936 0.83606833
0.32148978 -0.15743983 0.83836156
0.32162917 -0.15939744 0.84505743
0.31958619 -0.16121419 0.84569615
0.31871065 -0.1653759 0.85299134
0.32007405 -0.16478063 0.85541213
0.31812224 -0.16982922 0.86045468
0.32024804 -0.17197043 0.86225009
0.31864074 -0.15936519 0.83949298
0.31568146 -0.16003886 0.84210283
0.31502378 -0.16288611 0.84717298
0.31481996 -0.16430438 0.84997106
0.31345195 -0.16748795 0.85515594
0.31561258 -0.16926797 0.85763323
0.31069517 -0.16115291 0.84223139
0.31078267 -0.16442652 0.84727156
0.31031772 -0.1646691 0.84741348
0.30904409 -0.16722631 0.85300535
0.30604357 -0.16184048 0.84115511
0.30486771 -0.16329277 0.84520406
0.30434471 -0.16503349 0.84772754
0.30448976 -0.16769369 0.85166913
0.30139205 -0.16255049 0.84021044
0.3001284 -0.1628595 0.84425139
0.29983044 -0.16527627 0.84698433
0.29950339 -0.16803586 0.8503359
0.29822922 -0.16341959 0.84010565
0.29541251 -0.16428351 0.84248793
0.29467237 -0.16617495 0.84654659
0.29630131 -0.16834165 0.84932792
0.29078123 -0.16476336 0.84188902
0.29016522 -0.16611029 0.84547222
0.28687754 -0.16515335 0.84112626
0.28618848 -0.16647533 0.84478092
0.37291795 -0.16364279 0.85595286
0.37243831 -0.16491288 0.8584857
0.36939096 -0.16059965 0.84655237
0.36976826 -0.16117644 0.85065591
0.37102601 -0.16191819 0.85371923
0.3701053 -0.16564752 0.86032921
0.36783543 -0.16791436 0.8624053
0.36635083 -0.17072706 0.86476046
0.36620292 -0.15938273 0.84573108
0.36735925 -0.15871236 0.84927499
0.36511362 -0.16729143 0.86433971
0.36319864 -0.17050052 0.86524343
0.36097962 -0.1588515 0.84472287
0.35832423 -0.15824629 0.84685153
0.35584453 -0.16811912 0.86394465
0.3579089 -0.17068473 0.8649931
0.35690707 -0.16037168 0.84409207
0.35487181 -0.16006544 0.84635937
0.35237938 -0.16889957 0.86175346
0.35401028 -0.17123987 0.86304063
0.35182801 -0.16234398 0.84645247
0.34953979 -0.16399965 0.85056382
0.34882516 -0.16653527 0.85526025
0.34991762 -0.16947502 0.85933876
0.34800166 -0.16650882 0.84914154
0.34748146 -0.16838264 0.85322899
0.34136099 -0.1583643 0.83158517
0.34151024 -0.15870135 0.83437073
0.33639836 -0.1756269 0.86212569
0.3365263 -0.17645109 0.86522096
0.33587357 -0.1785811 0.866871
0.33825386 -0.15782197 0.83098513
0.33845988 -0.15720606 0.83446831
0.33634841 -0.16057673 0.8383882
0.3331916 -0.17358026 0.86095244
0.33343312 -0.17535493 0.86600447
0.33267057 -0.1784793 0.86710995
0.3349084 -0.15740475 0.83137512
0.33210137 -0.15833865 0.83355415
0.3317236 -0.16147396 0.83825368
0.3299731 -0.1615878 0.84118187
0.32748738 -0.17076088 0.8570475
0.32849786 -0.1735632 0.85919106
0.32733527 -0.17585078 0.86433494
0.32952315 -0.17776404 0.86653662
0.32749978 -0.15824725 0.8340351
0.32783112 -0.16196615 0.83679861
0.32618827 -0.16295049 0.84147292
0.32373571 -0.17060883 0.854689
0.32436988 -0.17443971 0.85852706
0.32298917 -0.17479201 0.86298424
0.3246493 -0.15879504 0.83506525
0.32246491 -0.16101059 0.83688474
0.32149041 -0.16370904 0.84047705
0.31923193 -0.16397016 0.84385866
0.31876069 -0.16840157 0.85174179
0.31948623 -0.17121463 0.85366011
0.31911713 -0.17314288 0.85811615
0.32051086 -0.173535 0.86160368
0.31658891 -0.16365306 0.84119368
0.31528446 -0.1659463 0.84350652
0.31451023 -0.16890433 0.84898889
0.31432778 -0.17008784 0.85214096
0.3160181 -0.17111041 0.85614395
0.31157002 -0.1654779 0.83995503
0.3117252 -0.16772227 0.84486967
0.31146681 -0.16836587 0.84604073
0.30988845 -0.17185818 0.85066164
0.30662891 -0.16579951 0.83903503
0.30542126 -0.16835171 0.84347916
0.30543265 -0.16914169 0.84494627
0.30502003 -0.17207938 0.84985536
0.30293351 -0.16622008 0.83882284
0.30098802 -0.16715716 0.84025961
0.30095398 -0.16967984 0.84352642
0.30044895 -0.17189884 0.84856808
0.29757303 -0.16817722 0.8406626
0.2966665 -0.1708602 0.84489059
0.29753339 -0.17334758 0.84644717
0.37368581 -0.16757225 0.85305697
0.37331051 -0.16951191 0.85647899
0.37000537 -0.16371521 0.84508705
0.37155077 -0.16496283 0.84767038
0.37275693 -0.16568898 0.85107911
0.3716509 -0.17031009 0.85887742
0.3694104 -0.17260146 0.86089385
0.36702013 -0.17386606 0.86288202
0.36731616 -0.16323498 0.84328729
0.36617354 -0.1719965 0.86318552
0.36412257 -0.17465968 0.86346161
0.3623884 -0.16256188 0.84087956
0.35915443 -0.17600168 0.86387438
0.35823828 -0.16390413 0.83739126
0.3566995 -0.16296428 0.84024435
0.35331115 -0.17589748 0.862773
0.35345456 -0.1789344 0.86343235
0.35284418 -0.1652371 0.8404243
0.35064924 -0.16487639 0.84368157
0.34856322 -0.17302008 0.8582496
0.34988505 -0.1761321 0.85982329
0.34689885 -0.16190991 0.83046168
0.34683076 -0.16228698 0.83308029
0.34980479 -0.16711432 0.84014487
0.34735006 -0.16723633 0.84268463
0.34594095 -0.16945863 0.84766388
0.3453472 -0.17149773 0.85161072
0.34528387 -0.17464662 0.85575402
0.34447128 -0.17821002 0.85907614
0.34190428 -0.18022874 0.86370814
0.34111032 -0.18228361 0.86530691
0.34336716 -0.15995434 0.82968098
0.3439019 -0.16075061 0.83396941
0.34232679 -0.16475801 0.83637989
0.34443742 -0.16986364 0.84311289
0.34273878 -0.1756036 0.85279816
0.33866301 -0.17785537 0.85948896
0.33935356 -0.17860167 0.86467785
0.33750793 -0.18129686 0.86682087
0.3394222 -0.1599101 0.82915252
0.3369461 -0.16298588 0.83060056
0.33766738 -0.16496617 0.83752853
0.33472687 -0.17665556 0.85770965
0.33207202 -0.18146078 0.86274129
0.33360171 -0.18116564 0.86649036
0.33568108 -0.15953307 0.83032674
0.3340117 -0.16271502 0.83265287
0.33364674 -0.1646834 0.83580965
0.33013096 -0.17760846 0.85806865
0.32928598 -0.17881142 0.86143965
0.33013731 -0.17953821 0.86555326
0.31141976 -0.16957229 0.83796698
0.31240523 -0.17171039 0.84071016
0.31152248 -0.17396919 0.84457272
0.30974326 -0.1753659 0.84817499
0.30924156 -0.17033698 0.83781022
0.30619639 -0.17162466 0.83900368
0.30502787 -0.17418133 0.84284931
0.30598226 -0.17574441 0.84681582
0.30252874 -0.16915764 0.83749288
0.30241567 -0.17245415 0.83847839
0.30185121 -0.17448859 0.8430391
0.30087566 -0.17523752 0.84640545
0.29714498 -0.17257869 0.83781362
0.29597351 -0.17464671 0.8422727
0.29634827 -0.17534791 0.84526783
0.29254869 -0.17378475 0.83682078
0.29152018 -0.17551781 0.84103328
0.28820753 -0.1746043 0.83570701
0.28734902 -0.17654629 0.83971304
0.37475827 -0.17153226 0.85102105
0.37435374 -0.17361911 0.85474461
0.37007114 -0.16744433 0.84320241
0.37192938 -0.16920422 0.84526467
0.37335527 -0.17093907 0.84868824
0.37237725 -0.17530771 0.85576254
0.36984721 -0.17685518 0.85841459
0.36740234 -0.17846641 0.8598845
0.36678487 -0.16672593 0.83645523
0.36794958 -0.16750482 0.8405866
0.36765426 -0.18000539 0.85882115
0.36471096 -0.17926314 0.86125141
0.36250833 -0.18237996 0.86358213
0.36359882 -0.16591132 0.83501107
0.36392725 -0.16511667 0.83868176
0.35984802 -0.17918186 0.86322945
0.35916376 -0.18266194 0.86424208
0.35863322 -0.16581535 0.8348248
0.35435456 -0.18207528 0.86332285
0.35253957 -0.16587992 0.82846487
0.35332543 -0.16772322 0.83306777
0.35275987 -0.16833575 0.83698893
0.3493343 -0.18098812 0.85890293
0.34911424 -0.18400815 0.86150259
0.34710756 -0.18665799 0.86463398
0.3492136 -0.16422856 0.82774818
0.34949324 -0.16522998 0.83291501
0.34846008 -0.16914795 0.83633894
0.34727409 -0.16880956 0.8396697
0.34448111 -0.17401734 0.84647721
0.34452131 -0.17495871 0.84718454
0.34471726 -0.17838143 0.85589015
0.345092 -0.18114108 0.85758466
0.34487906 -0.18270142 0.86289459
0.34336755 -0.18596397 0.8656792
0.34470174 -0.16414712 0.82731956
0.34362787 -0.16901112 0.83504695
0.34421518 -0.17167075 0.83981144
0.34399214 -0.17416923 0.84395528
0.34313226 -0.17674227 0.84870553
0.34200162 -0.17891061 0.85326648
0.34021324 -0.18137538 0.85684532
0.33887419 -0.18548813 0.86501777
0.34119815 -0.16522634 0.82774895
0.33914959 -0.1669513 0.83011484
0.33840987 -0.16889703 0.83400691
0.33504069 -0.18192327 0.85630339
0.33440784 -0.18398331 0.86034691
0.3358756 -0.18540592 0.86329716
0.33576515 -0.16594814 0.83223736
0.33553615 -0.16726089 0.83363432
0.33047873 -0.17685561 0.84157294
0.3300193 -0.17799094 0.84370393
0.33196595 -0.18101181 0.85723215
0.33154148 -0.18144648 0.85925734
0.32647604 -0.17546195 0.84004468
0.32580066 -0.17785795 0.84408969
0.32400066 -0.17609499 0.8400799
0.32372063 -0.17810819 0.84334099
0.31079829 -0.17277029 0.83653778
0.31114572 -0.17535038 0.83776736
0.31026167 -0.17775142 0.84272605
0.30931953 -0.17818496 0.84525263
0.3097972 -0.17335582 0.83622003
0.30757719 -0.17656676 0.83737439
0.30687004 -0.17889242 0.84121341
0.30728048 -0.17850664 0.84488857
0.30476764 -0.17881617 0.83711141
0.30424148 -0.18001251 0.84034187
0.29193416 -0.17574531 0.83522046
0.28955865 -0.17802615 0.8397432
0.28846216 -0.17663094 0.83453315
0.28744859 -0.17813708 0.83874524
0.37492654 -0.17516863 0.85012847
0.37464768 -0.17643335 0.85221684
0.37165219 -0.17321073 0.84366912
0.37254086 -0.17598249 0.84722674
0.37209025 -0.17885436 0.85187882
0.36962909 -0.18027481 0.85584718
0.36693603 -0.16870686 0.83590245
0.36828941 -0.1714334 0.83778328
0.36982253 -0.17406492 0.84106231
0.36728728 -0.1825971 0.85615426
0.36486161 -0.18372911 0.85935211
0.36307201 -0.18356811 0.86234814
0.36370152 -0.1697142 0.8334769
0.36515611 -0.17211004 0.83479607
0.36125982 -0.18613997 0.85958266
0.35923275 -0.18584426 0.86188072
0.3585692 -0.1705662 0.82793915
0.36028692 -0.16951764 0.83040088
0.35513994 -0.18788902 0.8627243
0.3529278 -0.19014026 0.86268777
0.35438129 -0.16857131 0.82657665
0.35520831 -0.16875298 0.83068532
0.3515234 -0.17079106 0.8357054
0.34811369 -0.18294506 0.85688931
0.35041407 -0.18647972 0.86200815
0.34884831 -0.18981048 0.86393952
0.35039458 -0.16753945 0.824579
0.34905648 -0.17197457 0.83516181
0.34499866 -0.18026166 0.84424073
0.3457182 -0.18379974 0.85560846
0.34420213 -0.19047724 0.86499929
0.34555995 -0.16831823 0.82429385
0.34364194 -0.17321956 0.83418661
0.34411052 -0.17591847 0.83719873
0.34384331 -0.17827067 0.84199876
0.34305438 -0.1805954 0.84603673
0.34180132 -0.18348211 0.8502112
0.34083137 -0.18440141 0.85387105
0.3392604 -0.1904849 0.86332899
0.34202403 -0.16913232 0.82537907
0.34076035 -0.17095599 0.82772708
0.34075302 -0.17251457 0.8314302
0.33608311 -0.18063527 0.83991045
0.33571118 -0.18205979 0.84276998
0.33699214 -0.18600671 0.85525703
0.33606073 -0.18841368 0.85826737
0.33651206 -0.1896732 0.86120278
0.33212274 -0.17802002 0.83642256
0.3336184 -0.17892757 0.83954906
0.33250099 -0.18142043 0.84397054
0.33054262 -0.18431845 0.84513152
0.32866511 -0.17735247 0.83547962
0.32778546 -0.17654124 0.83773392
0.32703006 -0.1811341 0.84491497
0.32702562 -0.18439439 0.8456189
0.32358664 -0.17781501 0.83298874
0.32244518 -0.17870906 0.83753246
0.32183379 -0.18146507 0.84231812
0.32180503 -0.18483005 0.84561938
0.3213551 -0.17985035 0.83326244
0.3198207 -0.18109891 0.83727807
0.3195954 -0.18322225 0.84061778
0.31968588 -0.18499121 0.84369963
0.30726707 -0.1801825 0.83577794
0.30675429 -0.18221365 0.83917505
0.30368575 -0.18156038 0.83456844
0.3029677 -0.18311997 0.83789229
0.30064321 -0.18305433 0.83399731
0.29990596 -0.18456325 0.83693588
0.3708683 -0.18019216 0.84615755
0.37081552 -0.181887 0.8487848
0.36779761 -0.17591318 0.83654618
0.36848509 -0.17826329 0.83952153
0.36951047 -0.1810683 0.84358603
0.36880082 -0.18455215 0.84904611
0.36644626 -0.18580662 0.85273856
0.36470768 -0.18701835 0.85595453
0.36279416 -0.17362443 0.83216107
0.36475116 -0.17610376 0.83405173
0.36629727 -0.17970128 0.8368215
0.36376193 -0.18855938 0.8523373
0.36121425 -0.18889153 0.85625207
0.35862684 -0.18882012 0.85891771
0.35867471 -0.17184614 0.82699621
0.36063546 -0.17388673 0.82915342
0.36238423 -0.17694733 0.83162838
0.35824209 -0.19103351 0.8565945
0.35592562 -0.19128513 0.8596552
0.3531256 -0.19207186 0.86202765
0.35568285 -0.17192975 0.82570833
0.35538778 -0.175329 0.82681042
0.35040039 -0.19346276 0.85838175
0.35017705 -0.19263875 0.86204028
0.35078865 -0.1726665 0.82354277
0.35228965 -0.1764022 0.82635593
0.34817144 -0.17926693 0.83059835
0.34822085 -0.18083806 0.83595437
0.3469041 -0.18182898 0.83753824
0.34520668 -0.1866309 0.84590513
0.34608471 -0.18776281 0.8476404
0.3447772 -0.19159517 0.85186827
0.34723797 -0.19410571 0.85726929
0.34487212 -0.19426566 0.86116159
0.34633198 -0.1730381 0.82328874
0.34489343 -0.17643951 0.82546717
0.34481192 -0.17807692 0.83043587
0.34538051 -0.17852882 0.83580291
0.34350789 -0.18166442 0.83897024
0.34223059 -0.18491414 0.84435946
0.34343296 -0.18625179 0.84876394
0.34136114 -0.19047941 0.8519873
0.34019318 -0.19370772 0.85583228
0.34075627 -0.19414258 0.86003309
0.34288734 -0.17185742 0.82467419
0.34246483 -0.17432332 0.82647038
0.34197465 -0.17569561 0.82932889
0.33773586 -0.18297468 0.83455735
0.33865571 -0.18285242 0.83825946
0.3381266 -0.18536668 0.84262079
0.33622545 -0.18820775 0.84390146
0.33824298 -0.18952052 0.85376012
0.33783433 -0.19151901 0.85657531
0.33419141 -0.18150255 0.83369642
0.33559492 -0.18135676 0.83671749
0.33430901 -0.18530522 0.843512
0.33237344 -0.18788041 0.84451091
0.32961825 -0.18062757 0.831343
0.32737792 -0.18836214 0.84497797
0.32523224 -0.17912331 0.82963169
0.32504731 -0.18015996 0.82998681
0.32239497 -0.18842719 0.84454179
0.32105535 -0.18225212 0.83124453
0.318333 -0.18422684 0.8342889
0.31797323 -0.18684037 0.83869123
0.31954768 -0.18787126 0.84212083
0.30311477 -0.18456692 0.83326656
0.30238312 -0.18596892 0.83573836
0.30107802 -0.18520573 0.83251244
0.30024886 -0.18671732 0.83556235
0.36652529 -0.18172103 0.83979821
0.36817566 -0.18386471 0.84358966
0.36798584 -0.18555655 0.84648567
0.36556002 -0.1869743 0.84918267
0.36371693 -0.17944393 0.83364516
0.36420941 -0.18198268 0.83681524
0.36396462 -0.18576604 0.84104377
0.36329165 -0.18828708 0.84492564
0.36209744 -0.18947066 0.85009545
0.36042064 -0.1908873 0.85324925
0.35937345 -0.17806083 0.82843769
0.36024028 -0.18036062 0.83127618
0.35975257 -0.1840183 0.83500129
0.35944095 -0.18727373 0.8391307
0.35877877 -0.18979608 0.84319913
0.35764679 -0.19142431 0.84819281
0.35679168 -0.19276078 0.85292977
0.35493791 -0.19401699 0.85630804
0.35642835 -0.17833073 0.82777226
0.35569826 -0.18171349 0.8301686
0.35560369 -0.18483977 0.83271068
0.35560885 -0.1892949 0.83983666
0.35650286 -0.18971807 0.84095919
0.35349235 -0.19318812 0.84726578
0.35232055 -0.19393504 0.85165846
0.35191962 -0.19436926 0.85587174
0.34934852 -0.17589736 0.82337034
0.35055029 -0.17753598 0.82622224
0.35048833 -0.18071441 0.82960558
0.34927124 -0.18423893 0.83365053
0.34847087 -0.18756999 0.83456969
0.34704995 -0.19202654 0.84233028
0.34735042 -0.1917747 0.84634954
0.34695968 -0.1932203 0.8512457
0.3461338 -0.19425222 0.85536391
0.34380493 -0.19572195 0.8580963
0.34802306 -0.1758462 0.82316905
0.34720781 -0.17726474 0.82468891
0.34622198 -0.1851835 0.8349278
0.34438068 -0.18664233 0.83498734
0.34351382 -0.19101319 0.84183949
0.34469783 -0.19057874 0.84414154
0.34239134 -0.19510812 0.85625041
0.33955181 -0.1861129 0.8330186
0.34103337 -0.18572901 0.83449697
0.33909956 -0.18969305 0.84281141
0.33820677 -0.19174436 0.84261125
0.33449304 -0.18486112 0.82982433
0.33233929 -0.19253972 0.84388661
0.33131421 -0.18541399 0.82861167
0.32896841 -0.19341001 0.84327263
0.32567969 -0.18564636 0.82843274
0.32347271 -0.19293416 0.84146339
0.32087368 -0.18637961 0.82854426
0.31797507 -0.18823962 0.8309679
0.31726542 -0.19161476 0.83693141
0.31919309 -0.19304065 0.83977288
0.3172341 -0.18980788 0.83232081
0.31686637 -0.19082904 0.83462638
0.35743585 -0.18821706 0.83807111
0.35665128 -0.190788 0.84261233
0.35494357 -0.18669878 0.8343358
0.35465884 -0.18845186 0.83716702
0.35385162 -0.19127834 0.8421188
0.35295522 -0.19285476 0.84505349
0.35199824 -0.18701617 0.83394569
0.34972537 -0.18913993 0.83691174
0.3492195 -0.19117758 0.84050864
0.35033301 -0.192892 0.84422541
0.34467527 -0.1898295 0.83557743
0.3438428 -0.1920414 0.83913261
0.33974361 -0.18954335 0.83100539
0.34146518 -0.19147155 0.83315378
0.34076297 -0.19424663 0.83856958
0.33810607 -0.19512376 0.84076011
0.33423644 -0.18955153 0.82495111
0.33513904 -0.18885034 0.8275736
0.33308688 -0.19672793 0.84184188
0.33140978 -0.19839814 0.84299451
0.33363414 -0.18892008 0.82525998
0.3316991 -0.18900612 0.82681978
0.32933304 -0.19716002 0.84140658
0.33074513 -0.19834957 0.84300685
0.3261323 -0.19028451 0.82670385
0.32427949 -0.19701742 0.83899087
0.32169431 -0.19081596 0.82655782
0.31894907 -0.19293578 0.82924289
0.31832466 -0.19564161 0.83390486
0.32018274 -0.19714391 0.83733445
0.31770444 -0.191379 0.83103281
0.31737947 -0.19267564 0.83309585
0.33931956 -0.19515052 0.83200318
0.33873686 -0.19707757 0.8355478
0.3356376 -0.19395202 0.82733059
0.33672228 -0.19700228 0.82965165
0.33602706 -0.19967611 0.83466417
0.33407596 -0.19989377 0.83792412
0.33181712 -0.19431089 0.82552111
0.33304134 -0.20189582 0.83458465
0.32979792 -0.20123208 0.8377431
0.32699171 -0.19481993 0.82531303
0.32504392 -0.19755906 0.82549721
0.32348976 -0.201904 0.83330268
0.32514751 -0.20105645 0.83618081
0.32309783 -0.19442549 0.82578003
0.32172278 -0.19710945 0.82738346
0.32096788 -0.19955531 0.83166939
0.32187361 -0.19998135 0.83525819
0.33461255 -0.19970557 0.82963336
0.33459353 -0.20070189 0.83184028
0.33206427 -0.19753146 0.82561839
0.33074009 -0.20174249 0.82724351
0.33027089 -0.20359299 0.83009499
0.32973573 -0.20324054 0.83444643
0.32912192 -0.19791761 0.82493234
0.32710344 -0.20222795 0.8265081
0.32625622 -0.20407234 0.82949251
0.32698742 -0.20329429 0.83392251
0.32360673 -0.20023149 0.82756436
0.32344785 -0.20170513 0.82983464
0.3459096 -0.20921925 0.83141065
0.34597683 -0.21013921 0.83266336
0.34414774 -0.20921646 0.83065242
0.33002204 -0.20546837 0.82643354
0.32993013 -0.20631184 0.82728219
0.32785752 -0.20585729 0.82517004
0.32732481 -0.20709009 0.82741243
0.32465577 -0.20589727 0.82562602
0.32462147 -0.20638049 0.82640868
0.3504957 -0.21083738 0.83185095
0.3504287 -0.21154806 0.83286738
0.34718499 -0.21086986 0.82998067
0.34706107 -0.21163489 0.83258057
0.34230658 -0.21052527 0.82529843
0.34261441 -0.21111587 0.8286829
0.34381187 -0.2121529 0.83146602
0.3392491 -0.21145087 0.82354385
0.33945996 -0.21246804 0.82657248
0.33281252 -0.21079378 0.82256067
0.3318463 -0.21176183 0.82440138
0.32871738 -0.21024504 0.82216924
0.32842967 -0.21136397 0.82459205
0.3421652 -0.21314871 0.82359159
0.34259087 -0.21426629 0.82602966
0.33886448 -0.21380475 0.82154369
0.33864683 -0.21520275 0.82451868
0.33408904 -0.21443698 0.82021958
0.3338072 -0.21456802 0.82306254
0.33043739 -0.2138726 0.82078302
0.33051306 -0.21408345 0.82253224
