# .PCD v0.7 - Point Cloud Data file format
VERSION 0.7
FIELDS x y z
SIZE 4 4 4
TYPE F F F
COUNT 1 1 1
WIDTH 1190
HEIGHT 1
VIEWPOINT 0 0 0 1 0 0 0
POINTS 1190
DATA ascii
0.020093165 0.11551134 0.53967047
0.0475136 0.12287364 0.55729705
0.0099740885 0.11404742 0.53881723
0.010553204 0.11429773 0.53985918
0.018691886 0.11574964 0.54104334
0.047117975 0.12334671 0.55950731
0.051560301 0.12507015 0.56547302
0.052509159 0.12548427 0.56612927
0.010901455 0.11581915 0.54517603
0.013357267 0.11638618 0.54725957
0.017760966 0.11790387 0.54985613
0.039252531 0.12355679 0.56372654
0.044336982 0.12478399 0.56729293
0.047389813 0.12519968 0.56743073
0.051609978 0.12553234 0.5668118
0.010134738 0.11603438 0.54662287
0.013388865 0.11666754 0.54855371
0.016429834 0.11789528 0.5511564
0.038496796 0.12382074 0.56522477
0.042355169 0.12444942 0.56750447
0.045098972 0.12539554 0.56919372
0.03249415 0.10898256 0.52502388
0.035146523 0.11002249 0.52645594
0.05606908 0.1155023 0.54012668
0.058215953 0.11587887 0.54170227
0.029509962 0.11080981 0.52646941
0.033813126 0.11192011 0.52829635
0.035702553 0.11149618 0.53133911
0.051126525 0.11525401 0.54125834
0.054057628 0.11695627 0.54132813
0.057615161 0.11812386 0.54436922
0.023453552 0.10956641 0.53055489
0.025744338 0.11132837 0.5297029
0.030568957 0.11297376 0.53330898
0.033472791 0.11173653 0.53413242
0.04969595 0.11538807 0.54356605
0.050859366 0.11806981 0.54578513
0.055929057 0.11932066 0.54901135
0.056325484 0.11813358 0.55222517
0.021407943 0.11042449 0.53237838
0.023492508 0.11321668 0.53408474
0.028520996 0.1124365 0.53743023
0.048279643 0.11761834 0.54979229
0.05265915 0.12072663 0.55227882
0.055059101 0.11954337 0.55458707
0.017093066 0.11164889 0.53629577
0.020525578 0.1145812 0.5375635
0.026065953 0.11366893 0.54204232
0.04467224 0.11857869 0.55394971
0.049804769 0.12229914 0.55615747
0.052960098 0.12092774 0.55908215
0.010403819 0.11158046 0.53869724
0.013054349 0.11242189 0.54032242
0.017103612 0.11518174 0.54290915
0.023452647 0.11468966 0.54555941
0.042089954 0.11968426 0.55747986
0.04720667 0.12340171 0.5613848
0.05107671 0.12226445 0.56428814
0.053233851 0.12312396 0.56629878
0.0093849972 0.11268713 0.54025716
0.011048369 0.1126136 0.54388577
0.015558243 0.11371107 0.54671609
0.019722912 0.11481623 0.54993397
0.039420098 0.12008135 0.56267548
0.043819744 0.12138475 0.56490779
0.048568316 0.12251865 0.56746542
0.051861987 0.12397296 0.56764561
0.0094380006 0.11404423 0.54739362
0.013725687 0.11497895 0.54976559
0.016437478 0.11575469 0.55258477
0.038011372 0.12145 0.56649524
0.041708365 0.12235937 0.56784332
0.045187369 0.12362828 0.57055736
0.032792341 0.10606869 0.52547616
0.035640746 0.10678039 0.52693319
0.056560777 0.11240163 0.54067469
0.058698524 0.11355782 0.54209268
0.029899444 0.10587499 0.5268079
0.037074611 0.1067334 0.52919954
0.036697283 0.1083359 0.53174341
0.051544301 0.1123939 0.54146415
0.054265954 0.11119978 0.54046404
0.058786765 0.11328606 0.54506463
0.0235456 0.10813357 0.5311653
0.025778972 0.1062532 0.53021425
0.032025855 0.1079542 0.53675878
0.033960462 0.10854795 0.53520781
0.049684107 0.11244371 0.54466724
0.048999153 0.11283237 0.54698598
0.057075731 0.11447505 0.5503915
0.05630862 0.11717861 0.55245316
0.021555811 0.10677134 0.53396004
0.022990435 0.10594515 0.5347361
0.029307846 0.10910458 0.53895265
0.047656834 0.11392999 0.5506624
0.054868326 0.11479651 0.55456436
0.054961309 0.11602385 0.5556975
0.017883327 0.10778844 0.53719008
0.02149399 0.10687245 0.53968608
0.025672518 0.10922225 0.54193747
0.046355918 0.11459304 0.55481911
0.050327916 0.11448214 0.55815291
0.053377841 0.11705063 0.55957747
0.014905918 0.10891245 0.54041833
0.018323492 0.10896651 0.54343617
0.022159684 0.11025272 0.54598498
0.043707177 0.11591246 0.55960673
0.047499824 0.11670444 0.56204927
0.051257856 0.11856171 0.56341207
0.013214491 0.10996988 0.54478109
0.01566162 0.10981232 0.54533482
0.019740224 0.11139835 0.54895103
0.041440658 0.11723106 0.56292522
0.045880936 0.11810023 0.56508416
0.047530808 0.1190011 0.56670392
0.03352578 0.10355741 0.52676189
0.035092354 0.10396729 0.5275296
0.030056426 0.10151676 0.52859378
0.035418537 0.10201754 0.53057182
0.035948936 0.10422402 0.53334129
0.051647738 0.10881322 0.54363567
0.054962941 0.10758572 0.54335588
0.058483101 0.10887154 0.54679406
0.027099803 0.10173423 0.53228426
0.031547144 0.10268059 0.53687268
0.034802478 0.1035326 0.53615671
0.049952079 0.10770332 0.54598737
0.050739534 0.10744331 0.54919308
0.056823961 0.10961534 0.55101401
0.025492115 0.10378099 0.53593147
0.029261781 0.10397567 0.53758752
0.050400507 0.10972926 0.55145699
0.053321026 0.1111484 0.55372769
0.031432774 0.097545989 0.53115308
0.034697223 0.097657569 0.532098
0.055513129 0.10324783 0.5457114
0.057427987 0.10513473 0.54777354
0.029483 0.097575404 0.53357959
0.032640673 0.098537497 0.53649139
0.034753568 0.1004115 0.53638023
0.050877806 0.10483039 0.54663533
0.052036926 0.10388302 0.54894835
0.056144677 0.10474279 0.55066895
0.029657245 0.096243091 0.53757632
0.052425083 0.10274816 0.55218416
0.053631447 0.10262436 0.55320942
0.032157272 0.093200877 0.53328061
0.034501776 0.093002245 0.53377098
0.055867597 0.09878166 0.54752851
0.029789712 0.09223555 0.5349077
0.034207281 0.093211517 0.53737932
0.052809674 0.09813682 0.54925489
0.056846596 0.099393874 0.55198485
0.027766496 0.092494264 0.53825784
0.030400414 0.093329154 0.54007238
0.051250406 0.098559216 0.55393159
0.054460943 0.099769659 0.55544013
0.034787267 0.08873225 0.53532302
0.055720381 0.094867781 0.54876727
0.029965613 0.087315425 0.53576678
0.034848783 0.08814995 0.53755176
0.035648208 0.088315845 0.54068214
0.051081736 0.092255212 0.55057639
0.054636728 0.093373716 0.55003071
0.057675682 0.094561391 0.55359113
0.026796274 0.087946542 0.53983903
0.030969206 0.089905247 0.54296601
0.034093514 0.088566162 0.54312551
0.049185906 0.092787519 0.55326563
0.050076324 0.095320128 0.55550969
0.055360116 0.095544621 0.55791277
0.026209405 0.086823501 0.54319
0.02883406 0.087673753 0.54484904
0.049783666 0.093322039 0.55853516
0.052719973 0.094360374 0.56014359
0.030146787 0.08247415 0.53651661
0.035387702 0.08339756 0.53775185
0.036904819 0.084230915 0.54152328
0.051275942 0.088254035 0.55082625
0.055445321 0.088819556 0.55085593
0.058659896 0.08990898 0.55488986
0.026020553 0.082783848 0.54004186
0.035079181 0.08502645 0.54512888
0.048473913 0.088771582 0.55382854
0.057098519 0.091067262 0.55997801
0.024991885 0.083335631 0.54490912
0.028180368 0.084712662 0.54780918
0.031995047 0.084242776 0.5489468
0.046741039 0.088834755 0.55813885
0.048947994 0.090494022 0.56134945
0.053162403 0.090865634 0.56301105
0.025088526 0.082150429 0.5489732
0.026128493 0.082349353 0.54944116
0.045846112 0.087403618 0.56164587
0.048436344 0.08854299 0.56386685
0.050833974 0.089072607 0.56519347
0.030905645 0.077906072 0.53815621
0.035360664 0.078723386 0.53974128
0.037121855 0.079829238 0.54297614
0.051740568 0.083860621 0.55228454
0.055411808 0.08420375 0.55287141
0.058555558 0.085341603 0.55610526
0.026309345 0.077936821 0.54067004
0.035904817 0.079974443 0.54666525
0.04873091 0.08348082 0.55487394
0.058189858 0.085926361 0.56104624
0.0239136 0.078442477 0.54509926
0.027704511 0.082449734 0.55005848
0.033091079 0.080485143 0.55037463
0.04623818 0.084122889 0.55888212
0.054880399 0.086971566 0.56512684
0.023168765 0.079259999 0.55002791
0.026332418 0.080233932 0.5529629
0.02990764 0.080171682 0.55323851
0.045031622 0.084452301 0.56305808
0.04641163 0.085632615 0.56603211
0.050953835 0.086468093 0.56788677
0.021962933 0.078240141 0.55402863
0.023715641 0.07896246 0.55541319
0.045809332 0.085020609 0.56952298
0.048272561 0.08522515 0.57085133
0.031218391 0.074961156 0.54050511
0.034384519 0.075553231 0.54209954
0.036359034 0.076657958 0.54427123
0.054817203 0.081106469 0.55549961
0.057490297 0.082226709 0.55722064
0.028552299 0.073837243 0.5430668
0.032985158 0.073627234 0.54540992
0.035330087 0.076071627 0.54730791
0.050027311 0.080135584 0.55641741
0.05343356 0.079243936 0.55859232
0.056774482 0.081528023 0.56093341
0.025301594 0.073439799 0.54623777
0.031491943 0.072680034 0.54868132
0.033131968 0.076098889 0.5513137
0.047229894 0.079674214 0.56029689
0.051660541 0.078156956 0.56197071
0.055146359 0.081371307 0.56541687
0.022109125 0.074438483 0.55069906
0.027913552 0.077375814 0.55543447
0.029758338 0.075585246 0.55522156
0.044936474 0.079905733 0.56531608
0.045029733 0.082264386 0.56603062
0.052416787 0.082422055 0.56990492
0.020862639 0.074918978 0.55537236
0.023883265 0.076332301 0.55837208
0.027501311 0.075390488 0.55819839
0.04334949 0.079906918 0.56839126
0.044012979 0.082017742 0.57121408
0.048622645 0.082291208 0.57301748
0.021826126 0.074106276 0.55948585
0.044661433 0.080836706 0.57417512
0.045742642 0.081061408 0.57471949
0.02655527 0.069702439 0.54959303
0.029851038 0.070638828 0.55100113
0.032302801 0.071094856 0.55333912
0.047649849 0.074943542 0.56304878
0.05058872 0.076214999 0.56440264
0.053164288 0.076897219 0.56686831
0.022874027 0.069536492 0.5520798
0.02815209 0.070675433 0.55205339
0.03054072 0.071688861 0.55655825
0.045079697 0.075568832 0.5657652
0.050109349 0.076443516 0.56623191
0.052669842 0.077363677 0.57071257
0.021425765 0.070514373 0.55645984
0.024470836 0.071600102 0.56006652
0.028277246 0.071850441 0.55933058
0.043265399 0.076089256 0.56930119
0.044427406 0.076573424 0.57311988
0.049122646 0.077812366 0.57402426
0.022017449 0.072900027 0.55980539
0.044202033 0.07879898 0.57411385
0.046313547 0.079731584 0.5751279
0.042941228 0.062341291 0.53804153
0.045924596 0.063217744 0.53893089
0.050256059 0.064134061 0.54121
0.054191705 0.065421499 0.54365075
0.057590615 0.066658974 0.54721707
0.059741631 0.066114202 0.54927862
0.039588358 0.0616487 0.53963274
0.0580406 0.067010209 0.5489952
0.059965558 0.067886345 0.55257982
0.061334841 0.068067811 0.55602449
0.036366999 0.06119585 0.54101676
0.060088605 0.067865066 0.55626136
0.06091594 0.068107873 0.5578773
0.030740719 0.062629357 0.54787236
0.033153642 0.064234234 0.54814315
0.036836706 0.064875163 0.55097681
0.050271377 0.068714321 0.55988765
0.054362729 0.069537044 0.5617891
0.055746965 0.069309182 0.56411743
0.027817465 0.064312041 0.54972094
0.031726114 0.066682294 0.54955906
0.03576 0.066421792 0.55459887
0.046608381 0.069337614 0.56180358
0.052764088 0.072080739 0.56320924
0.054574847 0.071453489 0.56712937
0.023899488 0.064710058 0.55319369
0.032259349 0.067171589 0.55838549
0.044523999 0.069999464 0.56598055
0.053046856 0.072240129 0.57171029
0.023325391 0.065904722 0.5564661
0.025829464 0.066406205 0.55916739
0.029178392 0.06661766 0.56043273
0.043875348 0.070794776 0.57012844
0.046363533 0.072042622 0.57261974
0.050063752 0.072898887 0.57370204
0.042657457 0.058168355 0.53791946
0.046749372 0.059428427 0.53886133
0.051345833 0.060379773 0.54110205
0.054864205 0.06172356 0.54400229
0.059012227 0.062623821 0.54712874
0.060870074 0.06271176 0.54972535
0.036695499 0.058561195 0.5404799
0.039987858 0.059021208 0.53965479
0.044007279 0.058794223 0.5416472
0.049657203 0.059602525 0.54435986
0.053430047 0.060757954 0.54684907
0.056410376 0.062977619 0.55096686
0.060828123 0.064637981 0.55293268
0.062032957 0.064760417 0.5567376
0.034458365 0.059195869 0.54232872
0.037300184 0.059222557 0.54484445
0.040651668 0.059360139 0.54796004
0.042926256 0.058856364 0.55025345
0.053808022 0.062644318 0.55607247
0.057274349 0.064828098 0.55753809
0.061241951 0.065808766 0.55964887
0.031038057 0.058698017 0.54679531
0.034635805 0.060808066 0.54658484
0.039145093 0.062269934 0.5504353
0.040885478 0.061271247 0.55350262
0.048085231 0.063174009 0.55791861
0.050806873 0.065244682 0.55799472
0.056579862 0.066419907 0.56078911
0.058346052 0.066406921 0.56447572
0.02810345 0.058676396 0.54981095
0.036517926 0.06231299 0.55734521
0.038683623 0.062118754 0.5558427
0.046370048 0.063974641 0.56089687
0.045660548 0.064598814 0.56329393
0.056528665 0.066287771 0.56834322
0.025412079 0.060289461 0.55470967
0.027670698 0.060118292 0.55806285
0.032707952 0.062169734 0.55933744
0.045306083 0.065343484 0.56724638
0.049052492 0.065669872 0.5719074
0.052694779 0.067607231 0.57232803
0.027630387 0.062744774 0.55964935
0.029623635 0.063759074 0.56052023
0.045114469 0.067047745 0.57066989
0.046832576 0.067798361 0.57212949
0.050212719 0.069164887 0.57339251
0.04322122 0.053688418 0.53867441
0.047976263 0.054277014 0.53898734
0.052610956 0.055196065 0.54106873
0.056213517 0.056645542 0.54383916
0.05999653 0.057887726 0.54707855
0.062349752 0.058731806 0.55109775
0.037696123 0.05277469 0.54019594
0.040041029 0.053452663 0.53916675
0.04449518 0.055433638 0.544949
0.048716098 0.055335991 0.54635465
0.053089034 0.057185993 0.54900539
0.054990865 0.057741251 0.55271381
0.062883101 0.059717212 0.55433804
0.063308641 0.05991653 0.55737787
0.034174096 0.052868277 0.5434224
0.040721156 0.057027649 0.54464865
0.043099504 0.056710124 0.54713553
0.044495936 0.056610297 0.55072224
0.05065991 0.058348667 0.55493855
0.054522965 0.059858043 0.55453992
0.06240242 0.060676821 0.56073976
0.030531753 0.053979333 0.54692322
0.042483203 0.057570241 0.55393648
0.048244789 0.05898983 0.55810326
0.060448356 0.061367955 0.56578112
0.027478362 0.055172991 0.55114341
0.037380144 0.056856558 0.55792391
0.03950008 0.057409082 0.55937421
0.044030387 0.058579899 0.56224489
0.046991173 0.059545975 0.5642783
0.057436764 0.062295277 0.56987935
0.026430836 0.055569351 0.55526471
0.029242912 0.056260824 0.55804181
0.033706598 0.057913758 0.56001359
0.037923329 0.058881912 0.56266612
0.042523533 0.059721213 0.56464964
0.046264395 0.060888156 0.5685426
0.049954012 0.061739102 0.57166272
0.05397401 0.063099608 0.57195455
0.054266345 0.050497286 0.54164737
0.057437249 0.049879242 0.54392928
0.044057675 0.048710149 0.53971225
0.048848547 0.049204815 0.53996116
0.052921034 0.050372414 0.54162836
0.057044514 0.052104987 0.54433799
0.061709736 0.05232643 0.54819906
0.063737229 0.053958625 0.55204266
0.038222179 0.04845598 0.5414685
0.040618733 0.048256673 0.54045367
0.046063494 0.052757878 0.54706901
0.048673302 0.051306985 0.54902977
0.052442279 0.052588671 0.55151421
0.064217091 0.054958012 0.55508363
0.064332314 0.054917626 0.55799717
0.035213131 0.048933957 0.54409492
0.046295039 0.051643636 0.55167711
0.051326979 0.052693632 0.55452943
0.063104935 0.055957064 0.56219459
0.031834837 0.048954912 0.54843539
0.042874306 0.051455412 0.55526209
0.049320545 0.053552654 0.55913293
0.04917644 0.052238718 0.56203395
0.060697999 0.056976117 0.56704485
0.029405246 0.050095737 0.55222034
0.03138157 0.049274497 0.55637306
0.03853707 0.05223342 0.55751878
0.04149209 0.052923478 0.56045496
0.044841409 0.054168794 0.56350225
0.048297238 0.054853275 0.56371814
0.054543391 0.055362068 0.5704456
0.057430319 0.057412159 0.57015413
0.028755177 0.051914919 0.5556252
0.031186437 0.052020207 0.55745661
0.035307091 0.052728534 0.56019169
0.038815729 0.05361909 0.56218725
0.043391205 0.054854844 0.56463206
0.04720483 0.05589224 0.56837535
0.051270958 0.056763902 0.57022715
0.053653155 0.058920696 0.57170826
0.052199941 0.04264342 0.54101843
0.054677367 0.044934016 0.5424813
0.057668384 0.04568734 0.54446197
0.06111775 0.045389358 0.54706663
0.045108069 0.043631591 0.54073644
0.048940625 0.044729993 0.54080796
0.05403848 0.045526426 0.54284567
0.059200048 0.046258382 0.54628617
0.061940551 0.04793565 0.54872406
0.064292841 0.049168918 0.55307937
0.038577214 0.043622151 0.54324001
0.041114591 0.043375734 0.5420267
0.064896889 0.049537845 0.55642182
0.064470798 0.050485149 0.55912
0.036246665 0.04397257 0.54596901
0.047591321 0.047884494 0.55366641
0.050277226 0.048685703 0.55556309
0.062981002 0.050975915 0.56306762
0.033706538 0.044363439 0.54988146
0.033431169 0.043528765 0.55292034
0.044232115 0.048035838 0.5568912
0.048745103 0.049158126 0.55949563
0.060164712 0.05129841 0.56731945
0.031572551 0.046266295 0.55310208
0.033052571 0.045707315 0.55604583
0.036408115 0.047130316 0.55993867
0.041171182 0.048146732 0.56263381
0.044612348 0.049184792 0.56560278
0.049396571 0.049407154 0.56824565
0.05396599 0.050881892 0.56965148
0.057336394 0.052619714 0.56997323
0.035500769 0.048134267 0.56044281
0.039287798 0.048849817 0.56284803
0.044966914 0.04913364 0.56643093
0.048137859 0.051658105 0.56857598
0.050875433 0.05278999 0.56981438
0.048309051 0.038264595 0.53909582
0.051488917 0.039318219 0.54005092
0.055888016 0.040441215 0.54188621
0.059873857 0.041703671 0.54481882
0.06355048 0.042586237 0.54788077
0.065838195 0.043441623 0.55017346
0.045187611 0.038861934 0.54029399
0.048938058 0.040191524 0.54013628
0.059306581 0.044260316 0.54627073
0.063425273 0.044917252 0.54952496
0.065954879 0.044459369 0.55362689
0.039556656 0.038563441 0.54345989
0.041094813 0.039345454 0.54286718
0.064578474 0.046797488 0.55761141
0.065447129 0.045133516 0.55975807
0.037050627 0.039197471 0.54710311
0.062939674 0.046431251 0.56382859
0.035402209 0.039885897 0.55005437
0.035322119 0.039868735 0.55291384
0.057941705 0.045759577 0.56772357
0.060619634 0.046988349 0.5666182
0.035677284 0.041003752 0.5567193
0.037693802 0.042088304 0.56011969
0.040777523 0.043848459 0.56330115
0.045562144 0.045376245 0.56635422
0.050405476 0.045319896 0.56839484
0.054488949 0.046466984 0.56869406
0.041456647 0.042317234 0.56521159
0.044899866 0.043661717 0.56734622
0.047727726 0.043900579 0.56892377
0.052148987 0.035760649 0.5413689
0.056207001 0.03574172 0.54363298
0.060284048 0.03677012 0.54595685
0.063463636 0.038709238 0.54871941
0.045624673 0.034778826 0.54257977
0.049995035 0.034159008 0.54300344
0.054067381 0.033667214 0.54434025
0.06121539 0.035517886 0.54889542
0.063541457 0.037683543 0.55130756
0.06512247 0.039512902 0.55492854
0.066969424 0.042211145 0.55737728
0.040314056 0.035234503 0.54424095
0.042908192 0.034086682 0.54533863
0.064150587 0.038801134 0.55869651
0.065679193 0.041851476 0.56055194
0.037737492 0.036136232 0.54809588
0.039783914 0.033781782 0.54951417
0.061450727 0.039299719 0.56375319
0.063513473 0.042212605 0.56364542
0.036261566 0.036243204 0.55056691
0.037304759 0.03538746 0.55376023
0.039991114 0.035307989 0.55770355
0.054086506 0.038915515 0.5667901
0.058436319 0.040364943 0.5673492
0.061008401 0.043562714 0.56696558
0.036364425 0.036954336 0.55736798
0.038871862 0.037802063 0.56064421
0.04272816 0.038505368 0.56344789
0.047096625 0.039608408 0.56620979
0.050941128 0.040832765 0.56852996
0.055150695 0.041624416 0.56955034
0.040798213 0.040574454 0.56500393
0.045148812 0.04179284 0.56771678
0.048230384 0.042594589 0.56933713
0.014864247 0.042008087 0.60680693
0.018005975 0.043120001 0.60869932
0.013124932 0.042811021 0.60965598
0.016189996 0.043747611 0.61135364
0.012327634 0.043178454 0.61257261
0.013799205 0.043761034 0.61355782
0.0575836 0.031221498 0.54572082
0.059678644 0.032092631 0.54691374
0.046665739 0.03155677 0.54499644
0.050313566 0.03021439 0.54540062
0.054489162 0.030732069 0.5455988
0.061007652 0.032065321 0.54980248
0.062646955 0.033402544 0.55291104
0.0638813 0.035101246 0.55613863
0.044615079 0.0308808 0.54746228
0.046590887 0.028568115 0.54828024
0.062366407 0.032808013 0.55834126
0.062814884 0.035494778 0.55915201
0.04185177 0.031874277 0.55104607
0.043831058 0.029945742 0.55344009
0.058330625 0.033911426 0.56271708
0.060344029 0.036539398 0.5627858
0.040224567 0.033098225 0.55406016
0.042382322 0.032119632 0.55756456
0.045687914 0.031609982 0.56227016
0.049495153 0.032584794 0.56478846
0.054504063 0.035239544 0.5652113
0.057447594 0.037790578 0.56561053
0.041865885 0.034337822 0.56058723
0.044410829 0.034294751 0.5628792
0.048209269 0.034994878 0.56521714
0.051473957 0.037028104 0.56667358
0.023186989 0.030391512 0.57200509
0.024154514 0.030404203 0.57239634
0.048551798 0.036803402 0.58800751
0.049398497 0.037265696 0.58856452
0.021697514 0.03091656 0.57381862
0.023771916 0.031627376 0.57600957
0.041784015 0.036476206 0.58964598
0.045336138 0.037306737 0.58968735
0.048061054 0.037892185 0.59070927
0.020254493 0.031233653 0.57736897
0.021987576 0.032491896 0.58011305
0.024217587 0.033170298 0.58231908
0.039084509 0.037119016 0.59181148
0.042029358 0.037803508 0.5929724
0.045511674 0.037899673 0.59336388
0.020464495 0.032989625 0.58410668
0.022878557 0.034187526 0.58690643
0.024127275 0.034577813 0.58986104
0.032342911 0.036260858 0.59468275
0.035265271 0.037527949 0.59483576
0.038881436 0.037997693 0.59595519
0.02204746 0.034915317 0.59117198
0.023448791 0.036093399 0.5933736
0.028765023 0.037403211 0.5968439
0.03218371 0.037553459 0.59734297
0.019140139 0.035363976 0.59667188
0.021720976 0.03692811 0.59758496
0.025798298 0.037638184 0.5998745
0.027973872 0.03759484 0.60191637
0.017986018 0.035465088 0.59876209
0.018429555 0.037876248 0.60154474
0.02246213 0.03872674 0.60448182
0.026232075 0.037992883 0.60422766
0.016142253 0.039283633 0.60608149
0.019312769 0.039962795 0.60805547
0.013639033 0.041473299 0.60932666
0.016382355 0.042338546 0.61120325
0.012173049 0.042170782 0.61258417
0.01405064 0.042884387 0.61371696
0.057978865 0.026167557 0.5470655
0.05995401 0.026875181 0.5481782
0.051004402 0.025636114 0.54766583
0.055127021 0.026075235 0.54734194
0.060954154 0.027426971 0.55128396
0.062154822 0.028823314 0.55446911
0.045058869 0.023683427 0.55053478
0.047505829 0.02518728 0.54941386
0.062123816 0.029337356 0.55868268
0.06231527 0.02841034 0.56156731
0.042760868 0.0243968 0.55310994
0.044270948 0.027147641 0.55405366
0.058592774 0.03086956 0.5632062
0.060790889 0.029174823 0.56466067
0.0418102 0.024909589 0.55573493
0.043371566 0.026855743 0.55867064
0.044662636 0.029245168 0.56165522
0.051323202 0.031126982 0.5659135
0.054906912 0.029958438 0.56617838
0.058792606 0.02931923 0.56652236
0.042493612 0.025823064 0.56216961
0.045035616 0.028354127 0.56436753
0.049089268 0.02961598 0.56681395
0.05247654 0.02851985 0.5686518
0.023375537 0.026927046 0.57077205
0.025430134 0.028492283 0.57301193
0.048302114 0.034430347 0.58755994
0.051629514 0.034408838 0.58874321
0.020122577 0.02786557 0.57383555
0.026010454 0.029241741 0.57616127
0.027348956 0.029266383 0.57957399
0.041977711 0.033134464 0.58867854
0.045405068 0.034403011 0.58826524
0.049820106 0.035653438 0.59264725
0.018854152 0.028030837 0.57873029
0.019372627 0.030598095 0.58091384
0.026693614 0.030751335 0.58344102
0.037855223 0.033664059 0.59065866
0.043201119 0.036823601 0.59591424
0.045997195 0.035142254 0.59603775
0.018557556 0.027401313 0.58207673
0.019135702 0.029497191 0.5849219
0.025192514 0.032217372 0.58706707
0.025613138 0.031882741 0.58982265
0.032707702 0.033667456 0.59404033
0.034873851 0.03522072 0.59305614
0.040196929 0.035263006 0.59819311
0.043527257 0.034219284 0.59780979
0.019616984 0.029622607 0.58850753
0.020575922 0.03161224 0.59184587
0.025463089 0.032899477 0.59479618
0.02815965 0.033675425 0.59621352
0.032972172 0.034993805 0.59995395
0.036663637 0.03462835 0.59949195
0.018950298 0.032313671 0.59664023
0.024352536 0.033058777 0.59916776
0.024364859 0.033104576 0.59970897
0.029231966 0.035105046 0.60313529
0.016362071 0.032476395 0.60070759
0.019582987 0.03428768 0.60320359
0.022080109 0.034749448 0.60499883
0.026386725 0.035237417 0.60696065
0.013884068 0.032704942 0.60481131
0.016518887 0.0353669 0.60680962
0.019595668 0.035403859 0.60879219
0.023289714 0.035586551 0.61108917
0.012788687 0.032915484 0.60789764
0.013729643 0.034583926 0.61116666
0.017362125 0.03595734 0.6135155
0.021226615 0.035653397 0.61375415
0.011413705 0.035189807 0.61520487
0.014484879 0.036626168 0.61708575
0.0092595406 0.035549924 0.61855191
0.012340039 0.037069999 0.6204958
0.058585834 0.021226238 0.54793453
0.060887098 0.022023246 0.54946005
0.048440199 0.018577002 0.54759109
0.051989328 0.02061281 0.54834825
0.055226225 0.021626545 0.54824388
0.061577324 0.023310315 0.55215234
0.063196391 0.023611566 0.55560035
0.065639026 0.023465391 0.55871069
0.045804963 0.019862477 0.54952031
0.048692372 0.022231199 0.54888946
0.063138239 0.026053017 0.55796134
0.064475402 0.024835836 0.56135434
0.042434163 0.021116974 0.55347574
0.042561419 0.023647837 0.55582678
0.05904872 0.027863979 0.56613159
0.061986536 0.026063088 0.5658685
0.040837977 0.020787043 0.55755472
0.041491278 0.023009451 0.55955744
0.056195688 0.026922502 0.56902844
0.05901213 0.025558706 0.56906503
0.041265652 0.022285676 0.5632844
0.044128135 0.024307344 0.56683397
0.048559397 0.025603842 0.56960517
0.053529259 0.025702517 0.57093209
0.043543763 0.022037644 0.56911254
0.047288902 0.02337873 0.57127219
0.023408122 0.018893013 0.56728852
0.025743362 0.020345204 0.56786561
0.052447788 0.026852781 0.58596176
0.055238135 0.028150678 0.58685941
0.057199575 0.02782133 0.58879071
0.021295778 0.019803489 0.56952846
0.023734204 0.022367306 0.56971616
0.027342264 0.022972966 0.57393521
0.049145453 0.028526479 0.58742523
0.053917583 0.030323584 0.58907706
0.055887301 0.028963335 0.59149265
0.019884456 0.021309786 0.57222241
0.020708978 0.02279764 0.57547915
0.025578083 0.023563899 0.57826543
0.02705867 0.025812242 0.58036405
0.042283319 0.029771719 0.59008908
0.045686513 0.02878519 0.59104502
0.050137118 0.030669844 0.59415698
0.053695265 0.030027663 0.59368551
0.01895383 0.024484448 0.57941467
0.022953205 0.023414154 0.58152097
0.026215617 0.026089938 0.58429837
0.038733549 0.029485265 0.59273064
0.043735921 0.028917953 0.59484327
0.046653457 0.031842016 0.59704208
0.018706564 0.025547642 0.58229482
0.020145744 0.025701387 0.58559573
0.023700953 0.026264569 0.58845562
0.025365228 0.028834855 0.59114408
0.033214714 0.030674899 0.59526759
0.036323976 0.029621631 0.59642643
0.040442016 0.031110041 0.5985564
0.043896098 0.032603662 0.59824413
0.022005618 0.028158832 0.59270757
0.024251927 0.028311862 0.59539837
0.029450957 0.029809581 0.59858161
0.032314122 0.030970989 0.59993178
0.036590211 0.032243565 0.59978247
0.019666392 0.027499419 0.5976215
0.024517596 0.02889429 0.59955418
0.025591712 0.029232353 0.60031861
0.030028388 0.030034551 0.6042825
0.016892858 0.028108604 0.60178089
0.020918548 0.029376924 0.60492849
0.022407692 0.029716183 0.60559481
0.02732626 0.030766834 0.60835224
0.015263878 0.028730653 0.60507292
0.015916731 0.029505456 0.60746056
0.019566745 0.029723216 0.60937548
0.024204247 0.031405218 0.61187786
0.015163306 0.029995838 0.61093289
0.019223075 0.030947771 0.6138497
0.021968279 0.029864574 0.61465716
0.058597684 0.016342998 0.54868984
0.061935674 0.017179115 0.55063206
0.049081031 0.015222517 0.54834479
0.052323475 0.015486472 0.54815751
0.055791184 0.016742056 0.54815525
0.063379765 0.01857342 0.55289358
0.064978503 0.018811177 0.55631751
0.06600292 0.019820074 0.55935037
0.04627841 0.015218641 0.55003208
0.064966962 0.021610487 0.55919135
0.065509617 0.020436825 0.56230634
0.041914478 0.015617292 0.55339813
0.064215071 0.021145003 0.56725377
0.038036156 0.013654107 0.55690497
0.039057337 0.016560178 0.55828452
0.060695916 0.022208977 0.57192826
0.062695354 0.020373767 0.5734489
0.038528629 0.016127598 0.56271112
0.039833508 0.019053698 0.5650118
0.053769618 0.022835754 0.57363617
0.057028323 0.021179039 0.57437408
0.026732204 0.014027316 0.56416166
0.028861932 0.015408512 0.56491041
0.037833326 0.015461418 0.56616259
0.038706027 0.017663211 0.56878579
0.04288996 0.019563209 0.57204187
0.046573661 0.020717537 0.57431918
0.051169991 0.021036314 0.57673967
0.055002611 0.020756025 0.57984239
0.058305059 0.022919126 0.58390868
0.060128484 0.022652877 0.58591199
0.023623496 0.015973274 0.56602061
0.027487354 0.017919989 0.56678981
0.030495739 0.016966499 0.57058334
0.038958184 0.016857853 0.57264036
0.048236676 0.019225089 0.57880014
0.052527029 0.022937603 0.58465326
0.057119165 0.025438327 0.58543879
0.059182812 0.025348581 0.58875483
0.021422792 0.016806986 0.56923091
0.022855803 0.016187564 0.57313615
0.029361531 0.018869333 0.57484543
0.048837211 0.023826899 0.58703923
0.053719774 0.024240803 0.59264678
0.057108309 0.026358005 0.59192699
0.020445582 0.018887412 0.57242996
0.022957407 0.018507879 0.5758751
0.026112854 0.019154502 0.57777196
0.047485963 0.024677336 0.59146756
0.050225131 0.0261514 0.59342939
0.054066621 0.027948579 0.59386277
0.020029265 0.023326807 0.59940934
0.023561042 0.023204414 0.60017025
0.027154434 0.024229424 0.60278517
0.029738763 0.02597519 0.6056776
0.019289386 0.023298282 0.60160154
0.019427691 0.02398191 0.60504669
0.023020111 0.024861947 0.6080485
0.027192079 0.025930215 0.60878372
0.015463185 0.025882339 0.60662508
0.017716471 0.024135821 0.60855466
0.021875873 0.025668558 0.61092281
0.024337988 0.027506966 0.61276752
0.014894292 0.025142109 0.61294329
0.018718738 0.026761074 0.61582166
0.021486502 0.028014954 0.61643016
0.012639266 0.024964435 0.61723858
0.016183242 0.026631724 0.61978167
0.010225087 0.02491878 0.62110221
0.013788201 0.026256558 0.62356615
0.05941242 0.01188735 0.54936814
0.063035019 0.012813253 0.55146646
0.04944694 0.011317825 0.5497877
0.052678287 0.010794506 0.54949152
0.056733217 0.011263669 0.54980975
0.063712135 0.012789496 0.55417478
0.065309733 0.014047633 0.55759442
0.066081084 0.014496706 0.56074679
0.042517371 0.0085681584 0.55091035
0.046538305 0.010248677 0.5511083
0.066117302 0.012642421 0.56109744
0.066278182 0.015543781 0.5636813
0.068522133 0.015367401 0.56754553
0.039601702 0.0091718026 0.55291903
0.042152818 0.011947462 0.55295014
0.065543175 0.018233271 0.56813037
0.067646116 0.016534219 0.57063943
0.037175089 0.010549569 0.55703175
0.064503253 0.017765746 0.57423437
0.029642239 0.0082783764 0.56099194
0.034352373 0.0095889326 0.56213164
0.03735495 0.011755341 0.56366843
0.058378741 0.017234929 0.57708549
0.061674956 0.016728122 0.57927758
0.064392634 0.017334791 0.58289701
0.026818557 0.0099843089 0.56284106
0.031329203 0.012403824 0.56409693
0.035307046 0.01199287 0.56758255
0.03713328 0.014659211 0.5690558
0.043488111 0.015929515 0.57532209
0.044486701 0.015676003 0.57589364
0.052782934 0.01857103 0.579108
0.055539228 0.017517362 0.58049369
0.060200222 0.019761594 0.58247215
0.063168436 0.019564606 0.58591217
0.024420116 0.011070029 0.56653106
0.032084316 0.012671441 0.57134968
0.037213102 0.013546948 0.57309556
0.041430309 0.014384296 0.57532662
0.045854501 0.015728924 0.57824957
0.049821883 0.017326929 0.58116299
0.052889291 0.018284932 0.58459157
0.060415637 0.020786077 0.58934498
0.023674689 0.011559362 0.57011282
0.025356783 0.012371743 0.57315916
0.028889025 0.013601552 0.57550269
0.050404459 0.019032259 0.58913207
0.054153606 0.020242997 0.59147143
0.057721533 0.020631302 0.59150755
0.024962358 0.015396978 0.57592654
0.026537044 0.015381628 0.57704335
0.034800321 0.014821462 0.58762932
0.036742806 0.015459545 0.58899337
0.049289484 0.02115643 0.59145415
0.050836436 0.022227362 0.59241879
0.031178854 0.016027458 0.59002304
0.035068732 0.017007275 0.59256625
0.030388001 0.016299725 0.59243757
0.033681892 0.016954551 0.5943051
0.020178791 0.020289492 0.60125554
0.022485979 0.01908374 0.60248542
0.026975691 0.020690404 0.60538298
0.028668126 0.022223825 0.60688084
0.019763444 0.019952916 0.60233265
0.021153595 0.018978406 0.60603255
0.024839927 0.019889755 0.6085279
0.027624693 0.022347696 0.60869455
0.020750351 0.017986231 0.60947859
0.023523826 0.019285835 0.61114073
0.012077443 0.0227171 0.61842871
0.015507489 0.024566632 0.62244296
0.010409474 0.022640515 0.62167269
0.01385257 0.024468049 0.62408978
0.060531698 0.0086402418 0.55086875
0.062584586 0.0091059562 0.55213654
0.053239424 0.0069672712 0.55141824
0.057643611 0.0069210725 0.55273348
0.062319402 0.0078699253 0.55544078
0.064884439 0.010022747 0.55899173
0.04310355 0.0067406446 0.55166477
0.046426747 0.0055466872 0.5522427
0.050844535 0.0052435086 0.55288988
0.065158196 0.0091994759 0.56218833
0.067019626 0.011070368 0.56541735
0.068404011 0.013571962 0.56742489
0.04028447 0.0054218471 0.5544349
0.043071829 0.0040882584 0.55465436
0.06670887 0.010496393 0.56970829
0.067394108 0.012728002 0.57171524
0.034179874 0.0028164121 0.55813342
0.036322586 0.0046228711 0.55663157
0.067152806 0.012943702 0.57635629
0.067191385 0.011920242 0.57934189
0.030316118 0.0046158005 0.56041557
0.033885203 0.0068127816 0.56059659
0.036986221 0.0095249172 0.56569183
0.057228923 0.014905944 0.57870656
0.06381242 0.014875755 0.57950938
0.066142544 0.014111844 0.58286536
0.026517544 0.0052612033 0.56288618
0.036021262 0.0090333987 0.56826264
0.044980522 0.009848509 0.5775705
0.055582646 0.014172265 0.58091134
0.065163851 0.015622277 0.58732802
0.024488732 0.0059043085 0.56730562
0.033428885 0.009073209 0.57327229
0.037196174 0.0088597089 0.57480139
0.041820999 0.010225827 0.57712287
0.045620661 0.011285605 0.57972509
0.049579881 0.012155565 0.58302623
0.052347213 0.014051912 0.58500755
0.061673641 0.015991043 0.59118724
0.024099797 0.0070050685 0.57090843
0.026169149 0.0075094663 0.57333726
0.029705759 0.008692381 0.57483244
0.037857052 0.0094300136 0.58445954
0.040527195 0.010288007 0.58603388
0.052423179 0.014852872 0.58931923
0.055419512 0.015251905 0.59188551
0.058440547 0.016040996 0.59269637
0.03219381 0.010287233 0.58583158
0.035664238 0.011151722 0.585621
0.039685488 0.012423139 0.58865839
0.04105074 0.011605027 0.59198231
0.029604537 0.011174996 0.58823937
0.030530628 0.013424591 0.58901107
0.037796795 0.014790348 0.59332037
0.039868854 0.012863143 0.59508598
0.025646538 0.010740075 0.59228343
0.028993635 0.013256035 0.59456694
0.033643242 0.014418607 0.59737796
0.037719913 0.014044574 0.59971529
0.025809135 0.010072757 0.59523731
0.028746784 0.012114095 0.59792835
0.032176949 0.01272234 0.59981966
0.03538686 0.013336369 0.60121781
0.021514475 0.015443907 0.6077919
0.024814799 0.016237434 0.60989118
0.01963456 0.014714938 0.61127353
0.022563927 0.015864145 0.61329699
0.018535811 0.014145863 0.61448044
0.021140903 0.015096713 0.61642081
0.058069743 0.0036753039 0.5560419
0.060835838 0.0041003064 0.55743676
0.047386147 0.0016611421 0.55465573
0.051059507 0.0016152466 0.5558188
0.055924807 0.0018222881 0.55713254
0.061384607 0.0029055877 0.56051928
0.063710406 0.0049760425 0.56384426
0.06593325 0.0066032712 0.56653583
0.040727518 0.0020200231 0.55689985
0.04421363 0.00083861151 0.55684614
0.048708435 -0.00048804423 0.55786651
0.063496962 0.0034959642 0.5674091
0.065467916 0.0064306185 0.57047981
0.066284627 0.0088895997 0.57314289
0.034118764 0.0012675042 0.55850172
0.037600968 0.00057021296 0.55827725
0.041710179 -0.00060873316 0.55880177
0.065398805 0.005941222 0.57412606
0.06678953 0.0083346264 0.57679713
0.067694031 0.010048152 0.58001167
0.031833634 0.0012606259 0.56082445
0.034141671 -0.00043546502 0.56298149
0.06436228 0.0075424509 0.58230829
0.066641361 0.010490093 0.58278871
0.028334673 0.00077686505 0.56491208
0.03290727 -0.00061012758 0.56604785
0.035614926 0.0011401109 0.57177234
0.040434226 0.0033299921 0.57354325
0.041507572 0.0039772214 0.57545471
0.049345165 0.0062019988 0.58089221
0.051589932 0.0062118061 0.58104825
0.05601202 0.006443813 0.58487737
0.062397376 0.0072877551 0.5850879
0.064351976 0.010281307 0.58791476
0.02630741 0.0016267111 0.56881499
0.028915305 0.00092929695 0.57214618
0.033413719 0.0028667008 0.57398647
0.037946511 0.0057275281 0.5747624
0.040981516 0.0059653623 0.57851779
0.046020955 0.0073373332 0.58225381
0.050529759 0.0087717585 0.58275115
0.054033548 0.0083085587 0.58723044
0.057943244 0.0087001808 0.59056675
0.061582703 0.010846542 0.59111482
0.025243934 0.0043377532 0.57140303
0.027578671 0.0037896878 0.57333547
0.030170064 0.0047189137 0.57498348
0.035656497 0.0039131977 0.58320171
0.038815998 0.0060503948 0.58307445
0.043067247 0.0070999423 0.58561385
0.044522002 0.0063815187 0.58888394
0.053515427 0.01100678 0.5897277
0.056406818 0.011430722 0.59161097
0.032709807 0.0054615252 0.58529717
0.035560876 0.0070517026 0.58461869
0.041990485 0.008796311 0.58898056
0.043090761 0.0081049269 0.59209299
0.028451532 0.0059390105 0.58827329
0.041418314 0.0094797611 0.59664476
0.02446628 0.0072209649 0.59090066
0.025141705 0.0067428201 0.59164232
0.0388708 0.010589438 0.60080445
0.025281787 0.0071538175 0.59630132
0.027291574 0.0084018437 0.60017198
0.03169715 0.0093563041 0.60262561
0.035490878 0.01029793 0.60246825
0.019812755 0.011881763 0.613006
0.022016503 0.012617115 0.61479867
0.018625025 0.011531012 0.61490113
0.021274198 0.012575826 0.61694187
0.052019347 -0.00016132405 0.55925333
0.056647278 0.00017624407 0.55965644
0.059553605 0.00081061164 0.56121725
0.06117088 0.0021611447 0.5644927
0.045018237 -0.0015448325 0.55930853
0.048840232 -0.0015501722 0.56076795
0.053719103 -0.0015869895 0.56367469
0.057545699 -0.00080058142 0.56624693
0.061479822 0.001911276 0.56883973
0.063780293 0.0033330906 0.57156944
0.038462982 -0.0025467388 0.56128877
0.042089891 -0.0026929863 0.56224895
0.0464187 -0.0028832676 0.56520158
0.050942853 -0.0025793426 0.56788236
0.054916136 -0.0016804554 0.5704819
0.058955185 0.00058053783 0.57321018
0.062786914 0.0028137239 0.57550955
0.065101653 0.004543033 0.57835186
0.036758229 -0.0023135627 0.56378448
0.039841887 -0.0030645407 0.56654954
0.043201365 -0.00372048 0.5686776
0.050703861 -0.0025072452 0.57226485
0.052156955 -0.0023699393 0.57193607
0.057212975 -8.791266e-05 0.57742298
0.060362544 0.0024493358 0.57962972
0.063576207 0.0048804642 0.58099455
0.029081715 -0.0012645274 0.56770796
0.032557316 -0.0010182371 0.56805772
0.036592975 -0.0011959707 0.57034582
0.040771846 -0.00088054198 0.57390982
0.042681266 -0.0024963983 0.57642472
0.05002141 -0.00047872495 0.58133978
0.053080339 0.0021283571 0.58173227
0.05729365 0.0042484761 0.58372426
0.060526177 0.0063079931 0.58572811
0.062238637 0.0076151197 0.58895439
0.02830717 -0.0009728747 0.56876391
0.02976045 -0.00082008424 0.57045257
0.040809579 0.00010583363 0.57720333
0.040713534 -0.00038843823 0.57949871
0.047575541 0.00096517499 0.58372825
0.04964688 0.0023788908 0.5829531
0.059913449 0.0073135728 0.58948815
0.036794476 0.00015169289 0.58293718
0.03840049 0.00092891313 0.58177757
0.045695666 0.0037973539 0.58698672
0.046111107 0.0024384651 0.58872622
0.031502511 0.00051698834 0.58597416
0.04480537 0.0043404326 0.59432656
0.0294118 0.00026986678 0.58870345
0.043231212 0.004291757 0.5974915
0.02684417 0.0016056304 0.59354663
0.039157368 0.0050838776 0.60155094
0.025106996 0.0025213344 0.59799546
0.026513197 0.0035155544 0.60183859
0.032302707 0.004992241 0.60526782
0.035997309 0.0051782904 0.60489601
0.027944343 0.0034339628 0.6035071
0.03000639 0.004237745 0.60477024
0.049682137 -0.0033511571 0.56984395
0.053981069 -0.0021571582 0.572662
0.045012489 -0.0038664322 0.5704751
0.047855895 -0.0032897922 0.57213426
0.052576181 -0.0020184834 0.57517785
0.05513848 -0.0010734282 0.57728559
0.043538481 -0.0034957309 0.57304758
0.045762196 -0.0025338111 0.57659775
0.049219966 -0.0016222 0.57873279
0.053346243 -0.0008654769 0.57936114
0.042799793 -0.0024194303 0.58095324
0.046161007 -0.0015667337 0.58344322
0.036978763 -0.0036524883 0.58409989
0.040293194 -0.0042050704 0.58401972
0.045387786 -0.0026367647 0.58703804
0.046261922 -0.0011435575 0.59014177
0.029915195 -0.0058600795 0.58759505
0.031976037 -0.0039717252 0.58698618
0.045574732 -0.00019329553 0.59539163
0.046480134 -0.00020547677 0.59786361
0.02957876 -0.0050357264 0.58784831
0.029927116 -0.0035689324 0.58982617
0.043755937 0.00029779365 0.59869593
0.046166655 2.8156675e-05 0.59840345
0.027932215 -0.0029730331 0.59514618
0.03957998 0.00034219539 0.60243142
0.026070714 -0.0021772035 0.59913373
0.027866816 -0.0012524067 0.60302711
0.032393172 -0.00012690062 0.60580039
0.036537681 0.00039092079 0.60563844
0.027924279 0.0013533789 0.6036461
0.029952275 0.0017933124 0.6049639
0.04019339 -0.0069805048 0.58744746
0.043524634 -0.0059991768 0.58958226
0.034428738 -0.0079721753 0.58906353
0.038116984 -0.0090492247 0.59011459
0.042861622 -0.0076612486 0.59299898
0.044551909 -0.0052235695 0.59538269
0.031505056 -0.0082670897 0.59212363
0.042503722 -0.0084667467 0.59661442
0.043117531 -0.0050815009 0.59963095
0.0294112 -0.0073825885 0.59641552
0.029966718 -0.0086984504 0.59946358
0.037227966 -0.0065334532 0.60444415
0.039753869 -0.0045957202 0.60317326
0.027821505 -0.0056874221 0.59959912
0.029683648 -0.0062410478 0.60240823
0.03374359 -0.0051241592 0.60508978
0.037070215 -0.0034519089 0.60522634
0.038429234 -0.010419056 0.5932427
0.040562212 -0.009758871 0.59417981
0.033212617 -0.010616553 0.59354025
0.035836034 -0.012280438 0.59707242
0.038657591 -0.011708977 0.59893996
0.041543461 -0.008581589 0.6000523
0.031548396 -0.010481507 0.59608769
0.033868179 -0.012049147 0.60024673
0.036616936 -0.011281801 0.60245621
0.03993237 -0.0081594959 0.60230106
0.032146405 -0.008936232 0.60240859
0.034489878 -0.0085430583 0.60371417
0.049368583 -0.019460056 0.58878368
0.050782092 -0.019365136 0.58942652
0.047998492 -0.01942618 0.59012556
0.036660288 -0.015286695 0.59938258
0.03765998 -0.015342917 0.60004413
0.034911204 -0.015737442 0.60116315
0.03695105 -0.015079547 0.60265917
0.033830773 -0.014563249 0.60397649
0.034636185 -0.014415543 0.60439688
0.052535836 -0.02167597 0.58579987
0.053610992 -0.021538105 0.58640635
0.049641825 -0.021918008 0.58825469
0.051915593 -0.020814294 0.58924055
0.043733787 -0.023192732 0.59130603
0.046713777 -0.021596119 0.59199071
0.049850948 -0.020954607 0.59203076
0.041463785 -0.024083894 0.59401464
0.044332296 -0.022991583 0.5949257
0.037505053 -0.022374284 0.59893745
0.038920134 -0.021650596 0.60059053
0.035101861 -0.021045461 0.60204923
0.037334971 -0.020262439 0.60331601
0.043618146 -0.02612382 0.59240651
0.046184026 -0.025534902 0.59307271
0.040888954 -0.026932601 0.59512985
0.043703608 -0.026027456 0.59658277
0.038031086 -0.026848972 0.59922659
0.040117912 -0.025087627 0.60007626
0.036543339 -0.025039595 0.60213923
0.038001262 -0.024121914 0.60251647
