# .PCD v0.7 - Point Cloud Data file format
VERSION 0.7
FIELDS x y z
SIZE 4 4 4
TYPE F F F
COUNT 1 1 1
WIDTH 401
HEIGHT 1
VIEWPOINT 0 0 0 1 0 0 0
POINTS 401
DATA ascii
0.032207295 0.18586603 0.46766216
0.036859766 0.17966259 0.49855965
0.037604868 0.17945346 0.49962136
0.019720398 0.18481168 0.46562862
0.020692304 0.18399222 0.47056335
0.025235578 0.17823663 0.49905032
0.025806282 0.17736787 0.5032621
0.01395224 0.18531287 0.45970672
0.012545243 0.18395349 0.46481681
0.012644913 0.18240148 0.47249281
0.016964637 0.17695537 0.49923784
0.019396037 0.17572871 0.50625175
0.021653675 0.17498669 0.51066792
0.0076899081 0.18312995 0.46512285
0.0084899031 0.18160863 0.47305787
0.012753822 0.17624727 0.49986109
0.014054447 0.17480549 0.50667733
0.036941543 0.18241648 0.46432778
0.039592884 0.18202543 0.46924546
0.037481651 0.17998216 0.47342768
0.043278653 0.17694977 0.49372527
0.042473048 0.17537773 0.49871889
0.03005985 0.18231899 0.46364874
0.031210411 0.18071209 0.47182044
0.034838419 0.17652619 0.49383509
0.036163524 0.17482254 0.50131458
0.016620174 0.18388481 0.45942205
0.021556221 0.18026346 0.46298286
0.023160923 0.17879948 0.4717283
0.027071599 0.17398842 0.49536768
0.028126996 0.17219995 0.50352031
0.014017902 0.18344972 0.45933411
0.013456233 0.18050721 0.46398577
0.014267609 0.17844126 0.47184688
0.018435508 0.17324346 0.49772847
0.019955508 0.17228389 0.5055306
0.021991231 0.17325267 0.51026797
0.0078091994 0.18136185 0.46519735
0.008560542 0.17953524 0.47255075
0.012829516 0.17411265 0.49941126
0.014308531 0.17299169 0.50628656
0.036819838 0.17630067 0.46254718
0.039610438 0.17404047 0.46733814
0.043327406 0.16889805 0.49238157
0.042345669 0.16916323 0.49795118
0.032555807 0.17565131 0.46302947
0.033368014 0.17252487 0.4686099
0.037273228 0.16763067 0.49238127
0.038293488 0.16855168 0.49867967
0.026002008 0.17613328 0.46526432
0.026499718 0.17567137 0.46704668
0.031412877 0.1696372 0.49650958
0.030914912 0.16946873 0.49894601
0.039078496 0.16614364 0.46559975
0.043017592 0.16112897 0.49087667
0.03362377 0.16247669 0.46127009
0.034658447 0.16432314 0.46539599
0.03867586 0.15906498 0.4917109
0.038844202 0.15551628 0.4949874
0.029620184 0.16025278 0.46357235
0.034143738 0.15471677 0.49276605
0.039195012 0.15994309 0.46465355
0.042945962 0.15551391 0.48935735
0.033597812 0.15703139 0.45917055
0.037813701 0.15629607 0.46487939
0.035132475 0.15305907 0.46865776
0.03748738 0.15027101 0.48451874
0.041416466 0.15194452 0.48838085
0.039196357 0.14989045 0.49479523
0.028430168 0.15453544 0.45997488
0.027777862 0.15417081 0.464843
0.031481434 0.15120831 0.4688839
0.033408463 0.14823742 0.48475561
0.03158389 0.14905858 0.49038985
0.0338834 0.14739126 0.49479187
0.033981387 0.14972636 0.45740271
0.037158702 0.14761895 0.46289718
0.035323024 0.14819025 0.46783441
0.037736792 0.14499396 0.48326296
0.040766843 0.1428598 0.48691285
0.039809037 0.14250126 0.49327418
0.027337261 0.14744224 0.45783007
0.027035285 0.14583668 0.46592805
0.030915499 0.1459913 0.46807536
0.032928623 0.14249229 0.48351908
0.030173412 0.1417224 0.48693329
0.033003986 0.1401715 0.49427032
0.021180015 0.14377204 0.45917845
0.020484675 0.14389068 0.46382463
0.024535567 0.13884622 0.48957556
0.026974496 0.13704535 0.4936232
0.033824585 0.14288203 0.46190983
0.037569687 0.13795191 0.48673445
0.026468256 0.13957822 0.45738563
0.029502429 0.13890296 0.46208832
0.029214045 0.13410196 0.46629766
0.03136475 0.13143989 0.48124281
0.033334389 0.13402379 0.48670736
0.031891268 0.13303381 0.49200135
0.021753751 0.1384781 0.45790604
0.020090226 0.13686711 0.46334887
0.025076156 0.13353686 0.46655697
0.0268775 0.13074997 0.48222712
0.023838151 0.13193983 0.48760274
0.027341567 0.13155466 0.49246639
0.053939492 0.12924196 0.46581241
0.054976031 0.12811168 0.47197351
0.047724094 0.13276914 0.4590573
0.05098062 0.13253133 0.46565503
0.052099638 0.13040492 0.47429246
0.050279196 0.12845817 0.48205677
0.036649887 0.12956335 0.45411354
0.038833283 0.13116157 0.45801806
0.039358929 0.12806724 0.4653517
0.040961139 0.12583782 0.47683054
0.043644235 0.12596679 0.48446524
0.042850576 0.12377426 0.48817909
0.029772174 0.12949929 0.45513177
0.031932376 0.13207933 0.45703551
0.031440366 0.12845993 0.46672118
0.032876804 0.12607151 0.47784007
0.036787048 0.12626156 0.4875271
0.035433795 0.12267198 0.48917234
0.024093419 0.13201901 0.45652109
0.023851767 0.12878302 0.46091586
0.026622389 0.12779804 0.46649146
0.028409932 0.12576053 0.4801822
0.027526315 0.12382293 0.48567709
0.029688291 0.1250491 0.49049243
0.054243185 0.12140428 0.45833176
0.055289458 0.12354615 0.46365833
0.056271091 0.12225521 0.47095016
0.057204168 0.11820666 0.47636908
0.049094733 0.12526321 0.45575118
0.048194442 0.12245563 0.46426535
0.050705511 0.12196203 0.47291693
0.053093024 0.11971919 0.48138508
0.038811181 0.12422511 0.45278016
0.042191364 0.12343403 0.45294756
0.042625736 0.12242432 0.46570992
0.043926708 0.12080464 0.47357213
0.04828893 0.11930505 0.48476657
0.044844549 0.1171508 0.48677835
0.031315628 0.12437964 0.45348611
0.029830083 0.12087138 0.45738265
0.031946853 0.12023684 0.46646404
0.033470869 0.11862008 0.47477576
0.03371932 0.11576179 0.4845041
0.037721314 0.1165384 0.48810554
0.026576964 0.12433204 0.45492449
0.026622046 0.12319663 0.45937586
0.028219756 0.12239821 0.4677065
0.029920084 0.11979711 0.47734565
0.030406266 0.11811832 0.4833658
0.055896617 0.11526692 0.45604667
0.057303052 0.11595248 0.4618091
0.058760878 0.11381863 0.4696154
0.059282087 0.11087537 0.47519231
0.050772704 0.11671546 0.4539274
0.052775748 0.11843946 0.4610503
0.047902066 0.11718918 0.46932375
0.054618493 0.11152019 0.47965157
0.036798757 0.11933549 0.4523699
0.041499078 0.1152685 0.45226201
0.042810969 0.11451271 0.46589839
0.043562487 0.11369889 0.47017094
0.046791196 0.10779901 0.48276004
0.045867987 0.11165093 0.48493093
0.034068774 0.1138542 0.45629409
0.034105651 0.11154769 0.46462065
0.035103209 0.10989478 0.47281224
0.037968084 0.10838878 0.48074684
0.04033988 0.11141063 0.48603758
0.057124399 0.11143854 0.4546015
0.059592132 0.10812855 0.45994434
0.060813554 0.10635537 0.46779111
0.060288969 0.10711922 0.47449338
0.051333055 0.10842389 0.45223796
0.056548081 0.10501032 0.45586041
0.059062369 0.10239938 0.47133246
0.055719525 0.10314474 0.47713372
0.042886734 0.10691928 0.45248729
0.046931095 0.1011686 0.4789274
0.03686874 0.10625191 0.45613623
0.035800867 0.10390706 0.46255764
0.03736246 0.10208459 0.4715704
0.040087175 0.10166411 0.47737047
-0.014021643 0.090376139 0.47053373
-0.013733186 0.089812748 0.47438097
-0.018432364 0.089532375 0.47182906
-0.018243946 0.089357302 0.47433573
0.06009654 0.099391684 0.46003142
0.06072766 0.09861134 0.46463108
0.052036416 0.099744238 0.45380875
0.056297775 0.098925233 0.4560301
0.058511 0.09647397 0.46860719
0.055056024 0.09606979 0.47243929
0.046057753 0.097662672 0.45425025
0.043606356 0.096942782 0.45740318
0.045737542 0.094035491 0.47075316
0.049132515 0.094024658 0.47305092
0.040257938 0.095122978 0.46133098
0.04126389 0.094231844 0.46772593
0.01830738 0.093068913 0.44920626
0.018318068 0.093415134 0.45354584
0.017059311 0.088982157 0.45873433
0.019976571 0.086190574 0.47475481
0.022919849 0.087969869 0.48042971
0.024043972 0.086115539 0.48409429
0.013636444 0.091216661 0.44958395
0.011265837 0.092241183 0.45547003
0.011240527 0.090280145 0.46161124
0.013331875 0.087622859 0.47424912
0.015451349 0.087244436 0.48054653
0.019302502 0.084192663 0.48448884
0.0061494447 0.089613348 0.4581463
0.0036193356 0.088836409 0.4651694
0.0052033365 0.08735913 0.47328025
0.0091431141 0.085332766 0.47889829
-0.0040807277 0.087185055 0.46658897
-0.0031662397 0.085683808 0.47365382
-0.011529364 0.085780054 0.46828264
-0.010814644 0.084550425 0.47364265
-0.019868158 0.081813529 0.46975628
-0.019074209 0.081545375 0.47374284
-0.024491206 0.080518693 0.47062919
-0.0241438 0.080559224 0.47439474
0.061363257 0.090722635 0.45746705
0.062299158 0.089744709 0.46267772
0.053945251 0.091154188 0.4504393
0.057852928 0.092243955 0.45481494
0.059843674 0.089634359 0.46688288
0.057460092 0.086952776 0.47136331
0.045232169 0.090669893 0.45082977
0.041895613 0.092407189 0.45564774
0.044659913 0.089304321 0.47135854
0.04912141 0.086049639 0.4736208
0.040079221 0.087388963 0.45282266
0.03813199 0.087736361 0.45839095
0.039899886 0.086055204 0.46830109
0.043108359 0.083469309 0.47217283
0.026704276 0.086719573 0.44456211
0.026779136 0.0851622 0.44963422
0.034696374 0.082918793 0.45926791
0.035845362 0.081582017 0.46641159
0.031895161 0.07972718 0.47857282
0.032736681 0.078973308 0.48296484
0.020655144 0.08770901 0.44589379
0.019916907 0.085816182 0.45259491
0.019866694 0.084866092 0.47450778
0.024010073 0.080684677 0.47783405
0.02679147 0.080045193 0.48422748
0.01321812 0.088504963 0.4491412
0.01211803 0.085735962 0.45365232
0.012544595 0.08548595 0.46001458
0.014575813 0.08267653 0.47339314
0.01633931 0.080551714 0.47946107
0.019014608 0.081481881 0.48401314
0.0068198852 0.085556135 0.45711285
0.003983818 0.08276163 0.4637377
0.0052859746 0.081199005 0.47205597
0.010154389 0.081344999 0.47806638
-0.0030403696 0.079677843 0.46447259
-0.0016407818 0.077975504 0.47258088
-0.01074785 0.077827871 0.46605721
-0.0096737146 0.076535784 0.47256127
-0.017347075 0.074207418 0.46788058
-0.016992971 0.072484255 0.47237957
-0.022720754 0.070686311 0.47265926
0.062408268 0.083542459 0.45536274
0.063825734 0.08218348 0.46153539
0.054850295 0.083383217 0.44788232
0.059728988 0.08262372 0.45177397
0.061885573 0.080043323 0.46550411
0.058461558 0.078612447 0.470456
0.04677796 0.081346355 0.44227636
0.047633484 0.083692387 0.4453356
0.052653894 0.077654749 0.47496763
0.052349098 0.074189022 0.47715396
0.036543779 0.079754487 0.44172063
0.037956409 0.08054629 0.44879088
0.035422988 0.083028965 0.45458859
0.037696622 0.079767294 0.47034821
0.042134635 0.075660594 0.47380927
0.042851511 0.071961723 0.48009965
0.029262558 0.081133895 0.44108105
0.031320475 0.078711674 0.45013803
0.032939211 0.077779368 0.45858943
0.03397651 0.076146685 0.46565321
0.035205189 0.074102372 0.47356835
0.036075246 0.072780326 0.48313621
0.023823239 0.07929492 0.44433042
0.023517232 0.078333341 0.44969636
0.02086119 0.0713595 0.46023571
0.021518644 0.070731074 0.46454108
0.02786687 0.072928943 0.47658285
0.029777769 0.071975559 0.48148254
0.014784135 0.07244543 0.46102107
0.015677344 0.071149722 0.46606541
0.011196379 0.069586605 0.46275207
0.011601929 0.068915635 0.46484485
-0.0022933893 0.07119853 0.46399555
-0.0013872832 0.070339844 0.46960548
-0.0087041929 0.071250901 0.46576631
-0.0065432712 0.068946965 0.46976644
-0.018846892 0.070024624 0.46673059
-0.018505663 0.06975133 0.47182456
-0.02291061 0.068447553 0.46763393
-0.022745885 0.068407774 0.47191986
0.062850788 0.077843666 0.45631763
0.063433595 0.077218652 0.45883113
0.054661501 0.076091021 0.44697171
0.058484193 0.074031234 0.45289469
0.060121752 0.072247922 0.46148497
0.058120023 0.071801767 0.46858114
0.045068495 0.075776167 0.44088417
0.049523681 0.074241959 0.44429442
0.053425979 0.069876999 0.44941455
0.055871841 0.066923402 0.46466634
0.053925686 0.068682954 0.47177935
0.050873447 0.068453558 0.47671345
0.038851783 0.074065588 0.4394947
0.036886573 0.072876349 0.4464646
0.041173857 0.067487396 0.47342047
0.045432746 0.066034481 0.47924933
0.030400768 0.072410353 0.43947452
0.031024294 0.070250742 0.44875428
0.033119105 0.069363527 0.45610169
0.034090538 0.067655466 0.46468988
0.034977049 0.065734573 0.47218513
0.037070353 0.063964829 0.48119313
0.025589686 0.073524714 0.44314966
0.026415553 0.072286941 0.44696814
0.024819648 0.067054391 0.4577994
0.025919113 0.065819547 0.46449545
0.031071713 0.066758506 0.47613898
0.031670019 0.066189893 0.48001188
0.013754643 0.065919384 0.45358238
0.016371872 0.068451956 0.45622927
0.017566472 0.064868324 0.46909443
0.014832322 0.063421831 0.47130907
0.010732915 0.066849381 0.45443797
0.0093960203 0.06593772 0.45926547
0.011069845 0.064218879 0.46780187
0.013787799 0.063912556 0.47157121
-0.0036158822 0.065306991 0.46373507
-0.0030737929 0.064616889 0.46759504
-0.0076269507 0.062226728 0.4643985
-0.0076441169 0.061642006 0.46788189
0.057232704 0.068716586 0.45501822
0.058080737 0.068010062 0.45841521
0.048383515 0.068339579 0.44601694
0.051062424 0.065693639 0.45308629
0.052580912 0.064205065 0.4604353
0.052014083 0.063878246 0.46817505
0.039874367 0.069320098 0.44128084
0.041136451 0.065981247 0.44558412
0.043146424 0.062039219 0.45303684
0.044372842 0.060306869 0.46169552
0.045338623 0.061057299 0.47033182
0.046967749 0.062562607 0.47502351
0.032864168 0.067965567 0.44109997
0.035392199 0.066756003 0.4461928
0.034263253 0.061360128 0.45469886
0.035539299 0.059691664 0.46247849
0.039548256 0.061556607 0.47138444
0.038678177 0.060828343 0.47739843
0.021875679 0.059779577 0.45125368
0.026303392 0.0599983 0.45369714
0.028282551 0.057932593 0.46520478
0.024387572 0.057462759 0.46891424
0.019546513 0.05905205 0.45149925
0.017316751 0.058306172 0.45290819
0.019992955 0.056194797 0.46817598
0.022857238 0.054981813 0.46899506
0.0089462176 0.056468055 0.45664948
0.010675441 0.054504026 0.46646643
0.026544556 0.052313481 0.45476508
0.027388377 0.050751537 0.46165237
0.020990662 0.05543299 0.44958481
0.019023336 0.04984273 0.45299643
0.02080483 0.047583852 0.46463946
0.011915531 0.048638385 0.45629171
0.012984253 0.047015086 0.46289936
0.036992073 0.039355673 0.45779064
0.033991866 0.038773097 0.45722565
0.01865451 0.041718952 0.45619413
0.019267257 0.041212238 0.45913479
0.015834183 0.040848792 0.45682275
0.015910126 0.040558539 0.45920554
0.03824988 0.037361592 0.45747262
0.02979634 0.033321094 0.45270041
0.031647101 0.034206644 0.45621115
0.0218817 0.032156475 0.45320907
0.022201564 0.032463353 0.45591286
0.017207548 0.034301501 0.45522138
0.017399646 0.03440088 0.4571552
0.02784648 0.029541019 0.45278937
0.028295608 0.029501505 0.45357555
0.025434064 0.0291076 0.45261022
0.02684385 0.029281508 0.45370111
