# .PCD v0.7 - Point Cloud Data file format
VERSION 0.7
FIELDS x y z
SIZE 4 4 4
TYPE F F F
COUNT 1 1 1
WIDTH 1489
HEIGHT 1
VIEWPOINT 0 0 0 1 0 0 0
POINTS 1489
DATA ascii
-1.7459843 0.42362529 -9.7680855
-1.6670661 0.42531347 -9.7817526
-1.195067 0.49450076 -9.8367691
-1.0855044 0.428473 -9.777935
-1.0064036 0.39497745 -9.7485371
0.99883753 0.4111211 -9.7553959
1.0769939 0.42976403 -9.7792406
1.6672318 0.42605174 -9.7808762
1.7483243 0.42489848 -9.7729588
-1.7331645 0.58188087 -9.7597685
-1.6354318 0.60350323 -9.7818079
-1.4414175 0.65488309 -9.8091192
-1.2584313 0.62868476 -9.7895622
-1.1248617 0.58391517 -9.7693253
-1.0165222 0.52923322 -9.692976
1.007691 0.54231483 -9.7380533
1.1166879 0.5882591 -9.7715693
1.2399771 0.6461187 -9.8029737
1.4369528 0.67205495 -9.8423147
1.6432289 0.60178775 -9.7846127
1.7353474 0.58561903 -9.7645302
-1.717714 0.70569414 -9.7323561
-1.6027365 0.73603004 -9.7596779
-1.444405 0.74542093 -9.7636328
-1.2842568 0.73436499 -9.7604971
-1.1616628 0.71109807 -9.7385702
1.1498178 0.72359979 -9.7527494
1.2805294 0.75273061 -9.7675924
1.4444702 0.76356643 -9.7762642
1.6064782 0.7516948 -9.7644272
1.7190272 0.7177822 -9.7443209
1.3156058 0.85891259 -9.7049532
1.4516966 0.86422396 -9.7184925
1.567917 0.86252117 -9.7117529
-1.4020371 -0.1935329 -9.6289625
-1.28281 -0.2025715 -9.612709
-1.1716169 -0.18357623 -9.6411276
1.1831721 -0.17468834 -9.6291027
1.2840869 -0.18838115 -9.6262293
1.3801061 -0.1807844 -9.631814
-1.5628167 -0.030417236 -9.6194935
-1.4393095 -0.074715681 -9.6071568
-1.2698027 -0.10327379 -9.6026525
-1.139535 -0.067631073 -9.6092157
1.1436932 -0.06143669 -9.6113567
1.2743089 -0.084874399 -9.6039238
1.4319789 -0.063095205 -9.6093044
1.5463496 -0.020023206 -9.6337538
-1.7316227 0.13207746 -9.6042957
-1.6074203 0.0905075 -9.6045609
-1.4880661 0.043613076 -9.5952864
-1.1990396 0.022701357 -9.5864067
-1.1064954 0.081987239 -9.6045618
-0.99987102 0.13307647 -9.603241
1.0008831 0.1412985 -9.6066618
1.1139078 0.08596959 -9.6057615
1.200924 0.029632686 -9.5910196
1.4771029 0.056718409 -9.5974522
1.5974154 0.10139772 -9.6073599
1.722298 0.14643943 -9.6014576
-1.7603426 0.26476774 -9.59904
-1.6742618 0.22085769 -9.6132469
-1.064206 0.24913722 -9.6099997
-0.98589486 0.26403999 -9.596571
0.97897166 0.26347685 -9.5966578
1.0644403 0.2436994 -9.6073933
1.6557878 0.22556472 -9.6076536
1.7575777 0.26746643 -9.5988789
-1.7634215 0.42422628 -9.5992479
-1.6896641 0.439091 -9.6511545
-1.065349 0.43138576 -9.6117392
-0.9859215 0.42073491 -9.5964613
0.97864139 0.42064306 -9.5958548
1.056029 0.43040922 -9.6152716
1.6906492 0.43921894 -9.6480112
1.7654005 0.42580187 -9.600935
-1.7551231 0.58897001 -9.595479
-1.6739315 0.6070686 -9.6190424
-1.2157422 0.65314442 -9.6461
-1.1015555 0.59969145 -9.6076069
-0.99896628 0.56356853 -9.5727634
0.99039543 0.57435685 -9.5855732
1.0913826 0.60590219 -9.6115932
1.1972072 0.6702131 -9.6754789
1.6765314 0.60791844 -9.6215343
1.7602065 0.58995885 -9.5979071
-1.7340325 0.74097478 -9.5864019
-1.6177971 0.76669151 -9.6075954
-1.4422615 0.79073638 -9.6156406
-1.2729383 0.77196157 -9.6096344
-1.1373183 0.74233115 -9.5904512
1.0054221 0.69465518 -9.5432062
1.1260376 0.7501052 -9.5961514
1.266624 0.78904599 -9.6157856
1.4423566 0.8107748 -9.6221809
1.6256244 0.77445972 -9.6095381
1.7377363 0.74569517 -9.592247
-1.7099509 0.85660911 -9.5452967
-1.5944521 0.87967491 -9.5710011
-1.4441547 0.8824178 -9.577158
-1.2933331 0.87681228 -9.5670376
-1.1746852 0.85974753 -9.5365257
1.1576085 0.87495446 -9.5525637
1.2872694 0.89395595 -9.5869102
1.4454209 0.90204966 -9.5898161
1.6001371 0.89563066 -9.584383
1.7188668 0.87179679 -9.5531778
-1.3817488 -0.18305336 -9.4732351
-1.2874653 -0.18610254 -9.4605379
-1.1885314 -0.17443287 -9.5195723
1.2792658 -0.17553711 -9.5032187
-1.5473514 -0.016821153 -9.4519358
-1.4299015 -0.060910452 -9.4402256
-1.2740787 -0.081260763 -9.4338112
-1.1427931 -0.060327306 -9.4418869
1.1464213 -0.048247363 -9.4416504
1.2801317 -0.061551806 -9.4383593
1.4243386 -0.049369615 -9.4429531
1.5420413 -0.0017470518 -9.4997702
-1.7385291 0.1378977 -9.4322615
-1.6020166 0.099189803 -9.4364233
-1.4764301 0.05489292 -9.4306698
-1.2008414 0.034942769 -9.4318037
-1.1127118 0.084123276 -9.4356308
-0.99599844 0.14327313 -9.4373293
1.0025275 0.14934248 -9.4386396
1.1174903 0.094176143 -9.4349365
1.215973 0.030304823 -9.4217224
1.4657751 0.068330452 -9.4324646
1.59497 0.10846014 -9.4361677
1.7229837 0.15217486 -9.4352655
-1.8799341 0.30571365 -9.4055929
-1.7745447 0.26180118 -9.4332104
-1.6637743 0.19874816 -9.4362879
-1.0605447 0.2276326 -9.4383307
-0.96519768 0.26583299 -9.4288473
0.96469498 0.26833677 -9.4285517
1.0675755 0.22748646 -9.4354362
1.5217533 0.173063 -9.372941
1.6356411 0.21040323 -9.432724
1.7680329 0.26681951 -9.4325714
1.8759904 0.31810153 -9.3738184
-1.8822414 0.41807389 -9.3969698
-1.7919309 0.42628101 -9.4381819
-1.0370076 0.43015388 -9.4680204
-0.95771664 0.42322192 -9.4264908
0.8495791 0.45524567 -9.3522291
0.95214623 0.42389679 -9.4293251
1.0304047 0.42753398 -9.4897156
1.7943991 0.42623121 -9.4414988
1.8799496 0.42455789 -9.3893404
-1.8760052 0.54680145 -9.3744402
-1.7760626 0.59429801 -9.4340019
-1.6904136 0.65289086 -9.4894896
-1.0701525 0.60801077 -9.4491873
-0.97096586 0.58428252 -9.420907
0.96282327 0.58531457 -9.4269409
1.0557213 0.61638999 -9.4560146
1.6921883 0.64598703 -9.4957113
1.7825445 0.59561354 -9.4354362
1.8766419 0.54767001 -9.3695765
-1.7544973 0.75413406 -9.4253683
-1.6516683 0.78660214 -9.4514942
-1.4370284 0.83142501 -9.4874477
-1.2503207 0.81119156 -9.4613152
-1.1078583 0.76061594 -9.4328632
-0.99463075 0.72507322 -9.3947849
0.98544753 0.73965794 -9.4107265
1.0999688 0.76924062 -9.4368162
1.2276661 0.82637608 -9.4816036
1.397586 0.84423637 -9.512166
1.6684009 0.78699166 -9.4529266
1.7614214 0.75779492 -9.4268885
-1.7335753 0.89554471 -9.4100857
-1.6081042 0.91799116 -9.422473
-1.4453963 0.92763418 -9.4284286
-1.2835445 0.91761792 -9.4240112
-1.1417032 0.89562982 -9.4073257
1.0126864 0.86817378 -9.3682747
1.1312696 0.90917438 -9.4173298
1.2776622 0.92975092 -9.4330587
1.4451946 0.94446814 -9.4421883
1.6137794 0.93120366 -9.4323931
1.735427 0.90488338 -9.4132872
-1.5748481 1.0319514 -9.3641634
-1.4541692 1.0305889 -9.3672209
-1.3240788 1.0261096 -9.3625231
1.1776216 1.0301201 -9.3543758
1.2957172 1.0405145 -9.3843994
1.4514779 1.0481145 -9.3914442
1.5947243 1.0459424 -9.3869152
-1.2974118 -0.17212784 -9.3478956
-1.5414531 -0.0062432117 -9.2619638
-1.4296613 -0.047847468 -9.2726402
-1.2796102 -0.056123316 -9.2689276
-1.1451838 -0.047586754 -9.2702227
1.1523201 -0.033066992 -9.2727413
1.2807934 -0.051701631 -9.2725325
1.4220573 -0.036097001 -9.2734156
-1.7436613 0.14148086 -9.2633829
-1.5987779 0.10352802 -9.2675934
-1.4635758 0.058752909 -9.2619047
-1.2297982 0.024342285 -9.2410154
-1.1127539 0.091844223 -9.2654171
-0.99284607 0.14864428 -9.2661676
1.000747 0.15510862 -9.2663355
1.1177647 0.098855108 -9.2661142
1.2677376 0.029395221 -9.2559824
1.4584285 0.075076953 -9.2645273
1.5973037 0.11402261 -9.2647352
1.7288413 0.15498349 -9.2625065
-1.8893608 0.29137665 -9.254818
-1.7838714 0.25401154 -9.2648067
-1.6413376 0.19376525 -9.2617245
-1.0662863 0.21073616 -9.2662668
-0.94893777 0.26326233 -9.2618198
-0.84083784 0.31180492 -9.2140064
0.83464408 0.31501129 -9.2284298
0.95146817 0.2643154 -9.2626848
1.0782633 0.21788532 -9.2635174
1.522398 0.17872736 -9.2840271
1.6244473 0.21199273 -9.2636948
1.7750424 0.26092613 -9.2641745
1.8874229 0.30450451 -9.2489195
-1.8968258 0.42503676 -9.2501945
-1.815779 0.42408183 -9.2697258
-0.92441106 0.4270016 -9.2723198
-0.83458531 0.43293205 -9.2224417
0.82654631 0.427295 -9.2445841
0.91981775 0.42502224 -9.2726498
1.8143728 0.42133713 -9.2705679
1.8967037 0.43273768 -9.2550974
-1.89038 0.58186805 -9.2468166
-1.8052037 0.59815115 -9.2714434
-1.0419593 0.63284731 -9.3205938
-0.93715405 0.59455204 -9.2630215
-0.83878821 0.57426035 -9.2057085
0.82999665 0.58149725 -9.2285528
0.92775375 0.59882528 -9.2716455
1.029152 0.6673013 -9.3373127
1.8091679 0.59869635 -9.2715197
1.8902049 0.58545297 -9.2468224
-1.8791587 0.7241444 -9.2168989
-1.7782648 0.76263773 -9.2638006
-1.6883022 0.81197304 -9.3121176
-1.1986721 0.82730985 -9.3423748
-1.0782402 0.78154951 -9.2833719
-0.96168101 0.75306869 -9.251935
0.83702344 0.72228181 -9.210516
0.950697 0.75640178 -9.2546654
1.058926 0.78897977 -9.2921095
1.6881511 0.82149619 -9.3166409
1.7860819 0.76619929 -9.2657185
1.8809457 0.72272056 -9.2111635
-1.7530297 0.91906959 -9.2521276
-1.6276977 0.95244408 -9.2717304
-1.4438691 0.97557986 -9.2809486
-1.2668816 0.95793682 -9.2755985
-1.1149148 0.92568952 -9.2567787
-0.98821908 0.89904904 -9.2223043
0.9733988 0.90974408 -9.2378101
1.1079879 0.93453258 -9.263257
1.2597889 0.97574067 -9.2862415
1.4426912 0.99232167 -9.3062992
1.643736 0.95868033 -9.2799559
1.7605665 0.92075199 -9.2537622
-1.7260981 1.0492493 -9.2171984
-1.6046185 1.0666524 -9.2451544
-1.4489701 1.0699549 -9.2494469
-1.2858337 1.0640454 -9.2430944
-1.1444192 1.0454839 -9.2132664
1.0056603 1.0317365 -9.1952305
1.130159 1.0623451 -9.2309647
1.2827215 1.0794404 -9.2477617
1.4463463 1.0885205 -9.2531004
1.6051989 1.0813652 -9.2496662
1.7325361 1.0574964 -9.2336807
1.4925417 1.1977512 -9.1812134
-1.5368803 -0.005668032 -9.0997038
-1.4310091 -0.036901083 -9.0979605
-1.2797277 -0.053579267 -9.0993891
-1.1482253 -0.032138668 -9.0941629
1.1582174 -0.01934314 -9.1069269
1.2786211 -0.035586458 -9.1008301
1.4178002 -0.023196682 -9.1025438
-1.7535928 0.13879022 -9.0910015
-1.6001976 0.10221771 -9.094697
-1.4558525 0.060302317 -9.0931015
-1.2713234 0.026537865 -9.090044
-1.1101837 0.093062371 -9.0941553
-0.98280388 0.14146706 -9.0855627
0.9937126 0.14853533 -9.0790138
1.1143405 0.096656963 -9.0934515
1.2747145 0.049251299 -9.0912542
1.453602 0.077222623 -9.0939112
1.5975324 0.11817178 -9.0930128
1.7377843 0.15068644 -9.0891142
-1.9009675 0.28389895 -9.0896521
-1.7906327 0.25000927 -9.0954762
-1.6416142 0.19408894 -9.100852
-1.0627986 0.2089128 -9.1007242
-0.93946201 0.25555882 -9.0920601
-0.82518923 0.29406863 -9.0794668
0.8230831 0.29991025 -9.0834217
0.94346189 0.25796568 -9.0924234
1.0755773 0.21437956 -9.099143
1.5230181 0.17292519 -9.0962601
1.6298863 0.21164405 -9.0993538
1.7824632 0.25708929 -9.0946941
1.8964019 0.29446268 -9.0845938
-1.9127409 0.42875752 -9.0890713
-1.8354532 0.42210901 -9.100997
-0.89397651 0.42324287 -9.100812
-0.81383497 0.42649773 -9.0860424
0.80371976 0.42935017 -9.0851173
0.88868016 0.41746581 -9.1022406
1.8334303 0.4186928 -9.0972338
1.9146727 0.42773825 -9.0911913
-1.9082654 0.5907709 -9.087676
-1.8272717 0.5991798 -9.1030836
-0.90074039 0.60187972 -9.1028452
-0.81767285 0.589598 -9.0875015
0.80711889 0.59001398 -9.0857248
0.88494337 0.59468055 -9.1042271
1.8312167 0.59799635 -9.1026373
1.9148624 0.59078223 -9.0889807
-1.8980744 0.74912637 -9.0773859
-1.8081394 0.77158409 -9.1041002
-1.0364779 0.82189888 -9.1490049
-0.9299069 0.76966912 -9.1003399
-0.82793295 0.74469739 -9.0654621
0.81610352 0.75225502 -9.0780783
0.91551787 0.77246928 -9.1029263
1.8125129 0.76782346 -9.1040821
1.9003699 0.75442261 -9.0817308
-1.883601 0.88286942 -9.0444307
-1.7774905 0.93167859 -9.0915585
-1.6694812 0.9879142 -9.1436911
-1.4519608 1.0160912 -9.17272
-1.2420768 1.0002179 -9.1514473
-1.0869569 0.95833635 -9.1142883
-0.9539603 0.92379087 -9.0807304
-0.84160948 0.86911809 -9.0285664
0.83098632 0.89561278 -9.0494242
0.94711119 0.92979944 -9.0864248
1.0735732 0.9697355 -9.1333132
1.2103133 1.015643 -9.1685839
1.6845978 0.98789334 -9.1495686
1.7841219 0.93494034 -9.0952291
1.8859283 0.89626312 -9.0536327
-1.754371 1.0804358 -9.0742722
-1.6134436 1.1012819 -9.096406
-1.446281 1.1123815 -9.104085
-1.2765616 1.1036718 -9.0959139
-1.1172262 1.0891882 -9.0793324
-0.97841746 1.0689121 -9.0560293
0.84838808 1.0258434 -9.0256643
0.96624261 1.0819395 -9.0673695
1.110142 1.0970927 -9.087944
1.2708954 1.120765 -9.1038303
1.4448295 1.1353638 -9.1075764
1.6222917 1.1178282 -9.103199
1.7572485 1.0879595 -9.0810785
-1.7192334 1.2062472 -9.0250359
-1.6010845 1.2115457 -9.0460386
-1.4452845 1.2192556 -9.0499048
-1.2897947 1.2150795 -9.0457573
-1.1492658 1.2055285 -9.027091
1.0025824 1.2042475 -9.0266266
1.1256999 1.2182639 -9.0455732
1.2856445 1.2311639 -9.0664511
1.4480109 1.2331136 -9.0765152
1.6017097 1.2273364 -9.0681143
1.7275627 1.2133983 -9.0410185
-1.5428191 -0.0065177339 -8.9185867
-1.4323604 -0.027816519 -8.9269028
-1.2795089 -0.03409908 -8.9269056
-1.1388441 -0.02483316 -8.9185905
1.1587833 -0.014310287 -8.9195337
1.2786727 -0.026080243 -8.9290543
1.418223 -0.0144421 -8.928812
-1.7603967 0.13062336 -8.9216738
-1.6048323 0.099796087 -8.9243631
-1.4528344 0.059814036 -8.9243746
-1.2739307 0.043924343 -8.922307
-1.1006402 0.083140679 -8.9269609
-0.96447128 0.11935043 -8.9153576
-0.84883827 0.16813445 -8.8822498
0.96750939 0.12835552 -8.915267
1.1073285 0.089401267 -8.9232311
1.2770203 0.059671603 -8.9246702
1.449854 0.078353032 -8.9252548
1.600771 0.11314405 -8.92377
1.7430907 0.14472461 -8.9205046
-1.907147 0.27705115 -8.9225149
-1.7943668 0.24506608 -8.9259691
-1.660516 0.18451723 -8.9349728
-1.0452498 0.19432476 -8.9558735
-0.92840159 0.24478669 -8.9258623
-0.81238765 0.27824277 -8.916831
0.8099758 0.28206968 -8.9179459
0.92924631 0.24805313 -8.9267998
1.0512323 0.19855607 -8.9479189
1.6374612 0.20207648 -8.9287062
1.7867357 0.25194556 -8.9250889
1.9039468 0.29017204 -8.9195118
-1.9247473 0.43145624 -8.9194851
-1.853322 0.40905347 -8.9355974
-0.86962456 0.40473542 -8.9432287
-0.79600972 0.43146095 -8.9157305
0.79045123 0.43128461 -8.9165945
0.86940062 0.39410397 -8.9493484
1.8469079 0.40703407 -8.9322758
1.9250811 0.43221742 -8.9200611
-1.9285924 0.59392291 -8.9157352
-1.8545616 0.60205007 -8.9533672
-0.8681398 0.60225672 -8.9532433
-0.79788208 0.59231901 -8.9184933
0.79035574 0.5953995 -8.9192238
0.85921597 0.60588199 -8.9816475
1.8563989 0.60429579 -8.9622288
1.928974 0.59342462 -8.9157381
-1.9233844 0.75920069 -8.9181919
-1.841483 0.77354801 -8.9397573
-0.88624918 0.77893203 -8.9409609
-0.80470294 0.75961137 -8.9153395
0.79837465 0.76058441 -8.9158773
0.87252158 0.7853266 -8.9580679
1.8457787 0.77130914 -8.9428701
1.9275973 0.75987113 -8.9162807
-1.904619 0.91701299 -8.9102297
-1.8083485 0.94333225 -8.93328
-1.0381 1.0050596 -8.9975519
-0.92056531 0.94212681 -8.9333267
-0.82183033 0.91914445 -8.9019871
0.80771214 0.92190772 -8.9113131
0.90217406 0.94559908 -8.9362116
1.8162421 0.94396949 -8.9331675
1.9108422 0.92391002 -8.913455
-1.8853072 1.0536311 -8.872776
-1.7776711 1.0985208 -8.9189262
-1.6279731 1.151019 -8.9546766
-1.4505315 1.1644454 -8.971077
-1.2671266 1.1547612 -8.9648161
-1.092859 1.1290736 -8.9442625
-0.94894278 1.0970582 -8.9157133
-0.8382116 1.0563115 -8.8692341
0.82712549 1.0773368 -8.8890371
0.94183463 1.1037394 -8.9224873
1.0870439 1.1465572 -8.960907
1.2552418 1.1708081 -8.9865742
1.4494064 1.1807344 -8.9954557
1.6443892 1.1636205 -8.9763727
1.7834451 1.102497 -8.9238377
1.8863479 1.0557907 -8.8854361
-1.7499379 1.2373861 -8.8996897
-1.6079425 1.2552117 -8.9107952
-1.4459568 1.2637025 -8.9142237
-1.2776388 1.2611475 -8.9123974
-1.1156769 1.2517608 -8.9035254
-0.97651064 1.2281773 -8.8865681
0.8394528 1.1993734 -8.8553782
0.96419662 1.2435862 -8.8997946
1.1101514 1.2608935 -8.9127674
1.2754421 1.2728832 -8.9248323
1.4449593 1.2769716 -8.9289064
1.6126195 1.2688913 -8.9221277
1.7543665 1.2481377 -8.9060144
-1.5690397 1.3647801 -8.8486786
-1.4404312 1.3730298 -8.8582363
-1.2826616 1.3687268 -8.8501244
-1.1677473 1.3675746 -8.8489122
1.1295681 1.380181 -8.8647757
1.2842616 1.3823084 -8.8744135
1.4478518 1.3887199 -8.8759041
1.5980748 1.37918 -8.8680983
1.721628 1.3710072 -8.8534641
-1.5479463 -0.010110676 -8.763011
-1.4320046 -0.024760848 -8.7541227
-1.2779195 -0.034645103 -8.7574797
-1.1298473 -0.025728744 -8.7553244
1.1456648 -0.014249488 -8.7555218
1.2749094 -0.026169732 -8.7553091
1.4111549 -0.012862097 -8.7626553
-1.8722384 0.16753793 -8.7550573
-1.7673084 0.12858929 -8.7543554
-1.609224 0.09812776 -8.754715
-1.4497024 0.059604004 -8.7543039
-1.2768073 0.044261113 -8.7549572
-1.0959016 0.069462232 -8.7553854
-0.95462531 0.11116249 -8.7532854
-0.83782488 0.15975098 -8.7303886
0.83558249 0.16763306 -8.6977806
0.95668888 0.11901251 -8.7528772
1.101368 0.085109882 -8.7541924
1.2762072 0.059276678 -8.7560396
1.4475362 0.07816305 -8.7542315
1.6007233 0.1098529 -8.7534609
1.7486315 0.14072224 -8.756794
-1.9114445 0.27430701 -8.753499
-1.7972447 0.24251179 -8.7547159
-1.6803662 0.17834394 -8.7661352
-1.0217311 0.17827952 -8.8221159
-0.91193134 0.2369134 -8.758811
-0.80359507 0.26805854 -8.7514324
0.80188954 0.27090546 -8.7517366
0.91887987 0.23727141 -8.7566471
1.0316359 0.17469561 -8.8256006
1.6460423 0.19422947 -8.7585497
1.7912742 0.24984983 -8.7545204
1.9074242 0.28726453 -8.7535782
-1.9284654 0.43115869 -8.7527599
-1.8568946 0.37545794 -8.758338
-0.85933399 0.37564451 -8.7755537
-0.78665006 0.42420492 -8.7528229
0.67687106 0.48172212 -8.6708298
0.78085816 0.42527854 -8.7542324
0.85764891 0.36246434 -8.7940006
1.8529328 0.38400063 -8.7552118
1.9273063 0.4361808 -8.7526274
-1.9446386 0.59397411 -8.7554159
-0.85565639 0.6272949 -8.8098259
-0.78218651 0.59582329 -8.7562485
0.67262018 0.57184225 -8.7077208
0.76716799 0.5982728 -8.7558947
1.8691816 0.66622925 -8.8205357
1.9453777 0.59518528 -8.7534199
-1.9417778 0.7642476 -8.7556009
-1.8625995 0.81919461 -8.8179531
-0.86022949 0.7802946 -8.787508
-0.79290998 0.76462942 -8.7510529
0.67974555 0.71890593 -8.6842794
0.77923799 0.76468116 -8.7563305
1.8649803 0.81233335 -8.8231926
1.946945 0.76607853 -8.7532482
-1.9282712 0.92525858 -8.7447357
-1.8405353 0.95670497 -8.7753735
-0.87811196 0.95067853 -8.776226
-0.80148619 0.92854893 -8.7454786
0.79210508 0.92914194 -8.7501793
0.86667234 0.96917731 -8.8011589
1.8459791 0.96188474 -8.7830095
1.9325377 0.9293316 -8.7482986
-1.9030416 1.0793977 -8.7370863
-1.8024137 1.113996 -8.7598267
-1.6975036 1.1855536 -8.8285303
-1.0428052 1.1740761 -8.8216105
-0.91377383 1.1144466 -8.7652035
-0.81624115 1.0918999 -8.7408066
0.80285919 1.093958 -8.742795
0.89344525 1.117265 -8.7705803
1.8096931 1.1154791 -8.7628126
1.9086062 1.0875508 -8.7414961
-1.8778191 1.2074714 -8.692893
-1.7694726 1.2621995 -8.7445345
-1.6224731 1.3012389 -8.7698231
-1.449258 1.3140521 -8.7800961
-1.2753059 1.3105426 -8.7717066
-1.0991669 1.2927563 -8.7663488
-0.94872642 1.264129 -8.7453394
-0.83250028 1.234543 -8.708087
0.81792343 1.2508305 -8.7241507
0.94097006 1.2725573 -8.7528219
1.0908455 1.3088675 -8.7813463
1.2711056 1.3258619 -8.7908173
1.4472339 1.3281161 -8.8007774
1.6290885 1.3177774 -8.7819853
1.7744384 1.2663754 -8.7486105
1.8821439 1.2141104 -8.7055473
-1.7387893 1.3993107 -8.7176762
-1.6046727 1.414625 -8.7346087
-1.4457963 1.4214793 -8.7361097
-1.2762407 1.4137951 -8.7374153
-1.1136645 1.4111526 -8.729393
-0.97735775 1.3930192 -8.7049875
0.83998275 1.3690462 -8.6814528
0.96208054 1.4107484 -8.7225256
1.1111013 1.4228766 -8.7353115
1.2769164 1.4285635 -8.741684
1.4466118 1.4344047 -8.7456064
1.6083977 1.4316475 -8.7404041
1.7454262 1.4144328 -8.7272911
-1.4862691 1.5379735 -8.6742058
1.112337 1.5390522 -8.6759892
1.3239169 1.5437335 -8.683176
1.4441817 1.5507252 -8.6952047
1.5790679 1.5410523 -8.6817818
1.7049048 1.5370516 -8.672102
-1.550509 -0.0077050626 -8.6003475
-1.433062 -0.021514392 -8.5934229
-1.2779307 -0.031681448 -8.5914707
-1.1391793 -0.019520627 -8.5997028
1.1543089 -0.013275662 -8.6089449
1.2781773 -0.018295305 -8.5996265
1.3996247 -0.0088901101 -8.609911
-1.8726504 0.16512454 -8.5999899
-1.7600796 0.12785661 -8.5914965
-1.608798 0.098107159 -8.5862684
-1.4500804 0.065293685 -8.5836973
-1.2774827 0.050819781 -8.5802059
-1.1000712 0.077180117 -8.5823593
-0.95275444 0.11404275 -8.5905437
-0.83409321 0.16241929 -8.5935163
0.84345019 0.16204838 -8.5995932
0.95424461 0.12233158 -8.5921907
1.1063371 0.095118232 -8.5855551
1.2771065 0.072125308 -8.5807724
1.4473754 0.084777683 -8.5845556
1.6009833 0.11323933 -8.5860453
1.7414792 0.14244679 -8.5914955
-1.9106786 0.27787352 -8.588213
-1.7948579 0.24434681 -8.583415
-1.676704 0.18099748 -8.5738792
-1.0321772 0.17310333 -8.5157204
-0.90982771 0.2316862 -8.5846443
-0.79828227 0.26826176 -8.5861635
0.80078667 0.27028233 -8.5865498
0.92143393 0.23515564 -8.5836
1.0366279 0.17624013 -8.5440254
1.6483762 0.19613571 -8.582283
1.7873234 0.25406665 -8.584568
1.9056922 0.29313049 -8.5912495
-1.9327617 0.43369406 -8.5852757
-1.8547366 0.37316698 -8.5820007
-0.85346437 0.370664 -8.5981827
-0.78249437 0.42409191 -8.5856056
0.67762393 0.48648301 -8.5659618
0.77907819 0.4208321 -8.5863924
0.85485452 0.35073724 -8.5727797
1.8488545 0.38716248 -8.5790806
1.9291762 0.43629029 -8.5868292
-2.0461361 0.63725996 -8.5546093
-1.9573298 0.59399283 -8.588624
-0.7685858 0.59483057 -8.5855761
0.66637611 0.59468234 -8.5786734
0.759359 0.59191066 -8.5838289
1.9573288 0.59335828 -8.5845604
2.0430222 0.65144181 -8.5489559
-2.0498588 0.76830214 -8.5547266
-1.9638549 0.76449305 -8.5891695
-0.77541929 0.76559252 -8.584075
0.66955209 0.75573307 -8.5586176
0.75996059 0.76809692 -8.585845
1.9671189 0.76417506 -8.5873623
2.0476372 0.77405077 -8.5453043
-2.0470026 0.8998698 -8.5327988
-1.9502236 0.93447715 -8.5853539
-1.8625305 0.99176884 -8.6482611
-0.86250091 0.98689461 -8.6405859
-0.78264058 0.93622696 -8.584094
0.67201239 0.91796851 -8.5581636
0.76446962 0.93813819 -8.5871916
1.8610815 1.0035812 -8.6520338
1.9580411 0.93588567 -8.5868006
2.0462854 0.90447938 -8.5320559
-1.9298893 1.0943514 -8.5745535
-1.8323852 1.1250578 -8.6035938
-0.87150764 1.1237702 -8.6083488
-0.79778528 1.0976018 -8.5784111
0.67293167 1.075145 -8.5201435
0.78609204 1.103691 -8.5831423
0.85810345 1.147928 -8.6355457
1.8402461 1.1316888 -8.6100101
1.9348302 1.0976349 -8.5768728
-1.9003224 1.2457268 -8.5587168
-1.793043 1.2802728 -8.5879164
-1.6772569 1.3448428 -8.6540403
-1.2961966 1.3540863 -8.6614819
-1.0575138 1.3423806 -8.6488028
-0.91612023 1.2876471 -8.5968056
-0.81441015 1.2629858 -8.5708685
0.79969662 1.2641904 -8.5711565
0.8928116 1.2959465 -8.6038055
1.0203784 1.3572367 -8.664381
1.6918427 1.3552091 -8.6529884
1.7992375 1.2833272 -8.5894051
1.9088534 1.2548994 -8.5633545
-1.764689 1.4292481 -8.5715342
-1.6185244 1.4581206 -8.5956888
-1.4462436 1.4680072 -8.6030102
-1.2751023 1.4554037 -8.5986805
-1.1036599 1.4534996 -8.5929441
-0.94783938 1.4320409 -8.5718374
-0.83011723 1.395027 -8.5459671
0.81760299 1.4169861 -8.5588684
0.94105858 1.4406747 -8.5802937
1.1010326 1.4713129 -8.6018343
1.2718729 1.4738128 -8.6019888
1.4481744 1.4859515 -8.6192999
1.6267982 1.4725089 -8.6026421
1.7694356 1.4323497 -8.5759516
1.8854256 1.3777223 -8.5071936
-1.7375467 1.5633668 -8.5380316
-1.6012348 1.5831213 -8.5545197
-1.446942 1.5932754 -8.561552
-1.2817191 1.5764109 -8.5486984
-1.1119823 1.5695021 -8.5491953
-0.97659701 1.5577037 -8.5360184
0.96092457 1.5728036 -8.5497513
1.1094904 1.583088 -8.5607986
1.2805696 1.5907787 -8.5661249
1.4464078 1.601485 -8.571661
1.6061404 1.5958289 -8.5650597
1.7442648 1.5764635 -8.5522852
-1.5507963 1.7079496 -8.5124855
-1.4745983 1.7143735 -8.5147171
1.3225374 1.7258316 -8.5149403
1.446731 1.7330236 -8.525897
1.5553914 1.7212038 -8.5189743
-1.5529273 -0.0036526918 -8.4748077
-1.4265465 -0.013782333 -8.449892
-1.2768002 -0.017508281 -8.4413433
-1.1695521 -0.01014394 -8.4537973
1.1857581 -0.011410475 -8.4785376
1.2733918 -0.0066530271 -8.4710169
1.3717198 -0.0049576759 -8.4828491
-1.7446954 0.13672927 -8.4307928
-1.604261 0.11034074 -8.4197989
-1.4454517 0.086302973 -8.4123096
-1.276824 0.079114288 -8.4111156
-1.1093374 0.09973751 -8.4179373
-0.95949286 0.12743576 -8.4258204
-0.84805685 0.16748857 -8.4822836
0.964827 0.13477716 -8.4318256
1.114381 0.11152305 -8.4253616
1.2765491 0.10328925 -8.416029
1.4423242 0.10895718 -8.4208784
1.6026477 0.12196958 -8.4233761
1.7284387 0.15101045 -8.4399986
-1.9041034 0.29431903 -8.4241838
-1.783985 0.25712246 -8.4138565
-1.654827 0.19964746 -8.4006214
-1.0500813 0.18878764 -8.3845911
-0.922544 0.24028683 -8.4131145
-0.80481774 0.27329677 -8.4223204
0.80502701 0.28371716 -8.4203892
0.92946702 0.24870017 -8.4151926
1.0849167 0.19429754 -8.3947344
1.2803413 0.17470424 -8.3470335
1.4673041 0.17814147 -8.3561325
1.6296715 0.21084376 -8.4057636
1.7754508 0.26504201 -8.416234
1.8958687 0.30719668 -8.431673
-1.9301146 0.43654749 -8.4181471
-1.8440974 0.38557166 -8.4058514
-0.86275715 0.36690885 -8.3887482
-0.77810222 0.42703831 -8.4174681
0.67799866 0.48224285 -8.4475899
0.77987295 0.42895114 -8.4144564
0.86620432 0.36204052 -8.3915157
1.8308334 0.3942363 -8.4074936
1.9262825 0.44022229 -8.4196339
-2.0484734 0.62245446 -8.4128904
-1.9578451 0.59255403 -8.416193
-0.75800693 0.59630036 -8.4163609
-0.67881906 0.61537224 -8.3660879
0.66415292 0.59241444 -8.4076653
0.75541598 0.59564251 -8.4142828
1.8672646 0.5147928 -8.3591766
1.9533331 0.59275556 -8.4144239
2.0460882 0.63980973 -8.4096394
-2.0575016 0.76979524 -8.4125986
-1.9737691 0.76253164 -8.4141035
-0.76018465 0.76730329 -8.4157171
0.65823495 0.76348782 -8.40979
0.74605691 0.76706064 -8.4158354
1.9744806 0.7604264 -8.4126101
2.0544438 0.77421075 -8.4139061
-2.0568957 0.93261766 -8.4039774
-1.9734555 0.93517244 -8.4158278
-0.76009774 0.93482023 -8.4136305
0.65949827 0.9286992 -8.4066877
0.74851489 0.93477279 -8.4149542
1.9750464 0.93451977 -8.4168472
2.0534198 0.93421501 -8.4052505
-2.0497894 1.0686417 -8.3753643
-1.951425 1.1060175 -8.4161148
-1.8590144 1.1703393 -8.4777279
-0.85691428 1.154273 -8.4549932
-0.7810176 1.1068271 -8.4164486
0.67016625 1.0817236 -8.40275
0.75992417 1.1088312 -8.418129
1.866693 1.180733 -8.488802
1.959744 1.107319 -8.4177217
2.0488496 1.0664997 -8.3709536
-1.9289913 1.2635281 -8.4049349
-1.8217949 1.296268 -8.4329853
-0.87098306 1.2978519 -8.4326487
-0.80121648 1.2670982 -8.408576
0.78772056 1.271798 -8.4129858
0.8574 1.3314052 -8.4582872
1.8300995 1.3065623 -8.4376955
1.9352398 1.2658768 -8.4075718
-1.8955013 1.4065138 -8.3807955
-1.7905921 1.4474051 -8.4179697
-1.6375221 1.5121713 -8.4805536
-1.3988029 1.5222653 -8.4861364
-1.2636855 1.5083001 -8.4756985
-1.0964352 1.5122578 -8.4767227
-0.92084754 1.4573914 -8.424386
-0.81725538 1.4271897 -8.4024725
0.80383503 1.4333494 -8.4061651
0.89880252 1.46275 -8.4311352
1.1167847 1.524223 -8.4939003
1.2330827 1.5224321 -8.4897003
1.6918443 1.5146616 -8.4776096
1.7942607 1.4504 -8.4193602
1.9057571 1.416194 -8.3882828
-1.8723967 1.5440354 -8.3376827
-1.763974 1.5983291 -8.3982439
-1.6173751 1.6231498 -8.4242935
-1.4454618 1.6322736 -8.4470367
-1.2717786 1.6219233 -8.4200659
-1.105662 1.6118896 -8.4131212
-0.95376104 1.5953425 -8.3988857
-0.83448607 1.5618739 -8.3599081
0.82466441 1.5809989 -8.3861198
0.9460296 1.6068732 -8.408474
1.1038032 1.6245114 -8.4261484
1.2645313 1.6333132 -8.4345951
1.4472693 1.6502199 -8.4622345
1.6242589 1.6329945 -8.4309521
1.7667309 1.6012927 -8.4031534
-1.7343727 1.7303779 -8.3629904
-1.6037598 1.7634817 -8.3884144
-1.4467899 1.7708955 -8.3984337
-1.2902123 1.7624923 -8.3801126
-1.1220813 1.7222897 -8.3617258
-0.9916172 1.7119764 -8.348093
0.96948779 1.7275951 -8.3683596
1.1168129 1.7427289 -8.3788147
1.2847118 1.769176 -8.3952389
1.4462698 1.7827979 -8.4074068
1.606014 1.7689612 -8.4001026
1.7403713 1.7396201 -8.3784637
-1.5792631 1.9013793 -8.3541956
-1.4555928 1.9115955 -8.3556099
-1.3410052 1.8953618 -8.3418159
1.3164237 1.9182718 -8.3552961
1.447144 1.9290869 -8.3695898
1.578213 1.9168669 -8.3618736
-1.2209473 -0.0012480021 -8.3226395
-1.7283788 0.14954628 -8.2788773
-1.6019758 0.12407117 -8.2582417
-1.4435792 0.11462035 -8.2605629
-1.2776242 0.11327695 -8.2585955
-1.1165118 0.1207831 -8.2591286
-0.98173505 0.14467633 -8.274148
0.98009795 0.15056314 -8.2792149
1.1168228 0.13158593 -8.2625427
1.2763005 0.11928514 -8.2589197
1.4394717 0.12485719 -8.2561588
1.5953671 0.13946314 -8.2698822
1.711921 0.1649729 -8.2794533
-1.8927287 0.31235787 -8.2654362
-1.7693071 0.27324292 -8.2539091
-1.628202 0.23167157 -8.2374058
-1.4514016 0.19621879 -8.2127266
-1.2769656 0.19117855 -8.204957
-1.0918493 0.21547046 -8.2324266
-0.93980217 0.25804478 -8.2471714
-0.81264538 0.29898334 -8.2649698
0.81912261 0.301386 -8.2690506
0.94713497 0.27067727 -8.2516899
1.0993358 0.23238242 -8.2384138
1.2747093 0.20554635 -8.2359362
1.4468451 0.21321332 -8.2352304
1.6209167 0.2472425 -8.2414427
1.7621793 0.28198814 -8.2574987
1.8859661 0.32574597 -8.3019075
-1.9251252 0.44097361 -8.2531242
-1.8165754 0.40298665 -8.2342615
-1.6972783 0.34236747 -8.1741438
-0.88419741 0.37738103 -8.2267723
-0.78851902 0.43409947 -8.248827
0.6789639 0.50931454 -8.2911253
0.78852713 0.43416205 -8.2491026
0.89550346 0.38499534 -8.2276144
1.6788599 0.35550329 -8.1903744
1.8025898 0.40926859 -8.2387123
1.9189981 0.44410023 -8.2547417
-2.0472939 0.64276552 -8.2619781
-1.9491131 0.59383243 -8.2457867
-1.8658047 0.52396113 -8.1820078
-0.75949305 0.59231895 -8.2449169
-0.67473745 0.6329878 -8.2502785
0.66723931 0.60683435 -8.244277
0.76191074 0.59085202 -8.2446613
1.8573693 0.5348019 -8.2094297
1.9430636 0.59604156 -8.2458124
2.0441062 0.65766472 -8.2675028
-2.0563593 0.76966268 -8.2522001
-1.9710631 0.76336813 -8.2447071
-0.75034875 0.76792288 -8.2496204
-0.67480272 0.74673927 -8.2348976
0.65345293 0.75846523 -8.2502003
0.74028158 0.76443595 -8.2480316
1.9707913 0.76461929 -8.245904
2.0535033 0.77486259 -8.2555342
-2.062669 0.93716735 -8.2405252
-1.9788529 0.93436295 -8.2429838
-0.75650597 0.93349785 -8.2470636
-0.67833072 0.93640047 -8.2287483
0.65406692 0.93261814 -8.2506676
0.74216092 0.93597531 -8.2473555
1.9779184 0.93355644 -8.2434568
2.0592709 0.9367736 -8.2455263
-2.054805 1.0995672 -8.2401924
-1.9709128 1.1063498 -8.2466803
-0.76408648 1.105953 -8.2463703
-0.67910051 1.0475103 -8.2571955
0.66068095 1.1075146 -8.2455111
0.74935579 1.1059716 -8.2454948
1.9746754 1.1074789 -8.2446947
2.0534115 1.0948842 -8.2428904
-2.0453935 1.2175158 -8.207222
-1.9497659 1.2732722 -8.2460461
-1.854267 1.3371906 -8.3033476
-0.86294186 1.3145591 -8.2641239
-0.79173476 1.2718447 -8.2455606
0.67371458 1.2235756 -8.2286682
0.77276456 1.2761896 -8.2457609
1.8607501 1.340322 -8.3144026
1.9571272 1.2747343 -8.2455006
2.0448706 1.2168119 -8.2188063
-1.9243515 1.4314482 -8.2347488
-1.8184952 1.4605403 -8.2614012
-0.87870753 1.4557446 -8.2551136
-0.81076068 1.4341809 -8.2396889
0.79727578 1.4366405 -8.2438326
0.86405438 1.4684685 -8.2517576
1.8252838 1.4683647 -8.2646856
1.9304992 1.4337888 -8.2374153
-1.8928169 1.5724694 -8.2155037
-1.7871599 1.615845 -8.2442093
-1.6561852 1.6774793 -8.3041277
-1.233323 1.6741303 -8.3033314
-1.0935862 1.6642691 -8.2731304
-0.93291992 1.6209744 -8.2465801
-0.82672578 1.5946313 -8.2347689
0.81285948 1.6036819 -8.2396832
0.91751814 1.6294112 -8.2539558
1.0887394 1.6797748 -8.2992744
1.2052343 1.6865504 -8.323391
1.6804234 1.6795505 -8.3089294
1.7932539 1.6179731 -8.2488613
1.9005951 1.5832127 -8.2133141
-1.7535241 1.7705339 -8.2297049
-1.6308378 1.7913777 -8.258996
-1.4356943 1.8189269 -8.2940283
-1.2674314 1.7919071 -8.2575579
-1.1128893 1.7704027 -8.233777
-0.96446598 1.7420702 -8.2275505
0.82944667 1.7199961 -8.2098827
0.95565504 1.7585359 -8.2322969
1.1068208 1.7815462 -8.2435932
1.2574997 1.8066598 -8.273181
1.4346647 1.841985 -8.3108549
1.6341044 1.7957668 -8.2649469
1.7579921 1.7708871 -8.2303219
-1.7236675 1.9284934 -8.1940689
-1.6063769 1.9483889 -8.2333736
-1.4462343 1.9588935 -8.245472
-1.2852622 1.9443804 -8.2255421
-1.1615092 1.9222708 -8.1906109
1.0090854 1.875253 -8.1683922
1.1391869 1.9309109 -8.2074442
1.2816916 1.9516467 -8.2375479
1.4451373 1.9650841 -8.2593546
1.6097775 1.9500717 -8.2388105
1.7219883 1.9289807 -8.1967182
-1.5878731 2.0945718 -8.1976376
-1.4453654 2.1086175 -8.2078333
-1.2970343 2.0992362 -8.1948624
-1.176891 2.0479829 -8.1625299
1.1660129 2.0826962 -8.1823292
1.2900971 2.108583 -8.207922
1.4432273 2.1077924 -8.2203426
1.5926573 2.0983489 -8.208354
1.7114017 2.0526414 -8.1734486
-1.4487795 2.2190301 -8.1627197
1.316539 2.2362144 -8.1758442
1.4397132 2.231818 -8.1777868
1.5482668 2.221689 -8.1705465
-1.5852867 0.14600074 -8.1204481
-1.4374417 0.13764606 -8.1058121
-1.279932 0.13612895 -8.1026449
-1.1287622 0.14409658 -8.1172743
-1.0195321 0.16458941 -8.1231928
1.1395613 0.15014374 -8.1239777
1.2779968 0.14573118 -8.1170197
1.4353594 0.15107469 -8.123476
1.5584149 0.15703966 -8.1438522
-1.8746977 0.33796144 -8.1442947
-1.7574755 0.29258364 -8.0976
-1.6109179 0.2694416 -8.0845146
-1.445966 0.25309926 -8.0706615
-1.2749488 0.24693158 -8.0688677
-1.1053871 0.26114377 -8.0784845
-0.95766276 0.28624827 -8.0951586
-0.83131886 0.31944051 -8.1211796
0.83230168 0.3265906 -8.1307936
0.95662975 0.29299071 -8.0972223
1.1100947 0.27331144 -8.0879812
1.2771111 0.2623502 -8.0774441
1.444524 0.26584581 -8.0810204
1.60594 0.281167 -8.0911331
1.7425294 0.3085309 -8.1080208
-1.9112381 0.45146015 -8.0917692
-1.783802 0.42570001 -8.0746517
-1.6430887 0.3741973 -8.038455
-1.4681762 0.34956622 -7.9982758
-1.0692595 0.36198953 -8.0182505
-0.9201684 0.40654922 -8.0648699
-0.80348587 0.44521919 -8.089325
0.80466688 0.44934258 -8.0912647
0.93141186 0.41557506 -8.0728464
1.0882893 0.36894169 -8.0357504
1.2784952 0.35397431 -8.009552
1.4545599 0.36333257 -8.0170288
1.6358943 0.39001042 -8.0526791
1.7774374 0.4323149 -8.0799217
1.9037629 0.46928144 -8.1036148
-2.0449142 0.66420329 -8.1518192
-1.9330221 0.60404193 -8.0849028
-1.840202 0.56496209 -8.0451107
-0.86655247 0.53806603 -8.0227165
-0.77596241 0.59524083 -8.0782471
-0.67712462 0.66461468 -8.1435852
0.6740213 0.64673269 -8.1238317
0.77907014 0.59655482 -8.0800705
0.87317544 0.54554933 -8.0324373
1.8255408 0.56751555 -8.0541706
1.926281 0.6077643 -8.0848589
-2.0475435 0.79054856 -8.1230688
-1.9512644 0.76365709 -8.0737886
-1.8655797 0.70377958 -8.0049839
-0.758986 0.76391751 -8.0751209
-0.67354429 0.77336359 -8.0879498
0.65845072 0.77271414 -8.0892849
0.75703055 0.76294875 -8.0752134
1.8572524 0.71493572 -8.0158062
1.9464966 0.7650317 -8.075366
2.0471859 0.79684979 -8.1343021
-2.0510907 0.94312435 -8.0995512
-1.9652773 0.93437594 -8.0716305
-0.75659347 0.93708724 -8.0794849
-0.67621213 0.89509881 -8.0659266
0.65765774 0.93946797 -8.0761423
0.74733239 0.93619043 -8.0793962
1.962144 0.93451101 -8.0730677
2.0495331 0.94513458 -8.1074266
-2.0511608 1.1026669 -8.0837097
-1.9684932 1.1056604 -8.0748034
-0.76546252 1.1042806 -8.0782356
0.66559416 1.1005157 -8.0819902
0.75484657 1.1057993 -8.0758419
1.9653462 1.1046863 -8.0721741
2.0494285 1.1055256 -8.0863256
-2.0459139 1.2388551 -8.0843105
-1.9624252 1.2759938 -8.0738544
-0.86078262 1.3220599 -8.0698967
-0.79070812 1.2751344 -8.0758467
0.67108876 1.2241783 -8.0805788
0.77299726 1.2774389 -8.0761604
1.9633156 1.2765043 -8.0725336
2.0453336 1.2204539 -8.0951786
-1.9438704 1.4423822 -8.0744047
-1.8510336 1.5032523 -8.1301146
-0.88089567 1.4631728 -8.0742893
-0.81200975 1.4345857 -8.0772486
0.79595971 1.436042 -8.0756445
0.86845058 1.4757611 -8.0693378
1.8578444 1.5043072 -8.1352663
1.9433099 1.4426731 -8.0739069
-1.9235072 1.6041329 -8.065177
-1.8141353 1.6315864 -8.0895348
-1.0362773 1.6981152 -8.138546
-0.91084439 1.6227272 -8.0741673
-0.82761133 1.5918528 -8.0824652
0.81452376 1.6023643 -8.0766544
0.89454311 1.6252484 -8.0731049
1.8214123 1.635657 -8.0989799
1.9265542 1.6042849 -8.0663767
-1.8995833 1.7424957 -8.0310507
-1.7787944 1.7799119 -8.0723238
-1.678653 1.823313 -8.1163254
-1.218598 1.8361871 -8.1362038
-1.0918983 1.8040946 -8.0845709
-0.96122432 1.7646126 -8.0724602
-0.8407051 1.7013708 -8.0950079
0.82883054 1.7363453 -8.0791492
0.94930673 1.7795991 -8.0761576
1.0828267 1.8221507 -8.0925236
1.201618 1.8588952 -8.1465645
1.6790825 1.8322483 -8.1073885
1.7835958 1.7832367 -8.0733471
1.9056386 1.7509587 -8.0447407
-1.759008 1.9460338 -8.0616236
-1.6481516 1.9687454 -8.0985537
-1.4420396 2.0165806 -8.1510324
-1.2478497 1.9704657 -8.1108522
-1.1184043 1.9450128 -8.0617085
-1.0075517 1.8907753 -8.0084524
0.99875349 1.9157786 -8.0482092
1.1070538 1.9518641 -8.0731115
1.2300125 1.9785111 -8.1314507
1.513469 2.0308647 -8.1556873
1.6547344 1.9646162 -8.0944252
1.7573535 1.9457382 -8.0633764
-1.7397333 2.1015406 -8.0468369
-1.6148616 2.1250167 -8.0736008
-1.4470714 2.1380396 -8.1018925
-1.2710409 2.1289036 -8.0772877
-1.1368067 2.1097965 -8.0479536
1.0104744 2.0831952 -8.0109463
1.1255869 2.1159508 -8.0560684
1.2644694 2.1368208 -8.0953121
1.4522752 2.1502633 -8.1166439
1.6184593 2.1284215 -8.0787163
1.7410848 2.1066563 -8.0478201
-1.7120789 2.2257326 -8.0153008
-1.5966138 2.2666373 -8.0418558
-1.444715 2.2752068 -8.0559416
-1.2899306 2.2725964 -8.04568
-1.1567948 2.2432454 -8.0220432
1.1403707 2.2644784 -8.0342388
1.282239 2.2815659 -8.0573788
1.4441677 2.2858648 -8.0663271
1.5974767 2.2740574 -8.0508661
1.7207712 2.2348275 -8.0212889
-1.5555433 2.3879855 -8.0020494
-1.4432005 2.3948371 -8.0057507
-1.3362876 2.3882263 -8.0030031
1.1834471 2.3806126 -8.0013742
1.3033977 2.4069133 -8.015851
1.4343458 2.4110181 -8.0178032
1.5574868 2.3984797 -8.0038233
-1.7254841 0.32063374 -7.9637089
-1.5980411 0.29565686 -7.9396615
-1.4395996 0.28556255 -7.9290166
-1.2772884 0.2829884 -7.9291797
-1.1186892 0.29255232 -7.9346681
-0.97767907 0.3157599 -7.9556875
0.98638576 0.31653929 -7.9622092
1.1241492 0.29905957 -7.9413877
1.2778651 0.29344839 -7.9324284
1.438756 0.29965991 -7.9413066
1.5877836 0.31107917 -7.9515705
1.7114769 0.32536477 -7.9813671
-1.8873819 0.47674116 -7.9664545
-1.7642232 0.44847244 -7.9271517
-1.6151662 0.42754132 -7.9099722
-1.4473246 0.4135806 -7.8926749
-1.2788304 0.40400293 -7.8858314
-1.1002131 0.41382661 -7.8979197
-0.9496271 0.44141573 -7.9223685
-0.82142043 0.47234747 -7.9530873
0.82457405 0.4740487 -7.9532714
0.95318222 0.44705358 -7.925736
1.1059724 0.42623428 -7.9096251
1.2769512 0.41396722 -7.8993936
1.4455225 0.42220461 -7.904943
1.6126237 0.43614516 -7.9172797
1.7554797 0.45757118 -7.9364481
1.8847996 0.50100183 -7.9754953
-1.9119245 0.61175847 -7.9316006
-1.7856548 0.59543693 -7.9065018
-1.642413 0.56277716 -7.8570013
-1.4626456 0.52577662 -7.8285136
-1.066075 0.53135836 -7.843102
-0.91044843 0.57860953 -7.8889399
-0.80269933 0.6097129 -7.9287343
0.80721754 0.61152703 -7.9315128
0.92419338 0.58485276 -7.897984
1.0817697 0.54147214 -7.8488507
1.2853335 0.52447683 -7.8346539
1.455307 0.53646451 -7.8406224
1.6345675 0.56990159 -7.8688488
1.7788155 0.5976038 -7.9122591
1.9065791 0.62183547 -7.9416718
-1.9266698 0.77245301 -7.9209452
-1.8180146 0.75228995 -7.881186
-1.69487 0.68875551 -7.8217268
-0.87303454 0.74465722 -7.8608699
-0.78994495 0.76830018 -7.9151115
0.67971516 0.81299102 -7.9646192
0.79254061 0.77124596 -7.9162679
0.88055277 0.74747849 -7.86834
1.6862851 0.70457727 -7.8358974
1.8116509 0.75514942 -7.8858576
1.9184755 0.77497035 -7.9234633
-1.935748 0.93786073 -7.9157839
-1.8473737 0.91634595 -7.8587403
-0.86153287 0.90520626 -7.8453469
-0.77676529 0.93357998 -7.9066138
-0.67718208 0.87213463 -7.9671226
0.66858178 0.9505887 -7.9543004
0.77639711 0.93713421 -7.9067144
0.86259687 0.90601319 -7.8384676
1.8403683 0.92273319 -7.8658791
1.9296585 0.93991655 -7.916131
-2.0424833 1.1185673 -7.9630008
-1.9455539 1.1055173 -7.9058199
-1.8614774 1.0580765 -7.8382015
-0.85352552 1.1174467 -7.8419833
-0.78167164 1.1054927 -7.9081874
0.6737631 1.0948361 -7.9447784
0.77121371 1.1057892 -7.9038119
1.8571782 1.0776764 -7.8503695
1.9391422 1.1060452 -7.9075327
2.0411286 1.1358626 -7.9652133
-2.0430651 1.2503784 -7.9610267
-1.9534636 1.2759135 -7.9041629
-0.86495852 1.3078618 -7.9020209
-0.79721546 1.2736551 -7.9067445
0.67943364 1.2077063 -7.9416146
0.7838046 1.277603 -7.9094443
0.85605955 1.3462046 -7.8682809
1.8662701 1.2010245 -7.8373961
1.94841 1.2754103 -7.9042869
-1.948221 1.4443901 -7.9041395
-0.88216686 1.4541862 -7.9011779
-0.8151595 1.4337006 -7.9075179
0.79971099 1.4363848 -7.9063268
0.86889052 1.4582492 -7.902442
1.9434222 1.4455401 -7.9039598
-1.9380167 1.6130695 -7.9026289
-1.8503339 1.6749264 -7.9653215
-0.91392148 1.6211536 -7.9063301
-0.83297634 1.586161 -7.9028959
0.81840885 1.6030711 -7.9029059
0.89725351 1.6206191 -7.9060602
1.8583001 1.677878 -7.9590249
1.932842 1.6132511 -7.9013028
-1.9205079 1.7691069 -7.8954873
-1.8121772 1.7988744 -7.9211102
-1.0573019 1.8176204 -7.9189706
-0.9581396 1.7761804 -7.9028559
0.83739406 1.7353692 -7.8950601
0.93931705 1.786669 -7.9048486
1.0423118 1.8378699 -7.9291396
1.8184916 1.8052721 -7.9242096
1.922382 1.7715378 -7.8958588
-1.8866159 1.9280833 -7.868957
-1.7890006 1.9525483 -7.9083142
-1.6912073 2.0242398 -7.9773645
-1.0780158 1.958069 -7.9150472
-0.9858672 1.9438431 -7.889545
0.9706372 1.9455366 -7.8972487
1.0583317 1.9580135 -7.9203162
1.694397 1.9947236 -7.9789705
1.7890135 1.9535559 -7.9077373
1.8942788 1.9088341 -7.8755803
-1.8794811 2.0731502 -7.8472857
-1.7679461 2.1184688 -7.8976784
-1.6591288 2.1579075 -7.9391475
-1.2187613 2.1737533 -7.967782
-1.1026826 2.1251786 -7.9098816
-0.99283785 2.1075423 -7.8699174
0.97834468 2.1164868 -7.8879828
1.0853468 2.1314721 -7.9172792
1.1966356 2.1975369 -7.9825101
1.6661489 2.1588097 -7.9338555
1.7686878 2.1185281 -7.898283
1.8733593 2.0605938 -7.835916
-1.7429222 2.2659097 -7.8853912
-1.616601 2.2959623 -7.9053211
-1.4489303 2.327261 -7.9259672
-1.2673179 2.3066137 -7.9123435
-1.127618 2.2765121 -7.8876519
-1.0060474 2.2297254 -7.8474407
0.99019885 2.2556818 -7.8671494
1.1164521 2.2885096 -7.8965173
1.2562184 2.3258982 -7.9276152
1.4561821 2.3386197 -7.9492569
1.6191298 2.3020968 -7.9084373
1.741316 2.2684462 -7.8885102
-1.5863607 2.4196763 -7.8774385
-1.4432979 2.4359884 -7.8867502
-1.2914395 2.4245665 -7.8825059
-1.1627096 2.4017668 -7.8487272
1.1461837 2.4142444 -7.8702884
1.2850047 2.4415052 -7.8884106
1.4437995 2.4474921 -7.89081
1.5935608 2.4274955 -7.8855605
1.7065475 2.3887076 -7.8592424
1.3375158 2.5619397 -7.8323307
1.4250152 2.5587766 -7.8339386
1.5300214 2.554981 -7.8222322
-1.4067304 0.32643509 -7.8144445
-1.2663493 0.32647535 -7.8038015
-1.172487 0.32627422 -7.8141747
-1.7245739 0.48787445 -7.8003345
-1.5989814 0.45575038 -7.7802849
-1.4397572 0.44556603 -7.7692304
-1.275852 0.44670454 -7.7628369
-1.1182599 0.45337084 -7.7762599
-0.98001748 0.48132208 -7.796814
0.98431653 0.48545507 -7.7926564
1.1196995 0.45882067 -7.7791333
1.2780579 0.45227489 -7.7669506
1.4421209 0.45990145 -7.779552
1.592254 0.47318676 -7.7917871
1.711813 0.49911726 -7.8103824
-1.8815205 0.66211331 -7.8071938
-1.760556 0.61663342 -7.7722139
-1.6111095 0.60499579 -7.7507887
-1.4454595 0.59240854 -7.7379451
-1.2821316 0.58555555 -7.7261004
-1.1069957 0.59116858 -7.7369533
-0.95486343 0.60975504 -7.7703557
-0.82831061 0.64355075 -7.79246
0.84439409 0.64967781 -7.8061628
0.96220571 0.61470854 -7.7727451
1.1098847 0.59882224 -7.7465744
1.2812749 0.58834302 -7.7371206
1.4443554 0.59851682 -7.7441683
1.6092224 0.61122286 -7.7577658
1.7482898 0.62848884 -7.7838635
-1.8953452 0.78898048 -7.7878885
-1.7735496 0.77497196 -7.7525024
-1.6282198 0.75842649 -7.7175808
-1.4590489 0.73383689 -7.6805353
-1.2872169 0.71034318 -7.6693406
-1.0891938 0.73821729 -7.6819463
-0.93341094 0.76354665 -7.7364836
-0.81562543 0.77902865 -7.773097
0.82353431 0.78248656 -7.7850876
0.94286972 0.7679947 -7.7456312
1.0963415 0.74894857 -7.6925001
1.2778063 0.72054863 -7.6790457
1.4552375 0.74057508 -7.6905951
1.6232889 0.76014817 -7.7228804
1.7672422 0.7776621 -7.758316
1.8897554 0.80762815 -7.7977085
-1.9074737 0.94652313 -7.7618871
-1.7905952 0.9354198 -7.732655
-1.6593479 0.89772528 -7.6789451
-1.0580374 0.86567312 -7.6539264
-0.90672565 0.93009561 -7.7179022
-0.81043231 0.94383472 -7.7615204
0.8107177 0.94674867 -7.76408
0.9177295 0.93127131 -7.7230411
1.051564 0.88075978 -7.6629024
1.5062535 0.86886489 -7.6570544
1.6489122 0.90879816 -7.6855502
1.7877004 0.93556678 -7.7370381
1.9000651 0.94993722 -7.7741475
-1.9230824 1.1138626 -7.7487869
-1.8205322 1.0971522 -7.718256
-0.88580471 1.0968757 -7.7063971
-0.80496705 1.1133097 -7.7489934
0.80087608 1.1120298 -7.753046
0.89121395 1.097036 -7.7096753
1.6794584 1.0318371 -7.6598616
1.8121766 1.0992639 -7.719944
1.9140228 1.1127601 -7.7530346
-1.9292617 1.2785935 -7.7442384
-1.8452907 1.2586436 -7.6940618
-0.87267274 1.2820331 -7.7158179
-0.80633783 1.2748237 -7.7454009
0.79698378 1.2746992 -7.7494254
0.87289542 1.2761222 -7.6984644
1.8390867 1.2605257 -7.7069759
1.9239434 1.2785959 -7.7463045
-1.93086 1.4445659 -7.7405601
-1.8617202 1.4473726 -7.68221
-0.88356704 1.4535034 -7.7356429
-0.81654102 1.4365457 -7.73773
0.80305439 1.440057 -7.743012
0.87042809 1.4525857 -7.7383003
1.8570844 1.445781 -7.6997414
1.9273278 1.4452685 -7.7422237
-1.9288882 1.6136458 -7.737524
-1.862379 1.6190029 -7.6819134
-0.90548658 1.6208481 -7.7377372
-0.8298499 1.5967691 -7.7322421
0.81495988 1.6075418 -7.7320099
0.88988441 1.6228318 -7.7374234
1.8589942 1.6185924 -7.7087002
1.9267212 1.6135899 -7.7372627
-1.9223725 1.7730241 -7.7370434
-1.837435 1.8096178 -7.7286191
-1.0326855 1.8253394 -7.7863846
-0.94172353 1.7854979 -7.7344799
-0.84437454 1.7137802 -7.7111268
0.8320533 1.7611359 -7.7281814
0.92330879 1.7892487 -7.7381077
1.8437258 1.8046677 -7.7244854
1.9210151 1.7731774 -7.7377253
-1.8972207 1.9355906 -7.7345028
-1.815358 1.9538914 -7.7373915
-1.0381747 1.9673061 -7.7815108
-0.96046609 1.9538665 -7.7283616
0.84002465 1.9424185 -7.6769729
0.94443309 1.9538687 -7.7398014
1.0248964 1.9959433 -7.8056445
1.8100303 1.9562672 -7.7351193
1.8936503 1.9327945 -7.7340379
-1.8863555 2.0979118 -7.7244864
-1.7902898 2.1279058 -7.7371459
-1.6885297 2.2055025 -7.7852306
-1.0531584 2.14324 -7.7610183
-0.9658885 2.1183457 -7.7247319
0.84308887 2.101537 -7.6867275
0.95325583 2.1251998 -7.731307
1.0364771 2.1537321 -7.7900772
1.697517 2.184453 -7.7861691
1.7900872 2.1279266 -7.7361526
1.8784653 2.085814 -7.7106051
-1.7579029 2.2793355 -7.7287707
-1.646772 2.3195224 -7.7455468
-1.465373 2.3747599 -7.8129802
-1.2337248 2.3495271 -7.7765336
-1.1036713 2.2994659 -7.7376699
-0.98609769 2.2652521 -7.7159624
0.9693256 2.2793596 -7.723299
1.0845248 2.3102965 -7.7480516
1.2108512 2.3640485 -7.8064117
1.6523117 2.3221123 -7.7436314
1.7577771 2.2805567 -7.7285051
-1.7202469 2.4073529 -7.7049718
-1.6035239 2.4468582 -7.7292495
-1.4459034 2.472975 -7.7423573
-1.2777178 2.4570239 -7.7313647
-1.1333313 2.4244211 -7.715035
1.0025157 2.3996344 -7.7018456
1.1249216 2.4418507 -7.7215457
1.2689246 2.476145 -7.741219
1.4512254 2.4932175 -7.7427702
1.6058972 2.4520323 -7.7330465
1.7189562 2.4081199 -7.7138872
-1.5561355 2.5609236 -7.6888161
-1.4415281 2.5716369 -7.7085052
-1.3247695 2.5669279 -7.6943159
1.1767352 2.5581176 -7.667872
1.2953118 2.5778077 -7.712986
1.4409329 2.5876477 -7.7216096
1.5644937 2.5712318 -7.7067165
-1.2417475 0.50957382 -7.6485949
-1.5815471 0.64988846 -7.6340103
-1.4326901 0.63228548 -7.616302
-1.2794931 0.61840808 -7.6104951
-1.1403617 0.63376671 -7.6268549
-1.0182204 0.66585898 -7.6354494
1.1403166 0.63457799 -7.6317124
1.2759788 0.63128233 -7.6173334
1.431561 0.6462636 -7.6279097
1.560972 0.66693729 -7.6409965
-1.738758 0.8061651 -7.6288528
-1.6069527 0.7791788 -7.6001921
-1.4391152 0.78103679 -7.5914254
-1.2780621 0.7736001 -7.5900183
-1.1172744 0.77876276 -7.6068254
-0.97546828 0.80171651 -7.6250858
0.99154967 0.78808039 -7.6288962
1.1215189 0.77994239 -7.6103268
1.280728 0.77647132 -7.5938721
1.4376158 0.78143889 -7.5966101
1.6017112 0.78517419 -7.6117353
1.7253618 0.81649464 -7.637826
-1.8768514 1.00107 -7.6402316
-1.7616141 0.95299649 -7.5986776
-1.61414 0.93727726 -7.5799503
-1.4493687 0.92859334 -7.5586982
-1.2759969 0.93264896 -7.5453973
-1.106374 0.93276495 -7.5675673
-0.9619633 0.94846046 -7.6041555
-0.84550339 1.0060407 -7.6324773
0.96819997 0.94979531 -7.6123304
1.1050407 0.93654042 -7.5822573
1.2763141 0.92925549 -7.5563216
1.4491677 0.93046451 -7.5659976
1.6108959 0.94215798 -7.5866351
1.7502074 0.95680708 -7.61099
-1.8939364 1.1310679 -7.6168766
-1.7732625 1.1116743 -7.5820227
-1.6259236 1.0978523 -7.542943
-1.4534243 1.0933877 -7.5142975
-1.268999 1.0910876 -7.5160804
-1.1028875 1.0955763 -7.5213518
-0.94281435 1.110616 -7.5795631
-0.83117795 1.1270975 -7.6143274
0.83655 1.1285187 -7.6266336
0.9491899 1.1123199 -7.5895681
1.1043094 1.1010054 -7.5339899
1.2736136 1.0929351 -7.5202689
1.4492562 1.0895946 -7.5175982
