# .PCD v0.7 - Point Cloud Data file format
VERSION 0.7
FIELDS x y z
SIZE 4 4 4
TYPE F F F
COUNT 1 1 1
WIDTH 1496
HEIGHT 1
VIEWPOINT 0 0 0 1 0 0 0
POINTS 1496
DATA ascii
-1.3476288 -0.049597956 -9.0941544
-1.1897085 -0.042630196 -9.0933208
1.2001212 -0.028688453 -9.0969992
1.3446565 -0.032679513 -9.0977316
1.4654685 -0.012771726 -9.1023579
-1.8203135 0.16363767 -9.0811529
-1.6941769 0.12547286 -9.088026
-1.5347779 0.089228146 -9.0903521
-1.3594776 0.031858407 -9.083807
-1.1544294 0.077704124 -9.0902891
-1.022145 0.12433914 -9.0821466
-0.89049304 0.1765008 -9.0184097
1.0284574 0.13212785 -9.0798931
1.1639733 0.083813064 -9.0880919
1.356364 0.052053817 -9.0858955
1.5243881 0.10158775 -9.0893946
1.6857727 0.144729 -9.0862265
1.8100228 0.17314096 -9.0654097
-1.8568192 0.28526747 -9.0851822
-1.7254399 0.22874513 -9.0950279
-1.6015481 0.18658079 -9.1150188
-1.0939739 0.19782132 -9.1138401
-0.97813833 0.25158623 -9.0901747
-0.85485363 0.28857407 -9.0819759
0.85118395 0.29284972 -9.0784235
0.98175085 0.25525084 -9.090723
1.1041638 0.20004649 -9.1075287
1.5886731 0.20457484 -9.094409
1.7237961 0.24757802 -9.0939159
1.8539306 0.29103664 -9.084239
-1.9840248 0.44562244 -9.0028448
-1.8752565 0.45142663 -9.0915184
-1.7961017 0.53186142 -9.1701403
-0.91526806 0.44336787 -9.1217184
-0.84259337 0.45159498 -9.0809402
0.83810067 0.45344472 -9.0827436
0.91099548 0.42919838 -9.1370373
1.7935579 0.37346607 -9.1368504
1.8765049 0.45141879 -9.0897455
1.9825317 0.47934663 -9.0051212
-1.8691701 0.62697995 -9.0861893
-1.7903861 0.65446043 -9.1476021
-0.92846119 0.64454097 -9.1164675
-0.84784919 0.62610209 -9.0785036
0.83811027 0.62590259 -9.080761
0.9171285 0.65589482 -9.1407566
1.790464 0.6653229 -9.1490183
1.8743567 0.62851429 -9.0873346
-1.8549925 0.80023891 -9.079957
-1.7653196 0.82527238 -9.1066055
-1.0961255 0.87724859 -9.1643867
-0.96661502 0.81831902 -9.1003695
-0.86079544 0.79570413 -9.0692081
0.85018927 0.79890329 -9.0745182
0.95149207 0.82503408 -9.1069279
1.7713358 0.8283239 -9.1149111
1.8603028 0.80205733 -9.0797424
-1.8308555 0.96304071 -9.0662222
-1.7224045 0.99724734 -9.0950747
-1.5366484 1.052117 -9.1352568
-1.3420628 1.0481699 -9.1335011
-1.1570302 1.0168444 -9.1080723
-1.0033044 0.97982049 -9.0802784
-0.883012 0.94110638 -9.0372009
0.87107193 0.96047193 -9.0501509
0.99423867 0.98813212 -9.0865517
1.1504484 1.0341938 -9.1268845
1.3339605 1.0656668 -9.1594038
1.5501163 1.0691862 -9.1619701
1.7308685 0.99895746 -9.0983534
1.83576 0.96857435 -9.0726337
-1.8106441 1.1060523 -9.0270557
-1.6885659 1.1347319 -9.0687351
-1.5284754 1.1504563 -9.0779324
-1.3516583 1.1526924 -9.0757246
-1.1792164 1.1404858 -9.0670776
-1.0287242 1.1203973 -9.043889
0.89055556 1.0932827 -9.0222502
1.0169792 1.1362069 -9.055685
1.1758993 1.1534281 -9.0736103
1.3499409 1.1671211 -9.0887718
1.5297105 1.1677539 -9.0922661
1.6944301 1.1483467 -9.0761251
1.8124992 1.1130434 -9.0347233
-1.4811022 1.2688684 -9.0119095
-1.3992314 1.2652427 -9.0117655
1.2040608 1.2760776 -9.017313
1.3588988 1.2814047 -9.0312204
1.5224538 1.2809643 -9.0298014
1.6565182 1.2729549 -9.0193644
-1.4815813 -0.019534513 -8.9134731
-1.342651 -0.034186494 -8.9145947
-1.185722 -0.02965083 -8.9084539
-1.0612241 -0.0088895755 -8.8809996
1.1934267 -0.021025551 -8.9070654
1.3438404 -0.021773068 -8.9123135
1.4683125 -0.0067510423 -8.911562
-1.8267283 0.15840982 -8.9044981
-1.6948624 0.12235001 -8.9060125
-1.5383672 0.084360331 -8.9118071
-1.3537594 0.04654425 -8.9059649
-1.15848 0.064109676 -8.9143753
-1.0081965 0.11038381 -8.9041977
-0.87708133 0.15755859 -8.8893547
0.88298428 0.16501331 -8.8762579
1.0094516 0.11889747 -8.9031181
1.1635518 0.076460347 -8.909996
1.3532001 0.063552357 -8.9102001
1.5289075 0.099736251 -8.9104767
1.6932892 0.13484824 -8.9098129
1.814222 0.16784063 -8.8968544
-1.9832873 0.35744178 -8.8436203
-1.8686366 0.28418079 -8.9092569
-1.7365841 0.21827993 -8.9158478
-1.618075 0.1823771 -8.993577
-1.0905317 0.18325639 -8.9946327
-0.96203393 0.23349161 -8.9221144
-0.84143871 0.28411937 -8.9053659
0.83977759 0.28507879 -8.9028006
0.96909726 0.23789737 -8.9213123
1.0889826 0.18774062 -8.986721
1.598641 0.19194911 -8.9292202
1.7223432 0.23498739 -8.9125843
1.8608173 0.28834763 -8.9071341
-1.9924365 0.46874985 -8.8884258
-1.9005483 0.44777992 -8.9131641
-0.90565234 0.36114049 -8.9495468
-0.81285417 0.44842327 -8.9109707
-0.71617907 0.46782309 -8.8379145
0.70612442 0.46609098 -8.8827133
0.80561262 0.44480562 -8.9118509
1.8979698 0.44539788 -8.9130964
1.9892569 0.48330116 -8.8788748
-1.9930028 0.62032521 -8.8779163
-1.9041308 0.63104159 -8.9150076
-0.90705234 0.68406773 -8.9843931
-0.81514424 0.62986356 -8.9114704
0.70528966 0.60486054 -8.8675718
0.80039889 0.63239366 -8.9139576
1.9096105 0.63139647 -8.9156485
1.9918605 0.62467033 -8.8707695
-1.9900458 0.77295333 -8.846034
-1.8865398 0.8106699 -8.909462
-1.7886217 0.86974192 -8.977396
-0.9232434 0.84319764 -8.9495783
-0.83677465 0.80820578 -8.9052372
0.71523422 0.77267361 -8.8497629
0.82062531 0.81050903 -8.9089718
0.91209048 0.86959392 -8.9715395
1.7885616 0.88326168 -8.980092
1.8943168 0.81130767 -8.9123316
1.9876093 0.77350354 -8.8464737
-1.8578379 0.98100036 -8.9001427
-1.7660829 1.0063852 -8.9256697
-1.1033362 1.0692981 -8.9857492
-0.95801824 1.0034332 -8.9280958
-0.85486925 0.97481799 -8.8953953
0.84378964 0.97996789 -8.8962698
0.93866158 1.0100979 -8.9361105
1.7699023 1.0136695 -8.9311981
1.8661849 0.98110819 -8.9012032
-1.831293 1.1365787 -8.8844652
-1.7122027 1.1722562 -8.9099455
-1.5342084 1.2045976 -8.9276667
-1.3469344 1.2068939 -8.9287825
-1.1664258 1.1886677 -8.9233084
-1.0016931 1.1602174 -8.9003515
-0.875269 1.1302054 -8.868434
0.86282301 1.1476237 -8.8787804
0.9923563 1.168713 -8.9086342
1.160462 1.206156 -8.9363861
1.3440385 1.2237064 -8.9455357
1.53536 1.2218612 -8.9452238
1.7202134 1.1795771 -8.9149914
1.832983 1.1445625 -8.8907461
-1.8033967 1.2639449 -8.8396339
-1.6828885 1.2997134 -8.8731365
-1.5249175 1.3095688 -8.8864231
-1.3498195 1.3116531 -8.8875408
-1.1786021 1.3063914 -8.8794575
-1.0298034 1.290164 -8.8557243
0.89139926 1.2756964 -8.8375502
1.0186805 1.3048596 -8.874053
1.1766766 1.3201709 -8.8875694
1.3516943 1.3269433 -8.8931389
1.5274751 1.3264507 -8.8926315
1.6875697 1.3134304 -8.8853083
1.809451 1.2786982 -8.8457241
1.391528 1.449217 -8.826663
1.4629343 1.4445219 -8.820385
-1.486595 -0.017134871 -8.7339258
-1.3449572 -0.031333089 -8.734499
-1.1792841 -0.031660963 -8.7328844
-1.0572335 -0.010919981 -8.7307596
1.0674365 -0.0053808391 -8.7156944
1.1883736 -0.020800428 -8.7321138
1.3408571 -0.020651776 -8.7315512
1.464053 -0.0054197512 -8.7405624
-1.8277817 0.15394464 -8.7290173
-1.6929165 0.11942952 -8.7297153
-1.5364211 0.079190925 -8.7295246
-1.3563076 0.0486077 -8.7293196
-1.1623033 0.053167194 -8.7295914
-0.99988472 0.10081965 -8.729002
-0.869124 0.14785755 -8.7270918
0.87425178 0.1560978 -8.7278624
1.0044903 0.11280753 -8.7306299
1.1644922 0.070260145 -8.7280178
1.3540136 0.0652759 -8.7311049
1.5309078 0.099611223 -8.7302084
1.6979246 0.13063513 -8.7303295
1.8183379 0.16773991 -8.7336483
-1.9842788 0.35389712 -8.7452364
-1.8722304 0.28198001 -8.7305155
-1.7508004 0.21648978 -8.7298336
-0.93996614 0.21582823 -8.7383909
-0.82910544 0.27852541 -8.7290411
-0.71727562 0.35213315 -8.6622305
0.71473759 0.34195518 -8.6976891
0.82908869 0.27871045 -8.7291784
0.94589865 0.22427005 -8.7335148
1.6018816 0.18547246 -8.7606277
1.7225332 0.22687565 -8.7308416
1.8645626 0.28728199 -8.7295446
-1.999684 0.46544662 -8.7276354
-1.911581 0.44762206 -8.7308645
-0.79563451 0.44262764 -8.7320566
-0.71086764 0.46362484 -8.722188
0.70179397 0.45640358 -8.7334242
0.7899909 0.44435009 -8.7303457
1.9075161 0.44535619 -8.7292843
1.9963541 0.47040638 -8.7310934
-2.0073524 0.63082802 -8.7231092
-1.9272658 0.6286968 -8.7322626
-0.78781146 0.63319618 -8.7332382
-0.71339262 0.61400515 -8.6944084
0.69937426 0.62134266 -8.7155066
0.77634573 0.63426387 -8.735158
1.9272549 0.6291517 -8.7334394
2.0055745 0.63133734 -8.7266903
-2.0042186 0.79855996 -8.7124615
-1.9210128 0.81167823 -8.7340517
-0.80153799 0.81191278 -8.7330093
-0.71781099 0.78606963 -8.6562061
0.7073288 0.79959542 -8.7105789
0.78566509 0.81211209 -8.7310429
1.9240971 0.81133401 -8.7349672
2.0030463 0.80295938 -8.7178946
-1.9939141 0.94234002 -8.6870308
-1.8880982 0.98946679 -8.7293568
-1.7852418 1.0519027 -8.7833099
-0.91456133 1.023526 -8.7845154
-0.82630622 0.98808175 -8.7246523
0.7062763 0.96451795 -8.6968079
0.81040752 0.99128693 -8.7326231
0.90340418 1.0532352 -8.8095121
1.790709 1.055173 -8.7899303
1.8967308 0.99466985 -8.7330732
1.9930168 0.95093858 -8.6957207
-1.8523659 1.1553758 -8.7187252
-1.7516656 1.1854781 -8.742981
-1.5662909 1.2513279 -8.8083038
-1.3232131 1.2554944 -8.812336
-1.1194427 1.2443422 -8.7986927
-0.96318305 1.1920068 -8.7526751
-0.84961504 1.1564856 -8.7160378
0.71169758 1.0890989 -8.6491289
0.83765495 1.1612636 -8.7190638
0.94835621 1.2066847 -8.7693291
1.1080987 1.2599962 -8.8176117
1.7621403 1.1884328 -8.7444868
1.8608963 1.1581913 -8.7181139
-1.8231072 1.3059984 -8.6966515
-1.7049598 1.3402826 -8.7232265
-1.5323148 1.3605741 -8.7420073
-1.3477565 1.3620239 -8.7399454
-1.1688393 1.3548734 -8.7353268
-1.0007924 1.3348426 -8.7161846
-0.86716175 1.3042768 -8.6872759
0.85705864 1.3213001 -8.7035894
0.99307823 1.3448137 -8.7253866
1.1664487 1.3722215 -8.7451448
1.3452954 1.3830271 -8.7475357
1.5355462 1.3814579 -8.7486696
1.7109731 1.348673 -8.7289591
1.8249599 1.3119234 -8.7031212
-1.6783051 1.4698786 -8.676713
-1.526186 1.4821055 -8.6889009
-1.3552914 1.4794649 -8.6869612
-1.1737714 1.4738071 -8.6810465
-1.0349826 1.4667089 -8.6673632
0.88704681 1.4543134 -8.653265
1.0161641 1.4797149 -8.6860075
1.174597 1.4859706 -8.6997623
1.3570653 1.4947492 -8.7031412
1.527652 1.4980748 -8.7053957
1.6862223 1.4829258 -8.6927595
1.4362607 1.628834 -8.6450996
-1.4890308 -0.013152611 -8.561388
-1.344975 -0.027000653 -8.5619631
-1.1901212 -0.025005499 -8.5657978
-1.0626752 -0.0043240339 -8.5861301
1.2035311 -0.016727393 -8.571517
1.3326919 -0.012613852 -8.5733891
1.4534051 -0.00012993813 -8.5980959
-1.8256301 0.15926662 -8.5624456
-1.6932824 0.12392003 -8.5541105
-1.5338527 0.083459467 -8.5493031
-1.3519162 0.058604646 -8.5462036
-1.1628175 0.067158528 -8.5456839
-1.0016009 0.10837365 -8.5530338
-0.87048835 0.15022726 -8.5602303
0.87348402 0.15841506 -8.5652018
1.0068082 0.12204808 -8.5552959
1.1672121 0.08839532 -8.5488358
1.3542235 0.079654671 -8.5479136
1.5285109 0.10736354 -8.55198
1.6925725 0.13389897 -8.5540571
1.8115734 0.16962907 -8.6039286
-1.9828565 0.35769206 -8.5478363
-1.8679042 0.28606406 -8.5525866
-1.7423987 0.22361428 -8.5426798
-0.9424935 0.21677586 -8.5428696
-0.8261888 0.27785936 -8.5521946
-0.71356404 0.35506466 -8.5433235
0.71374035 0.34602141 -8.5716639
0.83100098 0.2820138 -8.5516796
0.95591515 0.22382323 -8.5448809
1.6038386 0.18977585 -8.5214071
1.7239779 0.2373118 -8.5443192
1.8581976 0.29084972 -8.5545778
-2.0026314 0.47206295 -8.5482111
-1.9120053 0.4443984 -8.5496635
-0.79110146 0.44694355 -8.5510674
-0.70692438 0.45719263 -8.545393
0.6957047 0.46108019 -8.5520859
0.78660518 0.44588035 -8.5511627
1.9045323 0.44487491 -8.5496073
1.9999491 0.47900856 -8.5514526
-2.0140328 0.63372445 -8.5483532
-1.9361808 0.62724268 -8.5510721
-0.77850133 0.62923759 -8.5521355
-0.70242757 0.62929571 -8.5435648
0.69239366 0.63612938 -8.5448637
0.76724643 0.62591696 -8.5524683
1.9343438 0.62482107 -8.5500088
2.0119579 0.63735771 -8.5490532
-2.0182033 0.80955666 -8.5484285
-1.9421402 0.80835837 -8.554472
-0.78260636 0.81028891 -8.5514917
-0.70981091 0.80555594 -8.5411749
0.69846773 0.80893272 -8.5420723
0.76868945 0.81108892 -8.5514278
1.9397614 0.8092382 -8.5553036
2.0169933 0.80997115 -8.5504045
-2.0088069 0.97960126 -8.534523
-1.9212489 0.99581492 -8.5565042
-0.79166055 0.99387902 -8.5551739
-0.71035737 0.9748888 -8.5132399
0.70026642 0.9831472 -8.5403099
0.7762773 0.99357539 -8.5551357
1.926062 0.99624318 -8.5573168
2.0101919 0.98104548 -8.5408831
-1.9955577 1.1237786 -8.5050869
-1.8854604 1.1684575 -8.5464191
-1.7781724 1.215965 -8.5862694
-0.91533494 1.2273831 -8.6162682
-0.82262915 1.1683086 -8.549202
-0.71881175 1.1178981 -8.5008326
0.70425016 1.1356031 -8.5179386
0.80287439 1.1723347 -8.554348
0.90306318 1.2599714 -8.6298618
1.7802161 1.2253424 -8.6014128
1.8932509 1.1722007 -8.5520868
1.9950367 1.1309881 -8.5054464
-1.8458699 1.3314528 -8.5345135
-1.7400246 1.3604696 -8.563015
-1.5515715 1.4174984 -8.6135263
-1.3310844 1.4146141 -8.6070395
-1.1654497 1.4170959 -8.6064501
-0.96806508 1.3719276 -8.5703878
-0.84930611 1.3368298 -8.536478
0.71906292 1.274798 -8.4926825
0.83597869 1.341361 -8.5415764
0.95343626 1.3895861 -8.5871372
1.177614 1.4300393 -8.6255856
1.2942326 1.4291786 -8.6214933
1.5718659 1.4301298 -8.6318684
1.7486401 1.362933 -8.5620575
1.8543937 1.3352104 -8.5357132
1.98181 1.2653461 -8.4723082
-1.8202631 1.4815757 -8.5067635
-1.700488 1.5154064 -8.5363131
-1.5327932 1.5341916 -8.5553141
-1.3499862 1.5293416 -8.5491676
-1.1699914 1.5220454 -8.5431976
-1.0015496 1.5102475 -8.5325289
-0.87240547 1.4784374 -8.5064211
0.86012173 1.4970075 -8.5235672
0.99520379 1.5211622 -8.5436621
1.1718483 1.5341614 -8.5563555
1.3446304 1.5435994 -8.5626478
1.53444 1.5459306 -8.5687361
1.7044522 1.5239275 -8.5457697
1.8181785 1.4864769 -8.5102434
-1.6695876 1.6460699 -8.4835987
-1.5243268 1.6762395 -8.5059948
-1.3667053 1.672114 -8.4997807
-1.1785296 1.6381966 -8.482851
-1.0372502 1.6360939 -8.4794922
0.89700973 1.6224484 -8.465662
1.0160182 1.6486272 -8.4984989
1.1782697 1.6560165 -8.5003986
1.3630784 1.6836712 -8.5154476
1.5263425 1.6833278 -8.5198898
1.6820287 1.6579573 -8.5005713
1.4041678 1.8163718 -8.4701986
1.4926833 1.8122011 -8.4733038
-1.4751595 -0.0083703995 -8.4283409
-1.3382837 -0.015099758 -8.4116688
-1.2192965 -0.01191153 -8.4124441
1.239033 -0.0036498308 -8.4305935
1.3498571 -0.0053094625 -8.447402
-1.8171505 0.16703442 -8.4211035
-1.6864069 0.13180365 -8.3807182
-1.5272764 0.10777838 -8.3727283
-1.3512131 0.090860359 -8.3674059
-1.169868 0.099734649 -8.3717337
-1.0063891 0.12711763 -8.380847
-0.87918311 0.16629399 -8.4077482
0.87996668 0.16026253 -8.4115334
1.0083339 0.13664894 -8.3852463
1.1762449 0.11877743 -8.3799906
1.3497444 0.11402579 -8.3750839
1.5214812 0.12407614 -8.3805208
1.6757892 0.14536057 -8.387105
-1.8582693 0.29407242 -8.3803053
-1.7277327 0.25007078 -8.3650942
-1.5925566 0.19324797 -8.3147173
-1.1081614 0.19035582 -8.3074818
-0.97230548 0.23070094 -8.3596954
-0.8364051 0.28520545 -8.3756227
-0.7159273 0.35637313 -8.418745
0.71772593 0.35713848 -8.4151545
0.84214801 0.29067573 -8.3805504
0.98047715 0.24239853 -8.3635855
1.1404952 0.19804949 -8.3308525
1.3527169 0.18877861 -8.3014421
1.5550886 0.20385677 -8.3429298
1.7190232 0.26130605 -8.3684721
1.8509972 0.30424419 -8.3820601
-2.0024421 0.48339102 -8.3773222
-1.8992324 0.44367519 -8.3680811
-1.7974011 0.3675499 -8.3013134
-0.79375708 0.44275382 -8.3679609
-0.70288581 0.46567017 -8.3791142
0.6966778 0.4696402 -8.3807249
0.79687059 0.44173002 -8.368227
0.90142852 0.36163688 -8.2870378
1.7834408 0.3781043 -8.3294125
1.8909693 0.44642821 -8.3707848
1.9989864 0.49850106 -8.3821249
-2.0170598 0.63671464 -8.3704519
-1.937845 0.62663335 -8.3673449
-0.77165329 0.62688035 -8.3737679
-0.69591081 0.6324535 -8.3700562
0.69061714 0.63542962 -8.371067
0.76492405 0.62827259 -8.3701067
1.9332906 0.62239933 -8.3660803
2.0138872 0.6408115 -8.3721771
-2.027745 0.8127619 -8.369154
-1.9534318 0.80847234 -8.3728991
-0.77078724 0.81082171 -8.3737364
-0.69959366 0.80937111 -8.3604298
0.69178677 0.81043261 -8.3661337
0.76031536 0.81186914 -8.3718138
1.9516497 0.80920357 -8.3684149
2.0263057 0.8094703 -8.3699169
-2.0235853 0.98726439 -8.3679886
-1.9477142 0.99410814 -8.373271
-0.77264559 0.99097764 -8.3708334
-0.69945681 0.97952789 -8.3670082
0.6915012 0.98265457 -8.3668175
0.76107889 0.99155807 -8.3721256
1.9503182 0.99017996 -8.369422
2.0259383 0.98821545 -8.3715439
-2.0097127 1.154637 -8.3572884
-1.92012 1.1761817 -8.3773136
-0.79389608 1.1734872 -8.3733988
-0.7107563 1.1390253 -8.3500099
0.69741106 1.1593987 -8.3650808
0.77718383 1.1770692 -8.3731308
1.9272326 1.1757503 -8.3775997
2.0113184 1.1586761 -8.3605461
-1.995325 1.3004267 -8.3265848
-1.8810128 1.3454274 -8.367259
-1.7729177 1.3822994 -8.3976612
-0.91870034 1.4091372 -8.4201393
-0.83082241 1.3484169 -8.3683691
0.71117824 1.3020681 -8.3587255
0.80868775 1.3524143 -8.3720045
0.90891385 1.4261373 -8.458952
1.7731659 1.3961405 -8.4066429
1.8896854 1.3509175 -8.3707771
1.9961274 1.3043344 -8.3375807
-1.8425974 1.5104967 -8.3532887
-1.7343779 1.5421559 -8.3808031
-1.5659066 1.5883216 -8.4303303
-1.325563 1.5844421 -8.4288912
-1.1682509 1.5772821 -8.4072151
-0.97493416 1.5491241 -8.3809204
-0.85409141 1.5126934 -8.3575802
0.84237921 1.5169407 -8.3628435
0.96116346 1.5640552 -8.397541
1.1659577 1.5911885 -8.4269028
1.2975045 1.5997236 -8.444315
1.5769882 1.6006955 -8.4426861
1.7419987 1.5424114 -8.3816156
1.8483815 1.5149609 -8.3550014
-1.8188918 1.6581825 -8.327713
-1.6953598 1.6980182 -8.3554382
-1.5381962 1.7177064 -8.3835926
-1.3468567 1.7147467 -8.374897
-1.1733959 1.6921228 -8.3555498
-1.0066499 1.6738749 -8.3478746
-0.8785978 1.6499985 -8.3168755
0.86349958 1.6631775 -8.3372116
1.0012869 1.6883564 -8.3547621
1.1711903 1.7059182 -8.3665791
1.3401619 1.7269033 -8.3927736
1.5430825 1.7256241 -8.3929005
1.7019629 1.7036742 -8.3631201
1.8180691 1.6644243 -8.3310785
-1.6560203 1.8549826 -8.3161716
-1.5243422 1.8709534 -8.3416195
-1.3658842 1.8701707 -8.3324528
-1.2224996 1.8331035 -8.3056221
1.0467305 1.8105731 -8.2944679
1.200799 1.8533369 -8.3189077
1.3597574 1.8753113 -8.3463898
1.5237865 1.8770101 -8.3528957
1.6628984 1.8570019 -8.3247623
-1.5105926 2.0029597 -8.2972212
-1.3924522 2.0036299 -8.2948465
1.2491915 2.004462 -8.2894258
1.3716438 2.0262454 -8.306468
1.5121465 2.0203743 -8.3072596
1.6356311 1.9961542 -8.2855806
-1.6662683 0.15017965 -8.2186966
-1.5215688 0.13153106 -8.2085781
-1.3494719 0.1253821 -8.20926
-1.178652 0.12909193 -8.208149
-1.025528 0.15095779 -8.2221193
1.0337598 0.15269665 -8.2288742
1.1784178 0.13779758 -8.2099781
1.3488322 0.137742 -8.2070227
1.5181271 0.14506789 -8.2138758
1.6512994 0.16091217 -8.2399921
-1.8477763 0.31443882 -8.2087145
-1.708805 0.27789778 -8.1946735
-1.5388687 0.22718172 -8.1761179
-1.3540813 0.21211731 -8.1607161
-1.1579658 0.22161058 -8.1714344
-0.98706585 0.2660723 -8.1879597
-0.85051525 0.30619997 -8.2066717
0.8538177 0.31081802 -8.2114897
0.99522066 0.27980134 -8.194087
1.1644222 0.23905027 -8.1822872
1.3533484 0.22959365 -8.1794729
1.5350995 0.24815872 -8.1828547
1.6983539 0.28772488 -8.1985197
1.8339814 0.32705709 -8.2212515
-1.9965247 0.50364727 -8.2149496
-1.8808725 0.45543781 -8.1924238
-1.7633238 0.39334375 -8.1595821
-0.92452222 0.38277483 -8.1409721
-0.81344944 0.44529486 -8.1881132
-0.70631993 0.48646948 -8.2144489
0.70274478 0.48677537 -8.2131557
0.81870866 0.44920579 -8.192028
0.93757921 0.38811082 -8.153595
1.7485834 0.40739906 -8.1671667
1.8739543 0.46079564 -8.1945887
1.9926472 0.51686281 -8.2309723
-2.0131943 0.64296317 -8.198699
-1.9266264 0.6245212 -8.1853342
-0.77396739 0.62691748 -8.1877451
-0.69486022 0.6333304 -8.1984406
0.6890803 0.63318694 -8.197258
0.77275282 0.62544113 -8.1867113
1.9192605 0.62281138 -8.1866159
2.0084944 0.64519066 -8.2007446
-2.0251675 0.8135131 -8.1928205
-1.9479955 0.80692321 -8.1887178
-0.76769036 0.81572175 -8.192194
-0.69731945 0.81100708 -8.1866035
0.68646044 0.81297833 -8.1921501
0.75747699 0.80770761 -8.192461
1.9439435 0.80743855 -8.1853876
2.0214796 0.81383669 -8.1943941
-2.0283122 0.98842609 -8.1932564
-1.9547505 0.99297404 -8.1878681
-0.76844984 0.98889202 -8.1909971
-0.69884324 0.98008281 -8.1925201
0.69020355 0.98661852 -8.191391
0.75829959 0.99122536 -8.1887703
1.9526079 0.98914206 -8.1868601
2.0263946 0.98842698 -8.1930008
-2.0200124 1.1649436 -8.1899185
-1.9430925 1.1739765 -8.1898279
-0.78049856 1.1734703 -8.1945038
-0.70522797 1.1529688 -8.1860056
0.69292194 1.1662502 -8.1915836
0.76686364 1.1723452 -8.1907406
1.9426347 1.1726185 -8.1914978
2.0186594 1.1664617 -8.1901817
-2.0070996 1.3311601 -8.1789389
-1.9152673 1.357396 -8.1978331
-1.7901957 1.4269462 -8.2787724
-0.90445405 1.4255353 -8.1678896
-0.81449085 1.3515191 -8.1909781
-0.71667415 1.2638285 -8.1383142
0.70371807 1.3155103 -8.1893644
0.79471111 1.3523057 -8.1921692
1.9227461 1.3568214 -8.1936646
2.0057881 1.3351598 -8.1847906
-1.9939317 1.4784189 -8.1388884
-1.8766891 1.5265059 -8.1858501
-1.7738811 1.5583409 -8.2136021
-0.9236002 1.5684053 -8.2034998
-0.85114926 1.5202672 -8.187355
0.83519107 1.5285885 -8.1892643
0.91025043 1.6041536 -8.2343884
1.7733914 1.5668029 -8.2231569
1.8851746 1.5286602 -8.1897488
1.9908942 1.4803737 -8.1441231
-1.8406638 1.6841186 -8.1692162
-1.72772 1.7233956 -8.1966658
-1.6026844 1.7711837 -8.2600842
-1.2991751 1.7730507 -8.2555952
-1.1568285 1.7413007 -8.2145472
-0.99123365 1.7097131 -8.1932249
-0.86555821 1.6747026 -8.1809797
0.8547079 1.6939534 -8.1809635
0.98049742 1.7242216 -8.197093
1.1455218 1.760864 -8.2318192
1.2803929 1.7909145 -8.2695827
1.6015413 1.778125 -8.2672434
1.7350929 1.7265109 -8.1970663
1.8482364 1.6868918 -8.1726055
-1.8070015 1.8294631 -8.1209459
-1.6966389 1.8818659 -8.1771479
-1.5443728 1.9126344 -8.2279472
-1.3384503 1.9021142 -8.2170534
-1.1808134 1.8762956 -8.1758919
-1.0326203 1.8287346 -8.1496296
0.89109039 1.8100024 -8.1438055
1.0199956 1.8487781 -8.167346
1.1728806 1.8867525 -8.186141
1.3278556 1.9135154 -8.2397146
1.5566992 1.9162393 -8.2339859
1.6986603 1.8825041 -8.1804562
1.8107572 1.8195599 -8.1365128
-1.6741931 2.0490525 -8.1552277
-1.528342 2.062952 -8.1803169
-1.3541728 2.0640409 -8.1784315
-1.2037637 2.0515354 -8.1483021
1.0661646 2.0230973 -8.1152678
1.1920527 2.059196 -8.1587696
1.3487531 2.0743351 -8.1896639
1.5302194 2.0702202 -8.1877441
1.6742786 2.0531356 -8.1602983
-1.6473693 2.1819236 -8.1181087
-1.5177449 2.2072997 -8.1388569
-1.363098 2.2095568 -8.1380949
-1.2329408 2.1901865 -8.1199799
1.2113351 2.211988 -8.1333752
1.3568251 2.2281382 -8.1521626
1.5181036 2.2218297 -8.1492634
1.6460848 2.1930556 -8.127326
1.3677944 2.3414252 -8.1065283
-1.6317416 0.17355855 -8.0837021
-1.5127934 0.15583946 -8.066184
-1.348758 0.15388787 -8.0544806
-1.1891391 0.15459551 -8.0590954
-1.0494856 0.17542583 -8.0786591
1.199294 0.16292772 -8.0728664
1.3403981 0.16545239 -8.0718632
1.4875438 0.17279749 -8.0800982
-1.8261821 0.33826464 -8.0579128
-1.689015 0.30409878 -8.0347214
-1.5276591 0.28566989 -8.0202637
-1.3522569 0.2746959 -8.0112724
-1.1711543 0.27922133 -8.0150061
-1.0077136 0.30340344 -8.0316916
-0.87520641 0.33434519 -8.0549917
0.87504071 0.33758262 -8.065732
1.0118902 0.30833828 -8.0362768
1.1744258 0.29266271 -8.0257301
1.3510005 0.28918219 -8.02246
1.5237494 0.29717246 -8.0303602
1.679026 0.31499353 -8.0421696
1.8042703 0.34684408 -8.0876904
-1.9842596 0.52692562 -8.0845394
-1.8608158 0.47297791 -8.0296211
-1.7218825 0.43964902 -8.0021706
-1.5506531 0.39265954 -7.9583759
-1.3641756 0.37759122 -7.9402986
-1.1479539 0.3823992 -7.9488206
-0.97270739 0.42155498 -7.991179
-0.83649409 0.46513158 -8.0252838
-0.71391433 0.51976883 -8.0846758
0.84125322 0.47048879 -8.0303497
0.98220825 0.43242687 -8.0021019
1.1582861 0.39588174 -7.9661098
1.3576462 0.39208221 -7.9601908
1.5411805 0.40546098 -7.9784751
1.7133046 0.44636607 -8.0094471
1.8497952 0.48148224 -8.0358772
-1.9990021 0.65782553 -8.0519695
-1.8880572 0.63133067 -8.0081406
-1.7716151 0.57887822 -7.945652
-0.91641116 0.55825251 -7.933609
-0.80344319 0.62610257 -8.0051384
-0.70337874 0.64595032 -8.0410576
0.70032424 0.64796644 -8.0520744
0.81008941 0.62729174 -8.0096426
0.92290932 0.56546175 -7.9445229
1.7596409 0.58755571 -7.958684
1.8822453 0.63264561 -8.0137091
1.9962242 0.66626036 -8.0620127
-2.0074139 0.81827474 -8.0273495
-1.9170721 0.8068251 -8.0035391
-0.77798367 0.80786365 -8.0069952
-0.69514179 0.81187278 -8.0218658
0.69005466 0.81473202 -8.0216799
0.77803141 0.80586857 -8.0049801
1.9124786 0.8054828 -8.0030622
2.0048294 0.81979293 -8.0351973
-2.0158038 0.99322021 -8.0179548
-1.9327347 0.98796546 -8.0056629
-0.77433407 0.99302113 -8.0099421
-0.70053399 0.98986709 -8.0252638
0.69120508 0.98783308 -8.0204372
0.76708674 0.99002653 -8.0092916
1.9287496 0.98981816 -8.0038424
2.0107555 0.99323845 -8.0242968
-2.0166669 1.1684583 -8.0141706
-1.9378159 1.171816 -8.0057697
-0.78407401 1.1718224 -8.0119648
-0.70622534 1.1413448 -8.0243301
0.69231224 1.1581886 -8.0207186
0.77263665 1.1722496 -8.0110025
1.9359212 1.1681876 -8.0046654
2.0128241 1.1688489 -8.018014
-2.0096004 1.3443305 -8.0129204
-1.9321975 1.352185 -8.0108576
-0.90250379 1.4279284 -8.0010834
-0.81608784 1.350752 -8.0086393
-0.7159608 1.2614055 -8.0773668
0.70808166 1.3125756 -8.0234995
0.79977947 1.3549685 -8.0085659
1.9311311 1.3537868 -8.0042181
2.0074728 1.3401793 -8.0131197
-2.005466 1.5146313 -8.0000582
-1.9131197 1.5348861 -8.014493
-1.7885414 1.61542 -8.0849485
-0.92163908 1.5548717 -8.0053234
-0.85312349 1.5218782 -8.0109673
0.83752376 1.5233381 -8.0108309
0.91017044 1.5855314 -8.0071011
1.9171678 1.53299 -8.0113049
1.999958 1.5171623 -8.0060387
-1.9985924 1.6614751 -7.9621501
-1.8761507 1.7058934 -8.0057755
-1.7598914 1.7372895 -8.0347013
-1.1033682 1.7811558 -8.0573578
-0.97475123 1.7269521 -8.0110321
-0.8753286 1.6807266 -8.0133629
0.85869485 1.6958784 -8.0114002
0.95631295 1.7299716 -8.0130529
1.7599784 1.748662 -8.0425968
1.8829229 1.7091606 -8.0095901
1.9906819 1.6621794 -7.9644232
-1.8383178 1.87301 -7.9829655
-1.7380021 1.89288 -8.0199022
-1.2635398 1.9730964 -8.0869617
-1.1365792 1.8998309 -8.0274963
-1.0234338 1.869997 -8.0007954
0.88483655 1.8193729 -7.9918547
1.0094138 1.8762741 -8.0029011
1.1182517 1.9137394 -8.0420885
1.735536 1.8948328 -8.0208569
1.8441046 1.8689183 -7.9851851
-1.822937 2.0433347 -7.9648595
-1.7099204 2.0711696 -8.0096159
-1.5585787 2.1145236 -8.0680285
-1.3224965 2.1167097 -8.071599
-1.1647766 2.0740764 -8.0157328
-1.0474818 2.0567877 -7.972887
1.0341619 2.0622642 -7.9868331
1.1479962 2.0796449 -8.0252943
1.3022922 2.1406784 -8.086483
1.5805271 2.1159616 -8.0715256
1.7120305 2.0731258 -8.0118332
1.8162044 2.0446808 -7.9614649
-1.8155178 2.162276 -7.9265404
-1.6823446 2.2273462 -7.9882383
-1.5320444 2.2522991 -8.010437
-1.3486384 2.2585657 -8.0162849
-1.1903999 2.2348778 -7.9906788
-1.0602876 2.2027304 -7.9470582
1.0450953 2.2213151 -7.9646072
1.1798891 2.2444749 -8.000843
1.3441999 2.2664385 -8.036355
1.5361395 2.2596385 -8.0196476
1.6842772 2.2323487 -7.9912915
1.8072088 2.1737049 -7.932344
-1.6468282 2.3635945 -7.9489775
-1.5163256 2.3850822 -7.9690194
-1.3565309 2.3852873 -7.9728394
-1.2249088 2.3662164 -7.9536147
1.2055079 2.3794906 -7.9686956
1.3551599 2.3965051 -7.9848399
1.5122263 2.393945 -7.9808159
1.6515899 2.3724313 -7.9531102
-1.6602124 0.33585152 -7.8955779
-1.5204624 0.32061589 -7.8757825
-1.3484373 0.31180486 -7.8672786
-1.1829714 0.31654638 -7.8695555
-1.0417531 0.33468485 -7.8854213
1.0490452 0.33705941 -7.901001
1.1831839 0.32516932 -7.878613
1.3435199 0.32342529 -7.8794475
1.5124133 0.33501738 -7.8877883
1.6407471 0.35001174 -7.9091992
-1.8304068 0.49910393 -7.8856964
-1.6911201 0.47220603 -7.8572092
-1.5284802 0.45606449 -7.8410201
-1.3537778 0.44654489 -7.8319073
-1.1707988 0.44660205 -7.8311205
-1.0048778 0.46791145 -7.8564744
-0.86360109 0.49289918 -7.8879104
0.86898005 0.49725339 -7.8882823
1.0092545 0.47299093 -7.8598208
1.1733822 0.4569459 -7.8426561
1.3529201 0.45544809 -7.8412519
1.5278347 0.46624407 -7.8504395
1.6854454 0.4829945 -7.8676577
1.8253617 0.51546592 -7.8992248
-1.855479 0.65070689 -7.8606029
-1.7155499 0.62845922 -7.8297887
-1.5453877 0.60357505 -7.7808394
-1.3643764 0.57974088 -7.766408
-1.1558902 0.57143402 -7.7672558
-0.97377825 0.61190432 -7.8058462
-0.84461284 0.64093447 -7.8587251
0.84807712 0.64645016 -7.8641877
0.98218465 0.61978734 -7.820406
1.1565274 0.58684438 -7.7794166
1.3592567 0.58886582 -7.7749972
1.5408376 0.61009866 -7.7931933
1.7098418 0.63272291 -7.8354435
1.8464541 0.6550476 -7.868495
-1.9871365 0.84788829 -7.8942652
-1.8729845 0.81568909 -7.8458447
-1.7416643 0.79443282 -7.7863941
-1.6127393 0.73853457 -7.745656
-0.92702305 0.77446264 -7.7735872
-0.82889694 0.81308776 -7.8369908
-0.71166998 0.85307837 -7.8854561
0.7090345 0.86732858 -7.8882065
0.82885277 0.81309229 -7.8431678
0.93865794 0.78693211 -7.7785759
1.5931295 0.74908215 -7.7508092
1.7357152 0.79387575 -7.7963223
1.8646241 0.81820357 -7.8499374
1.9849275 0.88353527 -7.9087691
-1.9944371 1.0016276 -7.8780808
-1.8896278 0.99079096 -7.8298573
-1.7817755 0.94464391 -7.7611356
-0.91257828 0.95054722 -7.7548881
-0.80838823 0.99017 -7.827208
-0.70651287 0.99697262 -7.8690977
0.70172065 1.0085388 -7.8748174
0.81266224 0.99271315 -7.8278542
0.9139927 0.95468873 -7.755815
1.7737695 0.95680118 -7.7676105
1.8826369 0.99214393 -7.8316212
1.9916562 1.0061995 -7.8911824
-2.0040669 1.1775624 -7.8508358
-1.9098399 1.168153 -7.8226199
-0.80261564 1.1722592 -7.8324442
-0.71389014 1.1546801 -7.8589072
0.69979376 1.1700938 -7.8500514
0.79550105 1.1679715 -7.8314538
1.7951262 1.0851908 -7.7436981
1.9049456 1.1692792 -7.8236108
1.9996221 1.1761836 -7.8612375
-2.004195 1.3509864 -7.8374019
-1.922574 1.3528376 -7.829432
-0.90651238 1.4075806 -7.834866
-0.82994008 1.3531859 -7.8316631
0.71173632 1.3051106 -7.8490305
0.80973792 1.3560412 -7.8332882
1.9201721 1.3512996 -7.8266397
2.0028281 1.3468981 -7.8414197
-2.0034444 1.5282499 -7.8313932
-1.9208418 1.5295296 -7.829843
-0.92059124 1.5540986 -7.833014
-0.85408366 1.5201956 -7.8315473
0.84252572 1.5243449 -7.8313885
0.90767044 1.5893103 -7.8382936
1.9164522 1.5292559 -7.825151
1.9987761 1.526462 -7.837009
-1.9976728 1.6954556 -7.8239679
-1.9035723 1.7140712 -7.833518
-1.7855184 1.7867228 -7.9076395
-0.95968616 1.7247962 -7.8351426
-0.87385201 1.6867411 -7.8265247
0.85727423 1.6969327 -7.8268442
0.93647695 1.7248605 -7.8347306
1.9068381 1.7118431 -7.8286104
1.9932573 1.6930674 -7.8319993
-1.9837074 1.8153334 -7.7993822
-1.8644615 1.8798413 -7.8230247
-1.7771659 1.907162 -7.8428454
-1.0915996 1.9076828 -7.8997536
-0.99510038 1.8886082 -7.8310981
-0.89236408 1.834025 -7.7825956
0.8790502 1.8655031 -7.8074627
0.97729594 1.8901933 -7.8367882
1.7689331 1.9189346 -7.8417435
1.8670201 1.883033 -7.8275194
1.9806263 1.8244087 -7.8413353
-1.8421421 2.0641026 -7.8220291
-1.7554435 2.080102 -7.8383732
-1.1074806 2.0909457 -7.8794231
-1.0110649 2.0676787 -7.8186841
0.8840726 2.0494914 -7.7734394
0.99641639 2.070761 -7.8312464
1.0910386 2.1119833 -7.902739
1.7532109 2.0781801 -7.8363876
1.8380963 2.064095 -7.8240933
-1.8253616 2.2045879 -7.8059144
-1.7084367 2.2507992 -7.8303661
-1.5746473 2.3120244 -7.8684926
-1.308435 2.3184125 -7.8852506
-1.1558954 2.264545 -7.8397913
-1.0304163 2.2323778 -7.8077946
0.8874259 2.1820285 -7.7639441
1.0167391 2.2382143 -7.8159809
1.1365032 2.2800593 -7.8535829
1.2750181 2.3338068 -7.9086709
1.5910634 2.313 -7.8768792
1.7111542 2.2535551 -7.8316154
1.8218302 2.2061453 -7.811029
-1.6684184 2.3890254 -7.8101306
-1.5287281 2.42013 -7.8255768
-1.3514733 2.4233155 -7.8292861
-1.1932023 2.3958225 -7.8130403
-1.0590487 2.3627253 -7.7726316
1.0428994 2.3788688 -7.7938876
1.1820973 2.4132497 -7.8191528
1.3458699 2.4457176 -7.8404775
1.5343236 2.4296911 -7.8307581
1.6705137 2.3959076 -7.8147063
-1.5004309 2.5411839 -7.7757406
-1.3675706 2.5396211 -7.7790122
-1.2520759 2.5230148 -7.7459793
1.2306902 2.5376382 -7.7778788
1.3574384 2.5550649 -7.7992206
1.5034891 2.5507314 -7.7909141
-1.6426888 0.52033043 -7.7302117
-1.5186393 0.4991236 -7.714509
-1.3451538 0.48779696 -7.7023911
-1.1882716 0.48689386 -7.7034926
-1.0484571 0.50269485 -7.7204633
1.0484387 0.5204525 -7.7222714
1.1872883 0.50156331 -7.7086616
1.3369811 0.49878916 -7.7124119
1.5013939 0.52045596 -7.7200937
-1.8174082 0.70282376 -7.7360473
-1.6856861 0.65280247 -7.6988945
-1.521706 0.64711636 -7.6773391
-1.3516035 0.6388675 -7.6710067
-1.1743199 0.63741821 -7.6759534
-1.0184039 0.65571839 -7.7003403
-0.87800252 0.68332982 -7.7239633
0.89695632 0.68661559 -7.7185049
1.0207094 0.6492182 -7.7018757
1.1781268 0.64404213 -7.6785975
1.3498955 0.64785177 -7.6738853
1.5211039 0.65191913 -7.6866384
1.6749145 0.66811836 -7.7071815
-1.8333906 0.83853233 -7.7013688
-1.698319 0.82074511 -7.6706285
-1.5367084 0.80173397 -7.6435575
-1.3607568 0.79655617 -7.6153297
-1.162531 0.79820895 -7.6152582
-0.99352825 0.81481951 -7.662941
-0.86374605 0.82791996 -7.7011828
0.86946505 0.84379596 -7.7094312
1.0052584 0.81459993 -7.6746836
1.1687819 0.80139828 -7.6315088
1.3602517 0.79812324 -7.6229591
1.5368983 0.80482537 -7.6506457
1.6946126 0.82664913 -7.6797018
1.825518 0.84311604 -7.7127652
-1.8534508 1.0048753 -7.6778121
-1.719433 0.98600382 -7.6442385
-1.5527424 0.95930284 -7.5913897
-1.3535722 0.94072199 -7.5772843
-1.1595583 0.95791388 -7.5799451
-0.9707191 0.98362225 -7.6285448
-0.85483557 1.0013517 -7.6836691
0.85285151 1.0043702 -7.6907201
0.97840768 0.98629779 -7.6407061
1.1607983 0.96427935 -7.5846567
1.3601605 0.95342439 -7.5820513
1.5506696 0.96809125 -7.5988574
1.7157496 0.98946273 -7.649467
1.845311 1.006611 -7.6876349
-1.9866992 1.2238452 -7.7248592
-1.8692607 1.176827 -7.6658831
-1.7478178 1.1556882 -7.609509
-0.93871456 1.1565349 -7.612124
-0.84645319 1.1736141 -7.6678925
0.84616679 1.1766021 -7.6741672
0.95015055 1.1565779 -7.6152921
1.137084 1.0832977 -7.5606322
1.5903015 1.104354 -7.5698915
1.7410084 1.1571555 -7.6155839
1.8589431 1.1785179 -7.6682
-1.9904095 1.3615184 -7.7076921
-1.8877069 1.3526504 -7.6491241
-1.7829882 1.2958169 -7.5850587
-0.91521484 1.3329744 -7.6106858
-0.84454066 1.352589 -7.6575394
0.83654726 1.355514 -7.6623688
0.92100644 1.3189514 -7.597014
1.7744687 1.3176279 -7.5913572
1.8788308 1.3527619 -7.6522579
1.9872407 1.3664805 -7.7158799
-1.9878253 1.534078 -7.6977334
-1.9027804 1.5315034 -7.6478672
-0.91633737 1.5558196 -7.6568265
-0.85315579 1.5285105 -7.6532502
0.84408528 1.5329001 -7.6543412
0.90424263 1.606066 -7.6437268
1.8947042 1.5299112 -7.648654
1.9840895 1.5196507 -7.7101293
-1.9862303 1.6810415 -7.7019691
-1.8937138 1.7105826 -7.6473036
-0.93982333 1.7219706 -7.6550236
-0.86598212 1.6997794 -7.6479092
0.85414654 1.6997825 -7.6524253
0.92362684 1.7277422 -7.655066
1.8912992 1.71014 -7.6494122
1.9843594 1.6761546 -7.7143655
-1.8643962 1.8827163 -7.6490841
-1.7893189 1.9166472 -7.6585565
-0.95882541 1.890805 -7.6580186
-0.88226998 1.8856066 -7.6413393
0.86628145 1.8838477 -7.6449022
0.94235051 1.8921008 -7.6564217
1.7835944 1.9247119 -7.6518645
1.8640395 1.8823487 -7.6500921
-1.8525671 2.0642991 -7.6479449
-1.779505 2.0805717 -7.654583
-0.96868306 2.0769582 -7.6569901
-0.88399643 2.0662689 -7.6310353
0.86593401 2.0708833 -7.6378808
0.94774735 2.0725172 -7.6570487
1.7741479 2.0760221 -7.6530409
1.8499297 2.0646474 -7.6495123
-1.8318781 2.2210021 -7.6472988
-1.7273437 2.2591691 -7.6516829
-1.6119586 2.3399925 -7.7254333
-1.1113018 2.2998641 -7.6741233
-1.0048753 2.2436302 -7.6478477
-0.89100993 2.185086 -7.6030564
0.87661648 2.2173026 -7.6317039
0.98975629 2.2573886 -7.6520185
1.0944012 2.3239791 -7.7131376
1.729616 2.2613621 -7.6521025
1.8305122 2.2199035 -7.6492224
-1.6824704 2.4065063 -7.6436439
-1.5450628 2.4589629 -7.655643
-1.3408213 2.4773784 -7.6585083
-1.1732569 2.4245338 -7.6499634
-1.0423609 2.38324 -7.6321678
1.0263542 2.4022148 -7.6395807
1.1590333 2.4414179 -7.6541877
1.3247322 2.4989221 -7.6842203
1.5569298 2.4652221 -7.6578174
1.6826924 2.4088061 -7.6460519
-1.6354529 2.5297394 -7.625021
-1.5173994 2.5577536 -7.6429954
-1.3561875 2.5621235 -7.6410089
-1.218667 2.5406587 -7.6201563
1.0719811 2.5331075 -7.5851631
1.1954751 2.5551744 -7.6382322
1.3548492 2.5715997 -7.6395016
1.5138175 2.5673194 -7.6414399
1.6382473 2.5389774 -7.6265345
-1.4705851 0.71224833 -7.5542064
-1.3363044 0.68835324 -7.5468106
-1.2304612 0.68808717 -7.5494509
1.2356069 0.71660769 -7.553484
1.3321924 0.71113282 -7.5514679
-1.6535264 0.86706591 -7.5437584
-1.5228194 0.83588463 -7.5300446
-1.3510587 0.82638466 -7.5287247
-1.1895088 0.83970249 -7.5360389
-1.0435706 0.86685133 -7.5367541
1.0516275 0.87915879 -7.5477238
1.1944352 0.83735031 -7.5362992
1.3520368 0.83076364 -7.5312791
1.5139701 0.84930003 -7.5366092
1.645561 0.87892872 -7.5513005
-1.8138475 1.040457 -7.5508008
-1.6911578 1.0085585 -7.51582
-1.5273136 1.0044599 -7.5070114
-1.3523653 0.99934459 -7.5057111
-1.1788883 0.9999848 -7.514338
-1.0190927 1.0136882 -7.5334387
-0.88390934 1.0611465 -7.5568204
1.0265439 1.0098805 -7.5291858
1.1796021 1.0039182 -7.52036
1.3522367 1.0020438 -7.5086617
1.5228821 1.0045657 -7.5127811
1.6777964 1.0166957 -7.5259447
-1.8346229 1.1959031 -7.5226569
-1.7039999 1.1802346 -7.4930768
-1.538831 1.1676284 -7.4744992
-1.3472118 1.1645879 -7.4691172
-1.1751353 1.1663647 -7.4737191
-0.99719095 1.1828209 -7.4960384
-0.87171531 1.2000798 -7.5246944
0.88093948 1.2205304 -7.5404544
1.0093967 1.1835442 -7.5105133
1.1731082 1.1677303 -7.4853482
1.3507928 1.1634878 -7.4682965
1.5377979 1.1701518 -7.47651
1.6974664 1.1827353 -7.5026727
1.8211346 1.2053074 -7.5341792
-1.856277 1.365088 -7.4911175
-1.7270402 1.3437861 -7.4603004
-1.5324783 1.3357452 -7.4315386
-1.3513327 1.3454834 -7.4357514
-1.1884248 1.32849 -7.4221373
-0.96285337 1.3415077 -7.4568334
-0.86175191 1.3685083 -7.4908113
0.86026812 1.3776724 -7.4984984
0.96986574 1.3442074 -7.4641809
1.1815591 1.3344886 -7.4262977
1.3499424 1.3496212 -7.437418
1.5320057 1.3471984 -7.4332619
1.721115 1.3490479 -7.4676876
1.843751 1.3718377 -7.4994988
-1.8719481 1.5322989 -7.4741216
-1.7771602 1.4789723 -7.4135623
-1.4690458 1.4586962 -7.3956347
-1.3542892 1.4627099 -7.4019799
-1.2513539 1.4485736 -7.3915386
-0.92116135 1.527769 -7.460979
-0.85479659 1.5343468 -7.4754019
0.85437238 1.5398817 -7.4790154
0.9211421 1.5048149 -7.4455209
1.2284744 1.457029 -7.4012556
1.3539346 1.4767828 -7.4102397
1.4897996 1.4640456 -7.4037457
1.7630659 1.489509 -7.4325099
1.8626162 1.5365565 -7.4778256
-1.874313 1.7100222 -7.4690022
-1.7999222 1.7895434 -7.3867168
-0.93435824 1.7189901 -7.4689159
-0.8647387 1.7059757 -7.465662
0.85299093 1.7034707 -7.4692454
0.91777992 1.7232015 -7.4701009
1.7922751 1.7070644 -7.3975668
1.868113 1.7100478 -7.4722672
-1.8591918 1.8869337 -7.4689827
-1.7959396 1.928421 -7.4944572
-0.94143808 1.8902445 -7.4744368
-0.87143779 1.888284 -7.4635143
0.86009634 1.8902547 -7.4638968
0.92825806 1.8895224 -7.4750605
1.7902293 1.9201419 -7.4724011
1.8587037 1.8858975 -7.4697595
-1.8547747 2.0628607 -7.4721975
-1.7791295 2.0893397 -7.4682283
-0.94839096 2.0757201 -7.4724274
-0.87205368 2.061939 -7.4600654
0.86005425 2.0686455 -7.4613929
0.93084407 2.0764697 -7.4744873
1.777402 2.0821419 -7.4712539
1.851946 2.063864 -7.471312
-1.8281394 2.2219737 -7.4731688
-1.7322096 2.2591808 -7.4711814
-1.0931042 2.3195069 -7.4906511
-0.99032027 2.2550423 -7.4705582
-0.88509071 2.1959345 -7.4546533
0.87194878 2.225944 -7.4604321
0.96661174 2.257339 -7.4734139
1.7331107 2.2590694 -7.4715023
1.8268557 2.2212615 -7.474061
-1.684978 2.4107287 -7.470233
-1.5457184 2.4707391 -7.469172
-1.3452777 2.5020685 -7.4715672
-1.1572174 2.4473226 -7.4721575
-1.0332564 2.4031434 -7.4634838
0.89016432 2.350292 -7.4247537
1.015572 2.4115283 -7.4682822
1.147993 2.474046 -7.4767141
1.3050258 2.5149057 -7.4659386
1.5625256 2.4736044 -7.4706812
1.6849536 2.412394 -7.470727
-1.6388179 2.5321043 -7.4698858
-1.5232154 2.5621262 -7.4743733
-1.350281 2.5690315 -7.4694204
-1.1970433 2.5523281 -7.4659896
1.0595759 2.5395269 -7.446075
1.1836188 2.5664079 -7.4676075
1.3505714 2.5745521 -7.4713197
1.5152122 2.5704372 -7.4714708
1.6410886 2.5387111 -7.4722404
-1.6690766 1.2376978 -7.3727899
-1.5052658 1.2379289 -7.3273845
-1.2803075 1.2435638 -7.37183
-1.147159 1.2362584 -7.3209314
-0.99825019 1.2346895 -7.2523217
-0.88972461 1.2499182 -7.2129278
0.89582771 1.2396624 -7.2147307
0.98546588 1.2359548 -7.2265759
1.1458583 1.2393394 -7.3410234
1.4076182 1.2142141 -7.3721566
1.4713835 1.2267287 -7.3761067
1.6706724 1.2544562 -7.3778753
-1.8259281 1.4045348 -7.3286781
-1.7029729 1.3779361 -7.2967663
-1.5359581 1.3706393 -7.2902169
-1.3449295 1.3857342 -7.2867122
-1.1710696 1.3594781 -7.2849674
-0.98676348 1.3517597 -7.2907925
-0.85870427 1.3765275 -7.2661352
0.85360533 1.380619 -7.2591171
0.98842722 1.3602781 -7.2853971
1.1673729 1.3723468 -7.2871189
1.3495148 1.3980529 -7.2870564
1.5333078 1.3808428 -7.2910857
1.6947471 1.3887402 -7.2988343
1.8174018 1.4198387 -7.3576765
-1.8510002 1.543007 -7.3001099
-1.744732 1.5125414 -7.2852707
-1.5026338 1.4605025 -7.2969389
-1.35042 1.4871418 -7.2938333
-1.2166171 1.4696075 -7.275631
-0.92603868 1.5188918 -7.3033872
-0.84274161 1.5381919 -7.2790422
0.83749044 1.5398772 -7.277607
0.92457259 1.506947 -7.3100762
1.2017047 1.4834276 -7.2815666
1.349064 1.501439 -7.2937522
1.5250387 1.475306 -7.2987156
1.7298948 1.5168474 -7.2905536
1.8393983 1.5495632 -7.3012033
-1.8591589 1.7137586 -7.2939343
-1.7912747 1.6670856 -7.2823105
-0.92914194 1.7185953 -7.2994266
-0.84779447 1.7112805 -7.2797356
0.83739871 1.7106739 -7.2806458
0.91560417 1.7208116 -7.318553
1.7836882 1.6917764 -7.2863216
1.8546673 1.7152414 -7.2942615
-1.8569417 1.8872304 -7.2923183
-1.7914227 1.9429989 -7.2606454
-0.92686772 1.8851671 -7.3109055
-0.85046029 1.8907133 -7.2770534
0.83965218 1.89148 -7.2817287
0.91875398 1.8773073 -7.3236551
1.7920587 1.906487 -7.2914338
1.8544192 1.888956 -7.2932692
-1.8483626 2.0610602 -7.2925467
-1.7648562 2.0833678 -7.2844729
-0.93239576 2.0854626 -7.3006244
-0.85444808 2.0637641 -7.2800689
0.84322816 2.0652394 -7.2804031
0.91464698 2.0942674 -7.3192234
1.7641056 2.0843904 -7.283874
1.8457071 2.0618041 -7.2936835
-1.8237699 2.2182579 -7.3021798
-1.7239027 2.2558384 -7.2876492
-1.612807 2.3299842 -7.2108965
-1.0924306 2.3208821 -7.220592
-0.98233622 2.2560496 -7.2886105
-0.87496191 2.2085869 -7.2849398
0.85977733 2.2317333 -7.2875261
0.96052444 2.2601445 -7.2867928
1.0806838 2.3357241 -7.208344
1.6121521 2.3320785 -7.2082834
1.7250557 2.2545581 -7.2873626
1.8208103 2.2159636 -7.3011537
-1.6790341 2.4052217 -7.2986264
-1.5390332 2.4507267 -7.2833991
-1.3493294 2.4692359 -7.2824779
-1.1623906 2.4447103 -7.2848825
-1.0289185 2.4023085 -7.2999153
0.89134091 2.3535535 -7.3323212
1.0132208 2.4122167 -7.2949786
1.1607201 2.4671383 -7.2811065
1.3497537 2.4843371 -7.2746773
1.54309 2.4595244 -7.2811131
1.6790686 2.4101901 -7.2995496
-1.6336441 2.5303659 -7.3538208
-1.5140404 2.548306 -7.3136201
-1.3516097 2.5517039 -7.3070006
-1.1932467 2.5429211 -7.3149166
1.0550478 2.5356143 -7.3187313
1.1812246 2.5570829 -7.3039198
1.3491535 2.5612233 -7.3046112
1.5176818 2.5572035 -7.306828
1.6338922 2.5313284 -7.3346634
-1.4685465 1.0672691 -7.0344062
-1.3433619 1.0518656 -7.0361342
-1.1585897 1.0448545 -7.0462236
-1.0016803 1.0439171 -7.0476646
-0.87707138 1.061196 -7.0348706
0.87627095 1.0686589 -7.0340376
1.0026535 1.0521916 -7.0425563
1.1528739 1.054853 -7.036087
1.3309689 1.0666662 -7.0307255
-1.6491965 1.2340744 -7.0709472
-1.5242612 1.1965357 -7.0819902
-1.3522542 1.1857009 -7.0791044
-1.164178 1.1856136 -7.0862708
-0.99203724 1.1781776 -7.0962195
-0.83509493 1.1921674 -7.0798202
-0.71623617 1.2488861 -7.0327172
0.71588016 1.2442169 -7.0327768
0.83462185 1.1951064 -7.076334
0.99038857 1.1825823 -7.0936918
1.162075 1.1819764 -7.0798397
1.34876 1.1857554 -7.0709019
1.5196725 1.2040755 -7.0738287
1.641328 1.2426276 -7.0547214
-1.8123608 1.4208214 -7.1015582
-1.6953244 1.3656567 -7.1024866
-1.5420309 1.3265272 -7.1172547
-1.3476232 1.3345098 -7.125875
-1.17299 1.3297656 -7.1313944
-0.98736012 1.3154155 -7.1475329
-0.81311357 1.3513243 -7.102138
-0.70343059 1.3767407 -7.0436912
0.69865525 1.3717384 -7.0562153
0.81314528 1.353299 -7.1047091
0.99782354 1.320294 -7.1350436
1.1703709 1.3397942 -7.1195517
1.3505694 1.3409761 -7.1134791
1.5403194 1.3439491 -7.1116395
1.6882217 1.3758243 -7.0993595
-1.8363092 1.5448908 -7.1137733
-1.7454153 1.5237118 -7.1095314
-1.4612243 1.4515896 -7.1895475
-1.3403044 1.4634047 -7.1787496
-1.2128978 1.4569085 -7.1809659
-0.90673399 1.562911 -7.1936154
-0.80051357 1.5305483 -7.1155457
-0.70343018 1.5301656 -7.0535302
0.69673651 1.5313357 -7.0728097
0.79354173 1.5292853 -7.1190701
0.91585672 1.4424981 -7.1988111
1.1869142 1.4667014 -7.1700287
1.3412044 1.4713372 -7.1640468
1.5027666 1.4573559 -7.184381
1.7301455 1.5235623 -7.1103039
1.826212 1.5535024 -7.1142268
-1.8502136 1.7143799 -7.1143231
-1.7732103 1.703887 -7.1007977
-0.90939277 1.681367 -7.1876068
-0.80288744 1.7118397 -7.1125698
-0.7090503 1.6665998 -7.0526195
0.70089972 1.7049772 -7.0734954
0.79200947 1.7104523 -7.1174221
1.7655194 1.7028387 -7.1018314
1.8416581 1.7166222 -7.1122484
-1.8543978 1.888232 -7.1130257
-1.783234 1.892828 -7.1071625
-0.90247256 1.9028469 -7.1887407
-0.81351089 1.8920466 -7.1088328
-0.71892339 1.8854195 -7.0337663
0.7075159 1.8768218 -7.0657768
0.79666817 1.8919587 -7.1135292
1.7753631 1.8912301 -7.1039481
1.8488828 1.8867146 -7.1130424
-1.8401309 2.0579536 -7.1121635
-1.7490094 2.082489 -7.1063571
-1.5854367 2.1436596 -7.0325274
-0.92406821 2.1154993 -7.1208992
-0.83417404 2.0641961 -7.1068001
-0.71846277 1.9850551 -7.0211325
0.70629412 2.0366213 -7.0566373
0.81916505 2.0743616 -7.1114602
0.90808147 2.1478121 -7.1410246
1.7560171 2.0806715 -7.1104875
1.839363 2.0585186 -7.1119809
-1.8170924 2.1878645 -7.1364436
-1.6972294 2.236388 -7.1166711
-1.5460228 2.2699785 -7.0790725
-1.3762981 2.3174865 -7.0509677
-1.1375793 2.3034713 -7.085134
-0.98990637 2.2516735 -7.1073432
-0.86561155 2.2033281 -7.1070328
0.84845251 2.2226188 -7.1066551
0.97577137 2.2665441 -7.1074586
1.1206261 2.3164892 -7.07095
1.4009597 2.3190923 -7.0422487
1.5517068 2.2824337 -7.0747552
1.7003477 2.2418158 -7.1135345
1.8177184 2.1892385 -7.1232848
-1.6662176 2.3861587 -7.1516056
-1.5214443 2.4071488 -7.1302094
-1.3495378 2.4195659 -7.1152015
-1.1791863 2.405329 -7.1212273
-1.0441786 2.3734477 -7.1341248
1.0249527 2.3865294 -7.1255822
1.1715639 2.4232571 -7.1120825
1.3516324 2.4330955 -7.1068225
1.5241197 2.4148562 -7.1257887
1.6623141 2.3871307 -7.1506081
-1.4971164 2.5259666 -7.1903291
-1.361567 2.5277083 -7.1873903
-1.2493132 2.5208061 -7.1907439
1.2067916 2.5345337 -7.1692066
1.3458279 2.5374067 -7.1636696
1.4887149 2.5342524 -7.1773272
-0.47899479 -0.73422158 -6.8435783
-0.57341307 -0.70134634 -6.8457713
-0.50560898 -0.70753717 -6.8466039
0.16343987 -0.69615078 -6.8430128
0.23860376 -0.70673561 -6.8457589
0.84282732 -0.50159812 -6.8485937
0.97444212 -0.44833753 -6.8468876
-1.4585129 0.89181012 -6.8544807
-1.3298526 0.86377341 -6.8774276
-1.1712853 0.85509771 -6.8803539
-1.0071714 0.86706501 -6.874826
-0.86817533 0.88318264 -6.8596792
0.86930037 0.89266348 -6.8522549
1.0067339 0.87408763 -6.863102
1.1669438 0.8674553 -6.8701129
1.3165078 0.87442803 -6.8661132
-1.6288803 1.0774012 -6.8558307
-1.5017115 1.0223166 -6.9017591
-1.3497504 0.99884033 -6.91891
-1.1684823 0.98936599 -6.9271841
-0.99352098 0.99269176 -6.9245315
-0.82494801 1.0081997 -6.9052777
-0.69298476 1.0438616 -6.8638496
0.69043636 1.0442133 -6.8652921
0.82501918 1.0131515 -6.9034734
0.99371028 0.99858123 -6.9165664
1.1685669 0.99734747 -6.9201555
1.3463073 1.0046628 -6.9121532
1.4937338 1.0314932 -6.8979902
-1.6663059 1.202481 -6.9170628
-1.5402162 1.1665547 -6.9297376
-1.3551059 1.1474525 -6.9752507
-1.1775745 1.1390985 -6.9832668
-0.97800785 1.1279507 -6.9802575
-0.80160099 1.1664051 -6.9363303
-0.67129797 1.1860195 -6.9015565
0.66500854 1.1848925 -6.9024782
0.80688471 1.1666028 -6.934413
0.98532933 1.1358471 -6.9699373
1.1743593 1.153685 -6.9684958
1.3586454 1.1516098 -6.9543653
1.5298549 1.1758344 -6.9233456
1.655261 1.2123833 -6.9118214
-1.8077956 1.4124501 -6.9470472
-1.7005646 1.3548616 -6.9255066
-1.5940543 1.2854627 -6.9604383
-1.3277419 1.2651532 -7.0034084
-0.76849669 1.3384409 -6.9579949
-0.66459024 1.3499221 -6.9147029
0.65780848 1.3549993 -6.9146085
0.77009457 1.3353405 -6.9578094
1.2075894 1.2689883 -7.0116034
1.3207595 1.2812605 -7.0093021
1.577601 1.3009124 -6.9471226
1.6921152 1.3628736 -6.925179
-1.8272433 1.5467286 -6.9309597
-1.7405143 1.5254536 -6.9312725
-0.75972724 1.5344038 -6.9473205
-0.67555314 1.5260586 -6.9210906
