# .PCD v0.7 - Point Cloud Data file format
VERSION 0.7
FIELDS x y z
SIZE 4 4 4
TYPE F F F
COUNT 1 1 1
WIDTH 1354
HEIGHT 1
VIEWPOINT 0 0 0 1 0 0 0
POINTS 1354
DATA ascii
0.031052312 -0.1049195 0.35533333
0.03271389 -0.10469681 0.35499999
0.039475176 -0.10523278 0.35499999
0.04130096 -0.10490884 0.35499999
0.042361084 -0.10482049 0.35499999
0.045011409 -0.10473215 0.35499999
0.04699916 -0.1048205 0.35499999
0.04921034 -0.10491893 0.35533333
0.051162541 -0.10511577 0.35599998
0.053023003 -0.10511577 0.35599998
0.055193536 -0.10449562 0.35600001
0.075755231 -0.10482049 0.35499999
0.076373637 -0.10420208 0.35499999
0.078847274 -0.1051297 0.35499999
0.027210042 -0.10296527 0.35499999
0.029065272 -0.10337755 0.35499999
0.031229705 -0.10358367 0.35499999
0.03277573 -0.10358368 0.35499999
0.041742679 -0.10327448 0.35499999
0.042361084 -0.10327448 0.35499999
0.044923067 -0.10314196 0.35499999
0.046999156 -0.10296527 0.35499999
0.049179181 -0.10299769 0.35511112
0.051193103 -0.10297723 0.35581815
0.053023007 -0.10294524 0.35599998
0.054883454 -0.10294524 0.35599998
0.056743912 -0.10248012 0.35599998
0.045453135 -0.10172845 0.35499999
0.046999164 -0.10172845 0.35499999
0.049163595 -0.10111004 0.35499999
0.050992575 -0.10105517 0.35542855
0.053022999 -0.10077471 0.35599998
0.054883454 -0.10077471 0.35599998
0.056867946 -0.10083672 0.35599998
0.02360265 -0.098224126 0.35499999
0.049575869 -0.09966708 0.35499999
0.051075041 -0.099029928 0.35499999
0.052874058 -0.098636396 0.35499999
0.05485297 -0.098574556 0.35499999
0.057053991 -0.098914251 0.35599998
0.023344979 -0.096626572 0.35499999
0.051328033 -0.096781172 0.35499999
0.052874058 -0.096781164 0.35499999
0.055038486 -0.096781164 0.35499999
0.057293024 -0.096932821 0.35555553
0.058604371 -0.097053796 0.35600004
0.051328033 -0.095544353 0.35499999
0.052874055 -0.095544361 0.35499999
0.05497665 -0.095420673 0.35499999
0.057379611 -0.095014274 0.35499999
0.059017807 -0.094986625 0.35599998
0.019224713 -0.092092581 0.35600001
0.05766673 -0.092916101 0.35499999
0.059191596 -0.093032219 0.35579997
0.011472813 -0.090542197 0.35600001
0.013023193 -0.090542197 0.35599998
0.015016912 -0.09056963 0.35550001
0.01919771 -0.091034755 0.35549998
0.020941613 -0.091271706 0.35499999
0.057821333 -0.091215469 0.35499999
0.058993824 -0.091075502 0.35514286
0.060960948 -0.090728246 0.35600001
0.013333271 -0.088991806 0.35599998
0.015234265 -0.089125469 0.35563633
0.01701287 -0.088689201 0.35514283
0.018985186 -0.088927366 0.35499999
0.020510599 -0.08956638 0.35499999
0.057821333 -0.089978658 0.35499999
0.059114374 -0.089135364 0.35499999
0.060955025 -0.089015499 0.35559997
0.01320532 -0.087045044 0.35589999
0.015165273 -0.086968772 0.3553333
0.017006276 -0.086886615 0.35499999
0.018773159 -0.087063298 0.35499999
0.059676569 -0.086886615 0.35499999
0.060951907 -0.08694119 0.35522223
0.062662356 -0.086834699 0.3558
0.011266095 -0.08547762 0.35600004
0.013018294 -0.084930785 0.35587496
0.015151045 -0.085031375 0.35499999
0.017006276 -0.085031375 0.35499999
0.059676569 -0.085031383 0.35499999
0.060913391 -0.085031375 0.35499999
0.062916256 -0.084920771 0.35583332
0.013410789 -0.082867816 0.35599998
0.015183057 -0.083041362 0.35574996
0.017025946 -0.082963541 0.35541666
0.018746752 -0.082267046 0.35575002
0.059429206 -0.083299831 0.35499999
0.060913391 -0.083176143 0.35499999
0.062768243 -0.082701705 0.35599998
0.013746704 -0.081343271 0.35600004
0.015193726 -0.080929846 0.35599998
0.017054182 -0.080929846 0.35599998
0.018824052 -0.080950961 0.35574999
0.059676569 -0.081011713 0.35499999
0.060913384 -0.081011713 0.35499999
0.062945433 -0.080929846 0.35599998
0.064185739 -0.080929838 0.35600001
0.015370912 -0.079157971 0.35599998
0.01705418 -0.079069391 0.35599998
0.018684817 -0.078847274 0.35499999
0.059676569 -0.079465687 0.35499999
0.060932651 -0.078872152 0.35511109
0.062577002 -0.078995638 0.35566667
0.015813878 -0.077208936 0.35600004
0.017054182 -0.077208936 0.35599998
0.018707087 -0.076996155 0.35542855
0.021211464 -0.076930203 0.35499999
0.022881173 -0.076682843 0.35499999
0.061090078 -0.077080384 0.35499999
0.062547818 -0.077100493 0.35549998
0.015813878 -0.075038403 0.35600001
0.01705418 -0.075038396 0.35599998
0.018905491 -0.075002976 0.35583332
0.020963294 -0.075073846 0.35515386
0.022881173 -0.075136818 0.35499999
0.061531797 -0.075755231 0.35499999
0.062591977 -0.075345516 0.3554
0.016976662 -0.072945386 0.35599998
0.018914636 -0.07286787 0.35599998
0.021110777 -0.072992422 0.3554
0.022881173 -0.07297238 0.35499999
0.061531797 -0.073281586 0.35499999
0.062768616 -0.073590793 0.35499999
0.018914636 -0.071007408 0.35599998
0.021059692 -0.07092429 0.35558331
0.022881173 -0.070807949 0.35499999
0.065242261 -0.070498742 0.35499999
0.066046193 -0.070387259 0.35600001
0.017426271 -0.069022924 0.35600001
0.018914636 -0.069146954 0.35599998
0.021035522 -0.06898538 0.35516664
0.022881173 -0.068952717 0.35499999
0.065860666 -0.068952717 0.35499999
0.066706993 -0.069082789 0.35566664
0.017426271 -0.067410529 0.35600001
0.018914638 -0.066976421 0.35599998
0.020991104 -0.066937402 0.35546666
0.022571966 -0.067097493 0.35499999
0.065860666 -0.066788286 0.35499999
0.067139886 -0.067139685 0.35522223
0.018914636 -0.064805895 0.35599998
0.02112845 -0.064817145 0.35553843
0.022571966 -0.065860666 0.35499999
0.063387029 -0.064005442 0.35499999
0.065139197 -0.064211577 0.35499999
0.067221165 -0.06536594 0.35499999
0.019534789 -0.063255511 0.35600001
0.021064699 -0.06288635 0.35566664
0.022571966 -0.062768616 0.35499999
0.05922452 -0.06232528 0.35600004
0.061196681 -0.062436115 0.35574996
0.062912226 -0.062756963 0.35537499
0.064360157 -0.063122027 0.35525
0.021141943 -0.061063197 0.35554543
0.022571966 -0.060913384 0.35499999
0.057053994 -0.060671542 0.35599998
0.059534594 -0.061084975 0.35599998
0.060878262 -0.061291695 0.35599998
0.062821403 -0.061457068 0.35600001
0.019534789 -0.05922452 0.35600004
0.021059692 -0.059155349 0.35558331
0.022819331 -0.058934473 0.35499999
0.057053994 -0.05922452 0.35599998
0.059302039 -0.059302039 0.35599998
0.019534789 -0.057053987 0.35600001
0.020970447 -0.05711782 0.35557142
0.022571966 -0.057202924 0.35499999
0.051472619 -0.056433838 0.35600001
0.055193532 -0.057364065 0.35599998
0.056898952 -0.057209034 0.35599998
0.059534594 -0.057984214 0.35600001
0.019534789 -0.055503611 0.35600001
0.021219235 -0.055038288 0.35546154
0.022695649 -0.054852962 0.35499999
0.021382876 -0.053240918 0.3558
0.022893539 -0.052779991 0.35519999
0.024427196 -0.052255649 0.35499999
0.021395246 -0.051782694 0.35600001
0.023019755 -0.051304802 0.35555553
0.024957258 -0.05084214 0.35499999
0.040311508 -0.093070209 0.35100004
0.046899941 -0.081752717 0.35125002
0.032058302 -0.094726421 0.35190275
0.034912851 -0.094490319 0.35163891
0.049163453 -0.07597436 0.35177779
0.039834663 -0.077339396 0.35146657
0.037554603 -0.074946932 0.35143527
0.03358781 -0.072076298 0.3513771
0.056810539 -0.087798111 0.35400003
0.0390478 -0.10115533 0.35299996
0.046034269 -0.1006094 0.35400003
0.030459646 -0.093246594 0.35351819
0.040354256 -0.09488979 0.35347724
0.028351864 -0.081049345 0.35466665
0.035491847 -0.096740581 0.35528171
0.030734979 -0.10871648 0.35499999
0.05095762 -0.099965781 0.35516667
0.048246488 -0.098865233 0.35568884
0.039166901 -0.091748059 0.35583329
0.0157956 -0.09019658 0.35478663
-0.025808601 -0.11660513 0.35699999
0.041355953 -0.11660513 0.35699999
0.042910688 -0.11660513 0.35699999
-0.026430497 -0.11598323 0.35699999
-0.025808601 -0.11567228 0.35699999
0.041355953 -0.11494676 0.35699999
0.043143898 -0.11481719 0.35699999
0.039179325 -0.11256282 0.35699999
0.041045003 -0.11287377 0.35699996
0.043221634 -0.11287376 0.35699999
0.045087319 -0.11225187 0.35699999
0.038868379 -0.11162998 0.35699999
0.041444797 -0.11118578 0.35700002
0.043014333 -0.11121539 0.35699999
0.045265 -0.11109693 0.35700002
0.046875261 -0.11093035 0.35699999
0.048196789 -0.11069714 0.35699999
0.045398265 -0.10976429 0.35699999
0.046952996 -0.10914239 0.35699999
0.04835226 -0.10898693 0.35699999
0.05120261 -0.10914239 0.35699999
0.050995313 -0.10789862 0.35699999
0.053793833 -0.10789862 0.35699999
0.055037618 -0.10696576 0.35699996
0.05488215 -0.10525556 0.35699999
0.056903303 -0.10478915 0.35699999
0.057525195 -0.10323441 0.35699999
0.058354389 -0.10292346 0.35699999
0.058768988 -0.10088009 0.35700002
0.058946669 -0.099280946 0.35700002
0.060012776 -0.09919209 0.35699999
0.059390876 -0.09701547 0.35699999
0.060220078 -0.096808165 0.35699999
0.061023351 -0.094761103 0.35699999
0.06250035 -0.094527885 0.35699999
0.061132181 -0.09303534 0.35699996
0.0628113 -0.09297315 0.35699999
0.061671156 -0.091522068 0.35699999
0.0628113 -0.09110748 0.35699999
0.01150504 -0.089241795 0.35699999
0.012126933 -0.089241795 0.35699999
0.0628113 -0.089241795 0.35699999
0.011505039 -0.08768706 0.35699999
0.012126933 -0.08768706 0.35699999
0.063433185 -0.087687053 0.35699999
0.064366035 -0.08675421 0.35699999
0.010794303 -0.084710844 0.35700002
0.064614795 -0.08476416 0.35699999
0.010883145 -0.083022855 0.35699999
0.012282407 -0.082867377 0.35699999
0.063744135 -0.083333805 0.35699999
0.064614795 -0.083147235 0.35699999
0.011007524 -0.08153031 0.35699999
0.012817928 -0.081018977 0.35699999
0.064366035 -0.08115717 0.35699999
0.013121964 -0.079042725 0.35699993
0.014769983 -0.078514121 0.35699999
0.063744135 -0.078980535 0.35699999
0.064366035 -0.078980535 0.35699999
0.013785318 -0.07721851 0.35699999
0.014925455 -0.076803915 0.35699999
0.063744135 -0.076803915 0.35699999
0.014925455 -0.07493823 0.35699999
0.063744135 -0.07524918 0.35699999
0.064521514 -0.074782759 0.35699999
0.013992616 -0.073383495 0.35699999
0.015236403 -0.073072545 0.35699999
0.017723979 -0.072450653 0.35699999
0.063744135 -0.073694445 0.35699999
0.064910188 -0.072994813 0.35699999
0.015414087 -0.071295708 0.35700002
0.017102085 -0.071206868 0.35699999
0.067164555 -0.070584975 0.35699999
0.015858296 -0.069652125 0.35699999
0.016604571 -0.069216803 0.35699999
0.067475505 -0.069963075 0.35699999
0.016977707 -0.066729233 0.35699999
0.017568506 -0.065143399 0.35699999
0.017723979 -0.063122243 0.35699999
0.018790083 -0.063033402 0.35700002
0.057214253 -0.06250035 0.35699999
0.058147088 -0.06250035 0.35699999
0.064987928 -0.06250035 0.35699999
0.017723979 -0.060841966 0.35699999
0.018911231 -0.061030414 0.35699996
0.020211557 -0.060634665 0.35699999
0.057525195 -0.061878458 0.35699999
0.058520228 -0.061380941 0.35699999
0.061463859 -0.060427371 0.35699999
0.063122243 -0.060531016 0.35699999
0.064987928 -0.061567515 0.35699999
0.066231713 -0.061567511 0.35699999
0.017723979 -0.05876898 0.35699999
0.01865682 -0.05876898 0.35699999
0.058768988 -0.058458038 0.35699999
0.061178826 -0.05884672 0.35699999
0.0628113 -0.05907993 0.35699999
0.017723979 -0.057214253 0.35699999
0.01865682 -0.057214249 0.35699999
0.049233276 -0.056488708 0.35699999
0.050477061 -0.056488708 0.35699999
0.05317194 -0.056530166 0.35699999
0.054882146 -0.056436881 0.35699999
0.056281406 -0.056281406 0.35699999
0.058691248 -0.056981038 0.35699999
0.060220074 -0.057317901 0.35699999
0.019589661 -0.054726675 0.35699999
0.020211557 -0.054415729 0.35699999
0.048818681 -0.055037625 0.35699999
0.050995316 -0.055037621 0.35699996
0.05286099 -0.055037629 0.35699999
0.057214253 -0.055659518 0.35699999
0.020460313 -0.05304756 0.35699999
0.048818681 -0.053793833 0.35699999
0.051128574 -0.053527314 0.35700002
0.052550048 -0.053482883 0.35699999
0.021040747 -0.051202606 0.35699999
0.022699133 -0.050373416 0.35699999
0.021455344 -0.049440578 0.35699999
0.022077238 -0.049440578 0.35699999
0.025686644 -0.074380063 0.35590276
0.048826519 -0.073962741 0.35524443
0.032856409 -0.073065475 0.35650617
0.052249603 -0.079168804 0.35547224
0.018317606 -0.06093619 0.35699999
0.017723979 -0.05876898 0.35699999
0.014725562 -0.070962548 0.35699999
0.049233276 -0.056488708 0.35699999
0.047841419 -0.11600762 0.359
0.048779488 -0.11600762 0.359
-0.030869983 -0.11537268 0.35800001
-0.029622713 -0.11537267 0.35800001
0.040598709 -0.11531031 0.35800001
0.043030888 -0.11568449 0.35800001
0.044839434 -0.11493613 0.35800001
0.047273744 -0.11467348 0.35824999
0.049170349 -0.11483505 0.359
0.050593078 -0.11463179 0.359
0.037729982 -0.11287813 0.35800001
0.038353618 -0.11287813 0.35800001
0.045213614 -0.11350176 0.35800001
0.047084522 -0.11318994 0.35800001
0.048905659 -0.1131021 0.3582857
0.050690107 -0.11294293 0.35879999
0.038353618 -0.11194267 0.35800001
0.043716885 -0.11057067 0.35800001
0.044589978 -0.1106954 0.35800001
0.047708157 -0.11194267 0.35800001
0.049163308 -0.11111115 0.35800001
0.050610222 -0.11089018 0.358125
0.057222087 -0.11037922 0.359
0.058472849 -0.11037922 0.359
0.049371187 -0.10924026 0.35800001
0.050202701 -0.10913631 0.35800001
0.057186279 -0.10906073 0.35877776
0.058547754 -0.1088197 0.3585
0.057097726 -0.10702017 0.35822222
0.058988869 -0.10705355 0.35833332
0.060812231 -0.10676768 0.35857144
0.058933608 -0.10508268 0.35800001
0.060906947 -0.10494592 0.35859999
0.062225118 -0.10412544 0.359
0.059307784 -0.10333649 0.35800001
0.060764197 -0.10311595 0.35828573
0.06276115 -0.10269601 0.359
0.05955724 -0.1019645 0.35800001
0.060876802 -0.10113981 0.35809094
0.06285049 -0.10099855 0.359
0.061116338 -0.098846316 0.35800001
0.06283123 -0.099091925 0.35888886
0.064101249 -0.099435106 0.359
0.061272249 -0.097131319 0.35800001
0.062695064 -0.097005695 0.35811114
0.064351395 -0.097121216 0.359
0.061428152 -0.095728137 0.35800001
0.06329906 -0.095260419 0.35800001
0.06510663 -0.094964519 0.35814288
0.066869073 -0.094678797 0.35874999
0.063922696 -0.093233585 0.35800001
0.065169968 -0.093233593 0.35800001
0.067166299 -0.092990287 0.35866666
0.063922696 -0.091050863 0.35800001
0.065169968 -0.091050856 0.35800001
0.06709139 -0.091015853 0.35859999
0.063922696 -0.089179963 0.35800001
0.065210804 -0.088923112 0.35822225
0.066977993 -0.089366518 0.359
0.0078172255 -0.086614862 0.359
0.0087552927 -0.086614862 0.359
0.065634355 -0.087199442 0.35883334
0.066602767 -0.087240241 0.359
0.0078172255 -0.085364103 0.359
0.0090563688 -0.085258812 0.35855556
0.065729588 -0.085401557 0.3585
0.067165598 -0.084863797 0.359
0.0090486016 -0.083001293 0.35825002
0.065585725 -0.082735717 0.35800001
0.067145303 -0.082760394 0.35855556
0.069104269 -0.082862586 0.359
0.070355028 -0.083487965 0.359
0.0075045363 -0.080986448 0.359
0.0090533681 -0.080860943 0.35844445
0.010824541 -0.080582686 0.35800001
0.065573387 -0.080874249 0.3585
0.067228138 -0.080986448 0.359
0.069104269 -0.080986455 0.359
0.0092389463 -0.079136454 0.35871428
0.010913632 -0.078889966 0.35800001
0.012160904 -0.078266323 0.35800001
0.065481782 -0.078889959 0.35800001
0.067228138 -0.079110324 0.359
0.06863524 -0.079266667 0.359
0.0093806703 -0.077234186 0.359
0.010920018 -0.077067055 0.35822222
0.012706585 -0.076941095 0.35800001
0.014031812 -0.076395415 0.35800001
0.065169968 -0.077019043 0.35800001
0.067228138 -0.077234194 0.359
0.068478897 -0.077234186 0.359
0.0094432076 -0.075483128 0.359
0.010931268 -0.074957468 0.35858333
0.01278454 -0.075148143 0.35800001
0.014031812 -0.075148143 0.35800001
0.065544143 -0.075272873 0.35800001
0.067216292 -0.075149193 0.35859999
0.069047414 -0.074960083 0.359
0.011122794 -0.072945885 0.359
0.012790199 -0.072999097 0.35816666
0.014031812 -0.072341785 0.35800001
0.065793604 -0.072965421 0.35800001
0.066984177 -0.07288038 0.35800001
0.068911783 -0.072653607 0.35800001
0.011256804 -0.070980407 0.359
0.012803798 -0.070892341 0.35855556
0.014477266 -0.070693597 0.35800001
0.067040883 -0.071406327 0.35800001
0.068537608 -0.070907421 0.35800001
0.011319342 -0.069229342 0.359
0.01282025 -0.069104269 0.359
0.014892914 -0.068907589 0.35827276
0.068288147 -0.069535419 0.35800001
0.011569493 -0.067853518 0.359
0.01299893 -0.067317478 0.359
0.014977064 -0.067087688 0.35825002
0.016526356 -0.06641724 0.35800001
0.01317761 -0.065083988 0.359
0.014895222 -0.065069184 0.35842854
0.016775811 -0.065045238 0.35800001
0.013195477 -0.062975571 0.359
0.015076576 -0.062941007 0.35849997
0.016838174 -0.062987238 0.35800001
0.013445628 -0.061599735 0.359
0.014998112 -0.060932189 0.35875002
0.01697181 -0.060893603 0.35800001
0.063922696 -0.06018088 0.35800001
0.06516996 -0.060492698 0.35800001
0.06641724 -0.060492702 0.35800001
0.014990855 -0.059029639 0.35858333
0.01697181 -0.058933608 0.35800001
0.018709082 -0.058933608 0.35800001
0.06329906 -0.058621783 0.35800001
0.065230645 -0.058987901 0.35833335
0.066884533 -0.059070498 0.35883334
0.015487999 -0.057265393 0.35871428
0.01697181 -0.05697361 0.35800001
0.018709082 -0.056439064 0.35800001
0.05955724 -0.056439064 0.35800001
0.061040994 -0.056881096 0.35816669
0.06279213 -0.057168379 0.35866666
0.064726628 -0.057378434 0.359
0.015947141 -0.055345956 0.359
0.017181493 -0.054981738 0.35866666
0.018709082 -0.055191796 0.35800001
0.053944517 -0.055191789 0.35800001
0.055304859 -0.05502012 0.35836366
0.057095967 -0.054783814 0.35859999
0.058941878 -0.055345953 0.359
0.06097436 -0.055658642 0.359
0.062225118 -0.055658646 0.359
0.017376574 -0.052933779 0.359
0.019020898 -0.053009067 0.35800001
0.049579065 -0.053320885 0.35800001
0.050202701 -0.053320885 0.35800001
0.053632706 -0.053632706 0.35800001
0.055086691 -0.053628057 0.35866666
0.057222087 -0.053469822 0.359
0.059098225 -0.053469822 0.359
0.017823273 -0.051593687 0.359
0.019229442 -0.050996311 0.35857144
0.020517627 -0.050701607 0.35800001
0.019449258 -0.049217254 0.359
0.020813853 -0.048877474 0.35800001
0.022840671 -0.048877478 0.35800001
0.01969941 -0.047841419 0.359
0.02091068 -0.047752578 0.35833335
0.022450898 -0.047708157 0.35800001
0.036831301 -0.098481208 0.35807407
0.057186279 -0.10906073 0.35877776
0.02782163 -0.081466526 0.35866666
0.048948899 -0.082129642 0.35875005
0.051737409 -0.11319518 0.36000001
0.052615374 -0.1133206 0.36000001
0.063652687 -0.11005957 0.36000001
0.06427981 -0.11005957 0.36000001
0.063169166 -0.10884027 0.36037505
0.0648968 -0.10884006 0.36037505
0.067159325 -0.1090945 0.36199999
0.068735838 -0.1084639 0.36199999
0.061942909 -0.10784984 0.361
0.063083917 -0.10702354 0.36033338
0.065067381 -0.10718817 0.3608889
0.066973805 -0.10722098 0.36100003
0.06886901 -0.10689124 0.36177778
0.063103952 -0.10512099 0.36000001
0.065128155 -0.10507903 0.36090913
0.067051537 -0.10514066 0.36141667
0.069051139 -0.10499557 0.36199999
0.063339129 -0.10378837 0.36000001
0.064975187 -0.10295449 0.36037505
0.067098059 -0.10300882 0.36166668
0.068961062 -0.10328393 0.36199999
0.070312351 -0.10341907 0.36199999
0.064943328 -0.10102242 0.36020002
0.06707745 -0.10108788 0.36155558
0.068735838 -0.10121194 0.36199999
0.065112107 -0.098810606 0.36014289
0.066973805 -0.099045776 0.36100003
0.068609543 -0.099137522 0.36133334
0.065534048 -0.096890055 0.36000001
0.066932969 -0.097099572 0.3607778
0.068877593 -0.097214714 0.36149999
0.070312351 -0.096482411 0.36199999
0.067415409 -0.095635809 0.36000001
0.068828426 -0.095015049 0.36050004
0.070247605 -0.094819099 0.36166668
0.069111235 -0.092985354 0.36066672
0.070324324 -0.092663743 0.36124998
0.069079451 -0.091058262 0.36050001
0.070530534 -0.090996422 0.36149999
0.0056519192 -0.088547185 0.36050001
0.0065847607 -0.088110372 0.36000001
0.067415409 -0.088737488 0.36000001
0.068727396 -0.088936865 0.36030006
0.070791289 -0.089059211 0.36162499
0.0051036645 -0.086934917 0.36009094
0.0070327041 -0.08694572 0.35999998
0.067415409 -0.086856127 0.36000001
0.068712421 -0.086909935 0.36022228
0.070908546 -0.087092072 0.36150002
0.072204158 -0.087023355 0.36199999
0.0053401017 -0.084816538 0.36066672
0.0070198732 -0.084833853 0.3608889
0.068983212 -0.084974766 0.36000001
0.070742302 -0.085220277 0.361375
0.072519459 -0.085131541 0.36199999
0.0028377178 -0.082924426 0.36199999
0.0050369198 -0.082791381 0.36141667
0.0072260345 -0.082951643 0.36075002
0.0031530201 -0.08134792 0.36199999
0.0050337268 -0.080864735 0.36125001
0.0065847607 -0.080898494 0.36000001
0.070118114 -0.080179907 0.361
0.0050359038 -0.079013132 0.3614167
0.0072164536 -0.079071783 0.36025009
0.0084661208 -0.078703575 0.36000001
0.06929677 -0.078703575 0.36000001
0.070595302 -0.079043008 0.36114287
0.0050382274 -0.077160232 0.36158335
0.0072179777 -0.076893345 0.36033338
0.0084661208 -0.076822214 0.36000001
0.069505811 -0.076822206 0.36000001
0.070613012 -0.07728941 0.36160001
0.0034683221 -0.074411273 0.36199999
0.0049774749 -0.075049311 0.36173335
0.0072272685 -0.075102359 0.3607778
0.0088842008 -0.074731804 0.36000001
0.0034683221 -0.07346537 0.36199999
0.0051163211 -0.072916031 0.36192307
0.0072351075 -0.072981238 0.36116669
0.0090495329 -0.072941191 0.36054552
0.010347481 -0.072745934 0.36000001
0.0054862546 -0.071321316 0.36199999
0.0072495267 -0.070920981 0.36188889
0.0091052176 -0.070962772 0.36050004
0.010347481 -0.071178131 0.36000001
0.0075672478 -0.069051147 0.36199999
0.0091637131 -0.069001414 0.36054552
0.010556522 -0.068774164 0.36000001
0.0075672478 -0.067159325 0.36199999
0.0091185002 -0.066973805 0.36100003
0.010974601 -0.066788286 0.36000001
0.012228842 -0.066788286 0.36000001
0.0078825494 -0.065267518 0.36199999
0.0090790661 -0.064989038 0.36172727
0.010974601 -0.064906925 0.36000001
0.012385622 -0.064906925 0.36000001
0.0093404585 -0.063077964 0.36149999
0.010990957 -0.063123018 0.36055559
0.012385622 -0.062868781 0.36000001
0.0094886739 -0.060936902 0.36142856
0.010997173 -0.060956866 0.36075005
0.012777571 -0.061065815 0.36000001
0.0094590606 -0.058961477 0.36199999
0.01101844 -0.058870409 0.36144444
0.012867428 -0.059003145 0.36033341
0.014110202 -0.058008607 0.36000001
0.066788286 -0.058008607 0.36000001
0.0097743627 -0.057069659 0.36199999
0.011035571 -0.057069659 0.36199999
0.012891284 -0.05691202 0.361
0.014558144 -0.056664776 0.35999998
0.063339129 -0.056127246 0.36000001
0.065157779 -0.056503516 0.36000001
0.066536568 -0.056806624 0.36033335
0.011114395 -0.05525668 0.36199999
0.012891672 -0.055025429 0.36100003
0.014870586 -0.054840606 0.36020002
0.059576407 -0.054559447 0.36000001
0.061144207 -0.054559451 0.36000001
0.063103959 -0.054794617 0.36000001
0.064906925 -0.054873008 0.36000001
0.066344947 -0.055339858 0.361
0.011666174 -0.053286035 0.36199999
0.012847013 -0.052962903 0.36136365
0.015064091 -0.053040564 0.36033335
0.01661868 -0.052678086 0.36000001
0.055500124 -0.053618766 0.36000001
0.056754369 -0.052991647 0.36000001
0.058635727 -0.052991647 0.36000001
0.061144207 -0.05361877 0.36000001
0.062712006 -0.053618766 0.36000001
0.013154496 -0.050964393 0.36175001
0.014994979 -0.051270388 0.36072731
0.017041696 -0.05098651 0.36011112
0.018500043 -0.050796725 0.36000001
0.013557987 -0.049502417 0.36199999
0.014857755 -0.049210478 0.36154547
0.016963976 -0.049008399 0.36068755
0.018656824 -0.049072143 0.36000001
0.017255576 -0.0470763 0.36166668
0.019108316 -0.047042239 0.36072731
0.021014813 -0.046734672 0.36011118
0.022911659 -0.046763703 0.36033338
0.024809083 -0.046792936 0.36055559
0.026594993 -0.046596885 0.3604286
0.019305389 -0.045151226 0.361875
0.02107317 -0.044977278 0.36111113
0.022701919 -0.045215182 0.361
0.024840051 -0.045592498 0.36099997
0.0272684 -0.04507551 0.3607778
0.028560385 -0.044880018 0.36033335
0.019864026 -0.043826979 0.36199999
0.020999115 -0.043574739 0.36199999
0.022386443 -0.043826979 0.36199999
0.027431276 -0.043826979 0.36199999
0.028061878 -0.043826979 0.36199999
0.069663458 -0.10254545 0.36300001
0.071242683 -0.10271278 0.363125
0.072603077 -0.10240522 0.36399999
0.069874234 -0.10085919 0.36300001
0.071138926 -0.1008592 0.36299998
0.073147744 -0.10101355 0.36355555
0.074826524 -0.10045396 0.36325002
0.076513872 -0.10022685 0.36300001
0.069874234 -0.098962158 0.36300001
0.071248382 -0.099113427 0.36355555
0.073316433 -0.099314034 0.36400002
0.075070038 -0.0991439 0.36366665
0.076750994 -0.098883122 0.36299998
0.07134784 -0.097193904 0.36314282
0.073276684 -0.097077779 0.36390913
0.075062864 -0.097077467 0.36390913
0.076988779 -0.096948177 0.36374998
0.078309871 -0.096064337 0.36399999
0.071455099 -0.095168076 0.36300001
0.073170684 -0.094920129 0.36366668
0.075139433 -0.094796166 0.36400002
0.076909088 -0.094810091 0.36375001
0.078568995 -0.094693825 0.36300001
0.080529183 -0.094479114 0.36399999
0.071560495 -0.093165658 0.36300001
0.073093973 -0.092918292 0.36360002
0.075139441 -0.092973158 0.36400002
0.077062428 -0.092969157 0.36380002
0.078762934 -0.09299726 0.36316666
0.080766961 -0.092814632 0.36400002
0.071771279 -0.090741664 0.36300001
0.073170684 -0.090908304 0.36366665
0.074505344 -0.090991639 0.36399999
0.077358738 -0.091308668 0.36399999
0.078817144 -0.091372088 0.36399999
-0.00317044 -0.088455282 0.36399999
0.073291495 -0.089138031 0.363875
0.074505344 -0.089406416 0.36399999
-0.00317044 -0.087821193 0.36399999
0.07355421 -0.087504148 0.36399999
-0.00095113198 -0.084650747 0.36399999
0.00063234603 -0.0844182 0.36300001
-0.00086947577 -0.083232544 0.36299998
0.00094851904 -0.083153509 0.36299998
-0.00052753568 -0.080908351 0.36333331
0.00094851904 -0.081256464 0.36299998
0.0025926188 -0.081003532 0.36300001
-0.000317044 -0.079261005 0.36399999
0.0009491723 -0.07909704 0.36324999
0.0028455572 -0.079043247 0.36299995
0.0012047673 -0.077295333 0.36399999
0.0028455572 -0.076830037 0.36299998
0.00158522 -0.075139433 0.36399999
0.0026648869 -0.075023338 0.36299998
0.072920121 -0.074505344 0.36399999
0.0027688001 -0.073032372 0.36337501
0.072920121 -0.073871255 0.36399999
0.0030617586 -0.071057826 0.36366668
0.0044732071 -0.070805088 0.36314288
0.0060072877 -0.07050658 0.36300001
0.00317044 -0.069432639 0.36399999
0.004818276 -0.06911511 0.36344445
0.0063234605 -0.069241889 0.36300001
0.0053823451 -0.067753784 0.3635
0.0064345617 -0.066984154 0.36333331
0.006776555 -0.064859368 0.36359999
0.0069645173 -0.063005097 0.36350003
0.0087474538 -0.062707655 0.36300001
0.0053897481 -0.061189491 0.36399999
0.0069614686 -0.061077569 0.36333331
0.0085366722 -0.061021391 0.36300001
0.0069633974 -0.059012864 0.36342856
0.0085366722 -0.059124362 0.36300001
0.0076481267 -0.056886755 0.36371428
0.008852846 -0.057227317 0.36300001
0.0079260999 -0.054848611 0.36399999
0.0091729378 -0.055039074 0.36316666
0.010644492 -0.054276366 0.36300001
0.0093677295 -0.052995127 0.36371428
0.010885387 -0.052710559 0.36299998
0.0095113209 -0.051044088 0.36399999
0.011066057 -0.050903857 0.36299998
0.012330748 -0.050587684 0.36300001
0.009574729 -0.049268641 0.36399999
0.011079411 -0.049066238 0.36344445
0.012888297 -0.048944432 0.363125
0.014227787 -0.048374474 0.36300001
0.011223358 -0.04762001 0.36399999
0.012974417 -0.047153041 0.36333334
0.014860132 -0.047109783 0.36299998
0.016335607 -0.046688218 0.36300001
0.013379258 -0.04546411 0.36399999
0.01494793 -0.045160137 0.36360002
0.016772414 -0.044937074 0.36333331
0.018179949 -0.045054659 0.36300001
0.023396803 -0.044896569 0.36300001
0.024977669 -0.044896569 0.36300001
0.026453143 -0.044791177 0.36300001
0.017437421 -0.04343503 0.36399999
0.019075615 -0.043243494 0.36336362
0.021282015 -0.042519238 0.36314282
0.023138117 -0.042913303 0.36299995
0.024977669 -0.042999532 0.36299995
0.026823949 -0.042923834 0.36309087
0.028560961 -0.042472575 0.36300001
0.030119181 -0.042166855 0.36399999
0.027371466 -0.041321401 0.36399999
0.028676629 -0.041210674 0.36340001
0.030119181 -0.041532766 0.36399999
0.072802536 -0.098871574 0.36500001
0.075981691 -0.096328251 0.36500001
0.081928007 -0.096592166 0.366
0.083101727 -0.097111285 0.36555552
0.084642626 -0.09705206 0.36533332
0.081928007 -0.095635802 0.366
0.083203152 -0.095635809 0.36599997
0.084690817 -0.095742069 0.36600003
0.075345866 -0.092513271 0.36500001
0.075663775 -0.091241606 0.36500001
0.076999024 -0.090987287 0.36500001
0.079232842 -0.090581983 0.36533332
0.081020288 -0.091047525 0.3655
-0.0023843627 -0.088857256 0.36500001
-0.0015895752 -0.088698298 0.36500001
0.075439446 -0.089007683 0.36511111
0.077040568 -0.089137189 0.36549997
0.078315102 -0.089366347 0.36600003
-0.0047687255 -0.086154968 0.36500001
-0.0028612353 -0.0867908 0.36500001
-0.0015895752 -0.0867908 0.36500001
0.073438369 -0.086790808 0.36500001
0.074856482 -0.086960398 0.36571425
0.076508641 -0.087666154 0.366
0.09120179 -0.086562835 0.36557144
0.092831187 -0.086472891 0.36500001
-0.0044508101 -0.085519142 0.36500001
-0.0028612355 -0.08488331 0.36500001
-0.0015895751 -0.085519142 0.36500001
0.073049381 -0.084768511 0.36560002
0.074385799 -0.085217558 0.36575001
0.0911396 -0.085199006 0.36544442
0.093149103 -0.08488331 0.36500001
0.094420768 -0.084565401 0.36500001
0.071726851 -0.082884364 0.366
0.073031612 -0.08306618 0.36574998
0.074209489 -0.083126791 0.36566666
0.092831187 -0.083611652 0.36500001
0.095056593 -0.083293736 0.36500001
0.071726851 -0.081609219 0.366
0.073081695 -0.08137013 0.36599997
0.07427714 -0.080971643 0.366
-0.0027878531 -0.078765839 0.36574998
-0.0011354107 -0.079070009 0.36500001
0.072802536 -0.079160839 0.36500001
0.074578509 -0.078781262 0.36560002
-0.0022315022 -0.076827429 0.36600003
-0.0009537451 -0.077253364 0.36500001
0.00063583005 -0.07693544 0.36500001
0.071530879 -0.076617524 0.36500001
0.072802544 -0.077253357 0.36500001
0.074705392 -0.076827727 0.36566666
-0.0022315022 -0.074914716 0.36600003
-0.00095447089 -0.07506191 0.36516666
0.00074180175 -0.074921981 0.36500001
0.071530879 -0.075345866 0.36500001
0.072643578 -0.075345866 0.36500001
0.074914716 -0.074914709 0.36599997
-0.00086415646 -0.073041439 0.36528569
0.0009537451 -0.072802544 0.36500001
0.074914716 -0.073320791 0.36599997
-0.0008763349 -0.071096137 0.36562496
0.00095374498 -0.070895046 0.36500001
0.0022254053 -0.070895053 0.36500001
-0.00031878601 -0.069814138 0.366
0.00095422898 -0.069050185 0.36533335
0.0027704027 -0.068805896 0.36500001
0.0041328953 -0.068351731 0.36500001
0.00095587422 -0.067243233 0.36588886
0.0028612353 -0.067080058 0.36500001
0.0046892464 -0.06700059 0.36500001
0.0012296032 -0.065351136 0.36599997
0.0028070749 -0.065037966 0.36554545
0.0047687255 -0.065172583 0.36500001
0.0015939301 -0.063119635 0.366
0.0029318731 -0.062910855 0.36589998
0.0047687255 -0.063265093 0.36500001
0.003124103 -0.06114316 0.366
0.0045580398 -0.060952201 0.36511111
0.0032941222 -0.058762889 0.36600003
0.004768725 -0.05881428 0.36500001
0.0060403859 -0.058178447 0.36500001
0.0031878601 -0.057381485 0.366
0.0047739511 -0.056975886 0.36544442
0.0063583008 -0.05690679 0.36500001
0.0047784997 -0.055116307 0.36577776
0.0066762157 -0.054999296 0.36500001
0.0048614866 -0.053316966 0.36599997
0.0069955098 -0.05310379 0.36508331
0.0085837059 -0.052773893 0.36500001
0.0051643336 -0.051452063 0.366
0.0069412892 -0.051013198 0.36560002
0.0085837059 -0.051184315 0.36500001
0.0072721373 -0.048935715 0.36590907
0.0089470372 -0.048640996 0.36500001
0.0078102574 -0.047020938 0.366
0.0092303753 -0.046790022 0.36544442
0.011036194 -0.046551842 0.36500001
0.012398686 -0.046097681 0.36500001
0.0079696504 -0.045586403 0.366
0.009244795 -0.044948831 0.36599997
0.011137187 -0.044866376 0.36533335
0.012822572 -0.044614077 0.36500001
0.014624091 -0.044190187 0.36500001
0.0098823663 -0.043673683 0.366
0.01115751 -0.043673683 0.36600003
0.013252391 -0.04312719 0.36599997
0.014982942 -0.043036114 0.36599997
0.016722331 -0.043172859 0.36500001
0.018121157 -0.042918529 0.36500001
0.025160769 -0.041085556 0.36566666
0.026670545 -0.040928118 0.36539999
0.025821667 -0.039529465 0.366
0.026671762 -0.039635729 0.36600003
0.091029957 -0.10032527 0.368
0.091029957 -0.099684216 0.368
0.09391471 -0.098722622 0.368
0.095110007 -0.0986332 0.36766669
0.096517839 -0.098436944 0.36733332
0.087504148 -0.096478932 0.368
0.089427315 -0.096478932 0.368
0.09006837 -0.096478932 0.368
0.095517345 -0.097119987 0.368
0.097119987 -0.097119987 0.368
0.098963022 -0.097200118 0.368
0.10032527 -0.097440511 0.368
0.082828484 -0.094661303 0.36716667
0.085249469 -0.094913572 0.36740002
0.086977884 -0.095169827 0.36739999
0.089164928 -0.09492334 0.36725003
0.090265654 -0.09538801 0.36750001
0.095581457 -0.095325038 0.368
0.097119987 -0.095196821 0.368
0.098658517 -0.09532503 0.368
0.083299391 -0.093231119 0.36783335
0.084914468 -0.093245298 0.3678889
0.089184314 -0.093659513 0.36700001
0.083070755 -0.091117799 0.3674286
0.084344588 -0.091387063 0.36750001
0.079169221 -0.088855393 0.36762503
0.080873236 -0.089184314 0.36700004
0.082791165 -0.089184314 0.36700004
0.084607199 -0.088924527 0.36725003
0.086542562 -0.088145204 0.368
0.075758718 -0.086627051 0.36700001
0.077273279 -0.086944871 0.36744449
0.079231016 -0.087286778 0.36785716
0.080831163 -0.087161943 0.36710006
0.082791172 -0.087266371 0.36700004
0.084863566 -0.086997531 0.36766669
0.086771525 -0.087046258 0.368
0.088852309 -0.086610071 0.36783335
0.090462938 -0.087266371 0.36700001
0.075543702 -0.084957473 0.36728573
0.07716234 -0.085044697 0.36790001
0.078994796 -0.085220546 0.36745456
0.08096718 -0.085447595 0.36742857
0.082791172 -0.085668087 0.36700001
0.084722392 -0.085682668 0.36775002
0.086801782 -0.085650668 0.36720002
0.089296319 -0.085139208 0.36720005
0.090462938 -0.084389456 0.36700001
-0.0060900324 -0.082696229 0.368
-0.0050216061 -0.082909904 0.368
0.075439058 -0.082791172 0.36700001
0.077247255 -0.083016753 0.368
0.089503974 -0.083430484 0.36700001
-0.0060900324 -0.081414118 0.368
-0.0048880521 -0.081013463 0.368
-0.0032052801 -0.080933332 0.368
0.075473465 -0.080910243 0.36716667
0.077034362 -0.081153937 0.36785716
-0.0048079202 -0.079170413 0.368
-0.0035162275 -0.078315973 0.36700001
0.075758718 -0.078955285 0.36700001
0.076737717 -0.079041339 0.36739999
-0.004487392 -0.077247255 0.368
-0.0031965703 -0.077037342 0.36700001
0.075758718 -0.077676654 0.36700001
0.076662377 -0.077303 0.36750001
-0.0042950753 -0.075195879 0.368
-0.0032023406 -0.074926801 0.36762503
0.076606199 -0.075003564 0.368
-0.0023694686 -0.072807945 0.36760002
-0.0012786281 -0.072562151 0.36700001
-0.0024573812 -0.071264058 0.368
-0.0013875031 -0.070345156 0.36766669
-0.00077805191 -0.068924844 0.36757141
-0.00064062054 -0.066899337 0.36750004
-0.00032052802 -0.065067187 0.368
0.00057555677 -0.064797536 0.36719999
-0.00032052802 -0.063144021 0.368
0.0007770565 -0.062978908 0.36757144
-0.00032052802 -0.061541382 0.368
0.00096013234 -0.0611654 0.36766666
0.0025572563 -0.060734831 0.36700001
0.00096049532 -0.058936875 0.36775002
0.0026638086 -0.059243102 0.36700001
0.00096158416 -0.056733463 0.368
0.0026211876 -0.056962885 0.36700001
0.00096158404 -0.054810286 0.368
0.0028769134 -0.054981008 0.36700007
0.0012821121 -0.052887123 0.368
0.0028775907 -0.052759185 0.36711115
0.0041555418 -0.052423753 0.36700001
0.00160264 -0.050963957 0.368
0.0028817519 -0.050917413 0.36766669
0.0045817508 -0.050612364 0.36700001
0.0030679111 -0.049132369 0.368
0.0048017264 -0.048981175 0.36755556
0.0060734833 -0.04858787 0.36700001
0.003525808 -0.047758676 0.368
0.0048994995 -0.047300778 0.368
0.006634952 -0.046925459 0.36712503
0.0070395963 -0.045120589 0.36740002
0.065195397 -0.044938028 0.368
0.066349305 -0.044553395 0.368
0.0086379983 -0.04383279 0.36733332
0.011218481 -0.042950753 0.368
0.012466624 -0.042834044 0.36700001
0.016302509 -0.042514384 0.36700001
0.063785076 -0.043271285 0.368
0.065147318 -0.04319115 0.368
0.066349305 -0.043591812 0.368
0.013544631 -0.041165784 0.36733332
0.014912044 -0.041087858 0.36740005
0.016302509 -0.041555412 0.36700001
0.013782705 -0.039424945 0.368
0.014744289 -0.039424945 0.368
0.024933249 -0.039637472 0.36700001
0.092241518 -0.10059789 0.36899999
0.089791834 -0.098481804 0.36949998
0.091159731 -0.098722629 0.36949998
0.092946954 -0.099057607 0.36924997
0.09449131 -0.098990895 0.36899999
0.097383901 -0.099312291 0.36899999
0.098990895 -0.098990902 0.36899999
0.10059789 -0.098990895 0.36899999
0.089670323 -0.097383901 0.36899999
0.091281176 -0.096982494 0.36957142
0.093023576 -0.09688656 0.36955553
0.094491303 -0.096741103 0.36899999
0.091846958 -0.095714197 0.37
0.093264952 -0.095456377 0.37
0.094786234 -0.095172957 0.36939996
0.085813537 -0.089027524 0.36899999
0.086456329 -0.089027524 0.36899999
0.0808172 -0.084358387 0.36966667
-0.0069825179 -0.082393698 0.37
0.079064153 -0.083242349 0.36899999
0.080245242 -0.083145663 0.37
-0.0080567505 -0.080889776 0.37
-0.006844101 -0.080754772 0.36974996
0.07874275 -0.081421077 0.36899999
-0.0080567505 -0.079600692 0.37
-0.0067621544 -0.078885011 0.36966664
-0.0054637832 -0.078099959 0.36899999
0.078311615 -0.078311615 0.37
-0.0064454004 -0.07702253 0.37
-0.0054637832 -0.076814361 0.36899999
0.07740099 -0.07675688 0.36949998
0.078311615 -0.077667072 0.37
-0.0061231307 -0.075411186 0.37
-0.0051497878 -0.074987441 0.36950001
-0.0041781873 -0.072957575 0.36899999
-0.0032782699 -0.073086135 0.36899999
-0.0047419732 -0.071037523 0.37000003
-0.0031116477 -0.070911162 0.36950001
-0.0041895104 -0.069288053 0.37
-0.0028966558 -0.069183819 0.36944443
-0.001606995 -0.068779394 0.36899999
-0.0045117801 -0.067032166 0.37
-0.0029004302 -0.067032166 0.36999997
-0.0016069949 -0.067172401 0.36899999
-0.0046192035 -0.064991124 0.37
-0.0029004302 -0.064776272 0.37
-0.0013321323 -0.065085106 0.36914283
-0.0028198627 -0.062923223 0.37
-0.0012415482 -0.062929258 0.36942858
-0.0022558903 -0.061553571 0.37
-0.0010468331 -0.06076717 0.36962497
-0.0022558903 -0.058653146 0.37
-0.00096564862 -0.05886915 0.36933333
-0.0022558903 -0.057041794 0.37
-0.00096564874 -0.056939013 0.36933333
-0.0022558903 -0.055108175 0.37
-0.00096622936 -0.055041783 0.36955553
-0.00096651976 -0.053126648 0.36966664
0.00032139901 -0.053030837 0.36899999
-0.00088602479 -0.05128666 0.36975002
0.0006429432 -0.051125228 0.36916664
-0.00048340502 -0.049468447 0.37
0.00096572138 -0.04895173 0.36974993
0.0022497931 -0.048852649 0.36899999
0.0010588872 -0.046913307 0.37000003
0.0028368472 -0.046882048 0.36936361
0.0044995863 -0.046602856 0.36899999
0.0029925075 -0.044979684 0.37000003
0.004827227 -0.045056108 0.36949995
0.0065936879 -0.044222195 0.36925
0.063487194 -0.044473261 0.37
0.064454004 -0.044473261 0.37
0.0052637439 -0.04329161 0.37
0.0067676702 -0.04318418 0.37
0.0090197856 -0.042842314 0.36983326
0.011248966 -0.042103272 0.36899999
0.012534562 -0.042103268 0.36899999
0.0093458304 -0.04125056 0.37
0.011272483 -0.040903326 0.3697778
0.01279168 -0.040689114 0.36899999
0.0096681006 -0.039639216 0.37
0.011279452 -0.039639216 0.37
0.01285596 -0.039532077 0.36899999
-0.0084016658 -0.082400955 0.37099999
-0.0087248078 -0.081431538 0.37099999
-0.0080785248 -0.07884641 0.37099999
-0.0074322433 -0.077876985 0.37099999
0.078911036 -0.077101447 0.37099999
-0.0065705343 -0.074860997 0.37099996
-0.0061396793 -0.073676154 0.37099999
-0.0051702559 -0.073676147 0.37099999
-0.0051702559 -0.070121601 0.37099999
-0.0061396793 -0.06882903 0.37099996
-0.0052348841 -0.06895829 0.37099999
-0.0061396793 -0.066890188 0.37099996
-0.0054933969 -0.066890188 0.37099996
-0.0035545512 -0.062366214 0.37099999
-0.0029082689 -0.061073653 0.37100002
-0.0027466984 -0.059296377 0.37099999
-0.0029082692 -0.057195961 0.37099996
-0.0029082692 -0.055257112 0.37099996
-0.0025851279 -0.052995123 0.37100002
-0.0025204998 -0.050862394 0.37099999
-0.0016157051 -0.050409995 0.37099999
-0.001154075 -0.048701968 0.37100002
-0.00078477099 -0.04694777 0.37100002
0.00064628199 -0.046209164 0.37099999
0.063335642 -0.046209164 0.37099999
0.0010617489 -0.045101255 0.37100002
0.0025851279 -0.044270318 0.37099999
0.061719935 -0.044593461 0.37099999
0.06290479 -0.0449166 0.37100002
0.06430506 -0.045562882 0.37099999
0.0029082689 -0.043624032 0.37099996
0.0042008334 -0.043624036 0.37099999
0.0071091023 -0.042331472 0.37099999
0.061073657 -0.042762324 0.37100002
0.06275399 -0.043236271 0.37099999
0.0074322433 -0.04168519 0.37099999
0.0087248078 -0.040715769 0.37100002
0.061396793 -0.041362051 0.37099999
0.032960385 0.0054933969 0.37099999
0.03328352 0.0067859618 0.37100002
-0.010044373 -0.086511217 0.37200001
-0.012237261 -0.084361292 0.373
-0.010871902 -0.085117847 0.37209091
-0.0093963491 -0.085215159 0.37200001
-0.012020672 -0.083494939 0.373
-0.010630362 -0.083129123 0.37233332
-0.0093963491 -0.083271094 0.37200001
-0.010227066 -0.081490546 0.37275001
-0.0091845505 -0.080822855 0.37216666
-0.0089476602 -0.078763045 0.37257144
-0.010071374 -0.07667239 0.373
-0.0087694218 -0.076974146 0.37288886
-0.0072902702 -0.076628849 0.37200001
0.07905893 -0.076142833 0.37200001
-0.010071374 -0.07537286 0.373
-0.0087670041 -0.075003073 0.37277776
-0.0072952784 -0.074734636 0.37224999
-0.0085861934 -0.073191501 0.37299997
-0.0068927682 -0.072895184 0.37237501
-0.0051841922 -0.072578698 0.37200001
-0.0083308257 -0.071086377 0.37266669
-0.0068042525 -0.070958637 0.37200001
-0.008100301 -0.069014564 0.37200001
-0.0071282643 -0.069014557 0.37200001
-0.0071282643 -0.067070492 0.37200001
-0.0055230116 -0.064001955 0.373
-0.004865116 -0.063022375 0.37233332
0.081220753 -0.062052652 0.373
-0.0061727772 -0.060103357 0.373
-0.004865116 -0.061076563 0.37233332
-0.0035641321 -0.060590249 0.37200001
0.079165943 -0.060821436 0.37228569
0.080571532 -0.060935054 0.37262496
-0.0061727776 -0.058803827 0.373
-0.004865116 -0.059130743 0.37233332
-0.0035641321 -0.059294198 0.37200001
0.078921534 -0.058643341 0.37249997
0.080570988 -0.05880383 0.373
-0.0064976602 -0.056854527 0.373
-0.0048053074 -0.056979321 0.3722727
-0.0035641321 -0.057026118 0.37200001
0.077647038 -0.056529649 0.373
0.078729987 -0.057071116 0.373
0.080246106 -0.057504293 0.373
-0.0063352184 -0.054742787 0.373
-0.0048601804 -0.054758038 0.37200001
-0.0035641321 -0.054758031 0.37200001
0.05767414 -0.054110009 0.37200001
0.059294205 -0.054110009 0.37200001
0.060914259 -0.054110009 0.37200001
0.062815025 -0.054471347 0.37257144
0.077647038 -0.054905225 0.373
0.078296803 -0.054905225 0.373
-0.0064976602 -0.052955937 0.373
-0.0048601804 -0.052813955 0.37200001
-0.0035641321 -0.052813962 0.37200001
0.049707104 -0.052306164 0.373
0.051006634 -0.052631047 0.373
0.05263105 -0.052631047 0.373
0.057442702 -0.052628808 0.37200001
0.059294198 -0.052813955 0.37200001
0.061238274 -0.052813955 0.37200001
0.063182347 -0.052813955 0.37200001
0.065052383 -0.052560061 0.3725
0.068875201 -0.052306164 0.373
-0.0061727776 -0.051006634 0.373
-0.0048634708 -0.050900083 0.37222221
-0.0034021263 -0.050707884 0.37200001
0.049707104 -0.051006634 0.373
0.051006634 -0.051006634 0.37299997
0.052955933 -0.051006634 0.37299997
0.054905225 -0.050356869 0.373
0.057220526 -0.050805084 0.37200001
0.059294198 -0.050869886 0.37200001
0.061238274 -0.050869886 0.37200001
0.063182347 -0.05086989 0.37200001
0.065282233 -0.050991245 0.37288886
0.066601016 -0.051006634 0.373
0.068875201 -0.051656399 0.373
-0.0061727772 -0.049707104 0.373
-0.004873245 -0.049057338 0.37299997
-0.0029161084 -0.048925817 0.37200001
0.049707104 -0.049382217 0.373
0.051006634 -0.049057335 0.37299997
0.052955933 -0.049057338 0.37299997
0.054824006 -0.048976116 0.37299997
0.057141878 -0.049008798 0.3721818
0.059294198 -0.048925817 0.37200001
0.061238274 -0.048925817 0.37200001
0.063182347 -0.048925817 0.37200001
0.065220267 -0.049138561 0.37299997
0.066601016 -0.049382217 0.373
-0.0045483625 -0.047432922 0.373
-0.0029171731 -0.046995588 0.37211111
-0.0016200601 -0.046657734 0.37200001
0.051493958 -0.047270481 0.373
0.052955933 -0.047108039 0.37299997
0.054905228 -0.047108039 0.37299997
0.057040181 -0.047015216 0.37299997
0.059009168 -0.047013324 0.37224999
0.061238274 -0.046981748 0.37200001
0.063089773 -0.047166895 0.37200001
0.064941272 -0.046889175 0.37200001
-0.00270431 -0.045314793 0.37250003
-0.00097203616 -0.045037672 0.37200001
0.00064802408 -0.044389647 0.37200001
0.051656399 -0.045483623 0.373
0.053037155 -0.045239959 0.37299997
0.054905228 -0.045158736 0.37299997
0.056773309 -0.045239963 0.37299997
0.059088428 -0.045128468 0.37275001
0.06105312 -0.045130245 0.37200001
0.062534325 -0.045685694 0.37200001
-0.0022680843 -0.04341761 0.37200001
-0.00089146855 -0.043203123 0.37224999
0.00097242318 -0.043118954 0.37222221
0.0029161081 -0.042769585 0.37200001
0.0047305757 -0.042704783 0.37200001
0.0061562285 -0.042445578 0.37200001
0.054905225 -0.043859202 0.373
0.056854527 -0.043859206 0.373
0.059274748 -0.043276802 0.37233332
0.060914259 -0.043741625 0.37200001
0.063398354 -0.042661589 0.37200001
0.064889938 -0.042502627 0.3725
0.0029239475 -0.041260146 0.37299997
0.0045483625 -0.041260142 0.373
0.0067232493 -0.041068524 0.37200001
0.057292935 -0.040754091 0.37233332
0.059294198 -0.041149527 0.37200001
0.060979061 -0.040890317 0.37200001
0.063182347 -0.041149527 0.37200001
0.065204807 -0.041198883 0.37244442
0.055554997 -0.03898596 0.373
0.056995999 -0.039048303 0.37271431
0.059105463 -0.038895983 0.37238467
0.06107682 -0.03895754 0.37245455
0.062861659 -0.038908049 0.37254545
0.064874835 -0.038994476 0.37284616
0.057504293 -0.037361547 0.373
0.058885045 -0.036793001 0.37299997
0.060753126 -0.036711778 0.37299997
0.062609598 -0.036897428 0.37299997
0.064218543 -0.037144959 0.373
0.059453595 -0.035412248 0.373
0.060103357 -0.035412248 0.373
0.029347768 -0.0024907698 0.373
0.030782662 -0.0028427264 0.37299997
0.032380007 -0.0024907698 0.373
0.02923947 -0.0009746491 0.373
0.030863889 -0.00097464904 0.37299997
0.032731961 -0.00089342828 0.37299997
0.034437601 -0.000324883 0.373
0.027615057 0.0016244152 0.373
0.029100236 0.0010674729 0.37299997
0.030854497 0.00097416516 0.37288886
0.032783858 0.00097319734 0.37266666
0.034752324 0.00097416516 0.37288886
0.036711778 0.00097464892 0.37299997
0.027290173 0.0029239475 0.373
0.028914588 0.0029239473 0.37299997
0.030808337 0.002918334 0.37233332
0.032725215 0.0029161084 0.37200001
0.034711093 0.002919205 0.37244442
0.036711778 0.0029239475 0.37299997
0.038011312 0.0035737134 0.373
0.027452616 0.0047108037 0.373
0.02889717 0.0048699547 0.37277776
0.030781142 0.0048601804 0.37200001
0.032632641 0.0046750307 0.37200001
0.034993295 0.00486018 0.37200001
0.037003856 0.0048686001 0.37266669
0.038661078 0.0048732455 0.37299997
0.027615057 0.0064976602 0.373
0.028862331 0.0068103494 0.37233332
0.030781142 0.0068042525 0.37200001
0.03207719 0.0068042525 0.37200001
0.035317309 0.0068042525 0.37200001
0.036937371 0.0068042525 0.37200001
0.038661078 0.0068225432 0.37299997
0.029174002 0.0087525351 0.37216666
0.030781142 0.0087483246 0.37200001
0.032725215 0.0087483255 0.37200001
0.034993295 0.0087483255 0.37200001
0.036937371 0.0087483255 0.37200001
0.038444489 0.008555253 0.373
0.029288596 0.010585787 0.37279999
0.030808724 0.010702558 0.37233332
0.032734796 0.010695783 0.37211111
0.034808382 0.010630643 0.3721
0.0367807 0.010798985 0.37287498
0.038011312 0.010396257 0.373
0.031188771 0.012020672 0.373
0.032894406 0.012589216 0.37299997
0.034762483 0.012670437 0.37299997
0.036386896 0.012670438 0.373
-0.012735002 -0.082770586 0.37487501
-0.011401391 -0.082415767 0.37400001
-0.012593984 -0.080748193 0.375
-0.010967053 -0.08089558 0.37400004
-0.012757828 -0.078833051 0.37555555
-0.010749884 -0.079158232 0.37400004
-0.012575996 -0.076996401 0.37571427
-0.010936028 -0.077296786 0.37400004
-0.012117352 -0.074996591 0.37600002
-0.01100563 -0.075079657 0.37437505
-0.012117352 -0.073031612 0.37600002
-0.010717576 -0.073056474 0.3749091
-0.0094468668 -0.0729689 0.37400001
-0.012117352 -0.071721621 0.37599999
-0.010798369 -0.071658038 0.37566665
-0.0091274278 -0.071713574 0.37424999
-0.0081874002 -0.066481687 0.37599999
-0.006847512 -0.066187002 0.37433335
-0.0085112667 -0.065143116 0.3758333
-0.0068475124 -0.064882822 0.37433335
-0.0053206496 -0.06504222 0.37399998
-0.0088272952 -0.063094661 0.37533331
-0.0068475124 -0.062926561 0.37433335
-0.0085626272 -0.061373103 0.37519997
-0.0069247768 -0.06101802 0.37412503
0.081764258 -0.060590252 0.37400001
0.083249487 -0.061110754 0.37599999
0.084166475 -0.061241757 0.37600002
-0.0084847016 -0.05906716 0.37466669
-0.0071665882 -0.058961477 0.37400004
0.081764258 -0.058961477 0.37399998
0.083183981 -0.059276786 0.37599996
0.084166475 -0.05993177 0.37599999
-0.0087344982 -0.057058454 0.37487501
-0.0074923425 -0.057006959 0.37399998
0.079592571 -0.05657262 0.37399998
0.08124885 -0.056963407 0.37425002
0.083137199 -0.057124656 0.37599996
