# .PCD v0.7 - Point Cloud Data file format
VERSION 0.7
FIELDS x y z
SIZE 4 4 4
TYPE F F F
COUNT 1 1 1
WIDTH 1487
HEIGHT 1
VIEWPOINT 0 0 0 1 0 0 0
POINTS 1487
DATA ascii
2.0816031 2.3080907 -1.8974674
2.241307 2.3299232 -1.8705086
-2.2670598 2.5033669 -1.8937461
-2.1037776 2.4755821 -1.9813819
-1.9882489 2.4213724 -1.9974234
-1.456411 2.4559817 -1.9316975
-1.304592 2.5188508 -1.9022089
-1.1583306 2.5539949 -1.8626201
1.1414163 2.5302773 -1.8753055
1.2999958 2.5324538 -1.9069529
1.4281653 2.4376876 -1.9473363
1.9742732 2.4248543 -1.9932151
2.1041632 2.4734967 -1.9491464
2.2452271 2.5131323 -1.8841065
-2.2533193 2.6963708 -1.9002373
-2.1601813 2.7496035 -1.9145824
-1.2385498 2.6839952 -1.953871
-1.1205678 2.7128606 -1.8963392
1.1218438 2.7197356 -1.8927319
1.2398411 2.6620073 -1.9580524
2.1707494 2.7190731 -1.9106424
2.2362561 2.6952171 -1.9003736
-2.2429092 2.8810127 -1.9033712
-2.133836 2.911844 -1.8915837
-1.9704365 2.9864469 -1.8193945
-1.2083452 2.830461 -1.9858898
-1.1208608 2.9002624 -1.8963746
1.1139852 2.8990641 -1.8982131
1.2019202 2.8291903 -1.9847279
1.9733958 2.9853144 -1.8195857
2.128818 2.9126987 -1.8928577
2.2345104 2.8733153 -1.9045113
-2.2137997 3.0215194 -1.947383
-2.0786364 3.072804 -1.9152668
-1.9069734 3.1143653 -1.8897716
-1.7418169 3.1572652 -1.8694419
-1.22879 3.1587949 -1.8887905
-1.1408235 3.0893915 -1.9003406
1.1348487 3.0935905 -1.9021143
1.2195306 3.1695352 -1.8790678
1.7408527 3.1580329 -1.8650935
1.9073288 3.1147494 -1.8903978
2.0735312 3.0696323 -1.9162993
2.2099767 3.0140574 -1.9554275
-2.0135801 3.2095003 -1.9772354
-1.8714333 3.2378435 -1.936002
-1.6905268 3.2783737 -1.9042054
-1.5060194 3.3286066 -1.8900946
-1.305037 3.2987649 -1.8985419
-1.165913 3.2472095 -1.9153289
1.1653332 3.2511296 -1.9108403
1.2997981 3.30424 -1.8972676
1.5099794 3.3312254 -1.8915759
1.6908792 3.2761683 -1.9037375
1.8690983 3.2384946 -1.9361312
2.0199687 3.2094746 -1.9890362
-1.6047143 3.4037466 -1.9622018
-1.4896406 3.4247448 -1.9305165
-1.3515117 3.4260247 -1.9435787
1.349442 3.4282384 -1.9381862
1.4823735 3.4224334 -1.9253001
1.6087749 3.4020836 -1.9871943
1.2687753 3.7388535 -1.9988627
1.1824827 3.849129 -1.9998732
1.2174375 3.8114769 -1.9980359
-0.61080468 4.997581 -1.9733214
-0.48135421 4.9818687 -1.9568878
-0.30583927 4.9730725 -1.9485394
-0.15922192 4.9782248 -1.9687583
0.14605787 4.9866004 -1.9894243
0.32421732 4.9799542 -1.9641654
0.48452094 4.9842682 -1.9654025
-0.65640461 5.133441 -1.9198312
-0.50950736 5.1012321 -1.8951952
-0.29898879 5.0721488 -1.8959113
-0.10600477 5.1242933 -1.9095472
0.10996742 5.127624 -1.9117423
0.29824957 5.0871701 -1.9007416
0.50418758 5.1091194 -1.8986439
0.66675347 5.141211 -1.9223204
-0.65734738 5.2948666 -1.9104805
-0.58078867 5.3170295 -1.879311
-0.052329741 5.2437568 -1.8833703
0.058082882 5.2464747 -1.8775395
0.56722802 5.2349958 -1.8312414
0.68809438 5.3033357 -1.9010831
-0.63361067 5.47544 -1.9043298
-0.54464519 5.511375 -1.8998622
0.59194362 5.574914 -1.8792839
0.67055857 5.4959269 -1.9023317
-0.60560191 5.6609783 -1.9412543
-0.51157224 5.7009568 -1.8988171
-0.020302301 5.7706494 -1.8823478
0.05128039 5.0896058 -2.9501176
0.57091546 5.7116284 -1.8957733
0.64958775 5.6953177 -1.9031512
-0.61753386 5.9124451 -1.9797773
-0.49765453 5.9006386 -1.8957582
-0.054867305 5.8987079 -1.8781222
0.073874339 5.893394 -1.8785636
0.55956203 5.9025412 -1.8903353
0.64254123 5.9005084 -1.9117657
-0.62007076 6.1016316 -1.9688776
-0.50605005 6.0981717 -1.895835
-0.39751104 6.0457888 -1.8073006
-0.030612038 6.104516 -1.8640093
0.074859858 6.1099801 -1.8522294
0.56189394 6.0965662 -1.8856274
0.64904803 6.1038785 -1.9156617
-0.61052942 6.2779665 -1.9523218
-0.51732999 6.2990699 -1.8957876
-0.019164721 6.3092127 -1.8752636
0.066264458 6.30832 -1.8710983
0.56553704 6.2935624 -1.8603728
0.65591013 6.3014841 -1.9158885
-0.60089934 6.4201517 -1.892023
-0.49060172 6.4788651 -1.9390198
-0.41988462 6.3757896 -2.2315996
-0.027936788 6.5148664 -1.8913741
0.083114326 6.507473 -1.8834716
0.56037271 6.5029593 -1.8986698
0.64485514 6.4743638 -1.9364358
-0.4502373 6.6802201 -1.8886936
-0.33362201 6.6702561 -2.0247965
-0.087737434 6.7157102 -1.9252707
0.098960392 6.7020817 -1.9121664
0.32533491 6.7728014 -1.9896342
0.5231337 6.6324511 -2.0453572
0.63110691 6.6813807 -1.8983132
-0.4282819 6.8719735 -1.8410583
-0.29533154 6.8868427 -1.8943082
-0.11111122 6.90447 -1.9011726
0.087940477 6.9109654 -1.9178008
0.31553817 6.9046984 -1.999877
0.48698571 6.8108659 -2.0582409
0.61180818 6.8747511 -1.858541
-0.41094959 7.0193787 -1.8107743
-0.27963161 7.0890207 -1.8510883
-0.11561134 7.0986748 -1.8588398
0.097378507 7.0984468 -1.9054811
0.30903411 7.0855312 -1.9752536
0.44861093 7.010581 -2.0051098
0.61061913 7.0107608 -1.8368156
-0.27610391 7.2925601 -1.8360711
-0.097474501 7.2939401 -1.8410106
0.10003918 7.301302 -1.8926125
0.31057093 7.2847915 -1.9409876
0.4500699 7.2489915 -1.9548404
-0.26292869 7.4861169 -1.8274416
-0.1087098 7.4710593 -1.8216962
0.12129211 7.4670801 -1.9044954
0.29243106 7.3920693 -2.0452068
0.43288717 7.4540358 -1.9101299
-0.22963634 7.6297064 -1.8103657
-0.135031 7.6296272 -1.8114206
0.13201091 7.6474347 -1.9096391
0.30661884 7.5647326 -2.0596015
0.42534184 7.6653037 -1.8361734
0.14889638 7.8429103 -1.8252355
0.27985799 7.8434772 -1.8275942
0.40883893 7.8001032 -1.8021743
-0.034593731 -1.215835 -1.6709206
0.059274085 -1.2208925 -1.6745679
-0.61624235 -1.0109304 -1.6991975
-0.47962549 -1.0457882 -1.6984578
-0.29802632 -1.078243 -1.7010883
-0.10260013 -1.1037421 -1.6976172
0.10682702 -1.1081328 -1.6993223
0.29792935 -1.0802287 -1.699473
0.47853839 -1.0481952 -1.6977859
0.61287576 -1.0133313 -1.715775
-0.84351438 -0.82954079 -1.6948037
-0.68823349 -0.88107014 -1.6992936
-0.51314729 -0.94664586 -1.6983486
-0.38065261 -0.98966402 -1.6953065
0.38929585 -0.99220657 -1.6959358
0.51390511 -0.94654667 -1.6985948
0.68599552 -0.87936896 -1.7003382
0.83831054 -0.82863295 -1.6934097
-1.0561796 -0.65192157 -1.700895
-0.90413529 -0.70461029 -1.7036533
-0.75701255 -0.76682335 -1.6925434
0.75576681 -0.76333249 -1.6951797
0.90091968 -0.69982517 -1.7029666
1.0518646 -0.65011984 -1.6997913
-1.2194451 -0.44921657 -1.7380165
-1.0973372 -0.5000571 -1.6951728
-0.97983992 -0.57445997 -1.6965041
0.974244 -0.57095462 -1.701878
1.0919493 -0.49634361 -1.6957641
1.2170922 -0.45332149 -1.7478615
-1.2463043 -0.28481838 -1.7071805
-1.1529726 -0.3169196 -1.6985372
1.1455731 -0.31349412 -1.6959008
1.2399288 -0.28302911 -1.7074442
-1.4073905 -0.012418668 -1.6773272
-1.2855893 -0.098606929 -1.6982243
-1.1910852 -0.17765157 -1.6944078
1.188015 -0.16893575 -1.698562
1.277721 -0.094780773 -1.6991234
1.4066334 -0.0012456179 -1.6044908
-1.4303397 0.12137777 -1.6865027
-1.3393931 0.091105647 -1.7018234
1.3302792 0.091386847 -1.7012137
1.4255118 0.12825507 -1.6832076
-1.4518832 0.30985406 -1.6889745
-1.3729719 0.2885958 -1.7140543
1.3635859 0.29352653 -1.7080283
1.447535 0.30841622 -1.6927201
-1.6034323 0.56975985 -1.6009316
-1.4744023 0.50308514 -1.6936706
-1.3869957 0.46566167 -1.7540272
1.3830919 0.47430822 -1.739454
1.4668037 0.50610507 -1.6886101
-1.6115985 0.71250057 -1.6217146
-1.495241 0.69845921 -1.7013155
-1.3781973 0.74722141 -1.7829598
1.3833319 0.71849716 -1.7769359
1.4868392 0.69815689 -1.6947277
1.6016867 0.73314184 -1.6343143
-1.6053318 0.82850826 -1.6195126
-1.4774867 0.88465613 -1.6820067
-1.3150117 0.92733264 -1.7279917
-1.1682034 0.96400946 -1.7538389
1.1656226 0.96387458 -1.7554436
1.3157859 0.92636216 -1.7256293
1.4746344 0.88276249 -1.6800022
-1.440967 1.0365931 -1.6429329
-1.2706246 1.0740761 -1.6777245
-1.1387259 1.1126649 -1.715874
1.1377648 1.1126771 -1.7166587
1.2710044 1.0723044 -1.6755371
1.4400077 1.039782 -1.6440232
-1.218127 1.2712007 -1.6426818
-1.106056 1.2982384 -1.7051101
-0.96406716 1.3491956 -1.7754014
0.97280896 1.3297718 -1.7764877
1.1024594 1.2955769 -1.7024024
1.21228 1.2613428 -1.6274791
-1.2053475 1.4106572 -1.6010756
-1.0666583 1.4727987 -1.6825262
-0.91535985 1.5188574 -1.7227265
-0.73762828 1.564013 -1.7654278
0.59938562 1.5992464 -1.7923052
0.74099553 1.5666056 -1.7749671
0.92119157 1.5197018 -1.7268412
1.0672402 1.476822 -1.6796598
-2.0257916 1.7814549 -1.6154505
-1.8871965 1.7628069 -1.6468625
-1.7330117 1.7590498 -1.6450453
-1.5972775 1.7831216 -1.6180289
-1.0126351 1.6203269 -1.639418
-0.87981373 1.6899645 -1.6817209
-0.71597534 1.7044561 -1.7373123
-0.5245803 1.7548876 -1.7788451
-0.2787486 1.7687033 -1.7720317
-0.089063555 1.7581593 -1.7403928
0.082871199 1.7606606 -1.7492324
0.28061602 1.7735956 -1.7798254
0.53080297 1.7492032 -1.77872
0.71551728 1.7047116 -1.735513
0.87925255 1.6916778 -1.6770359
1.0258322 1.6244404 -1.6400822
1.5797038 1.7752535 -1.6238301
1.7162547 1.7727098 -1.6329137
1.8225795 1.7798544 -1.6172767
-2.2094431 1.9892693 -1.6291885
-2.0683832 1.9367236 -1.6724167
-1.9051791 1.9015158 -1.6982905
-1.6987735 1.930369 -1.6920183
-1.523383 1.9567953 -1.6523746
-0.86138123 1.8663975 -1.6591632
-0.68611747 1.8968097 -1.6912735
-0.49363002 1.9235034 -1.7077621
-0.29702389 1.9036407 -1.7013688
-0.10758328 1.8714716 -1.6839697
0.10309622 1.8735812 -1.6833942
0.2945908 1.9000682 -1.7042521
0.49029347 1.9150528 -1.709775
0.68949831 1.9029831 -1.6974777
0.8653307 1.8667086 -1.659346
1.3886716 1.9754236 -1.656332
1.5411532 1.9467534 -1.6594213
1.6936656 1.9093565 -1.684245
1.8868742 1.9324176 -1.6735936
2.0442443 1.9663615 -1.6564147
-2.2439561 2.1298869 -1.6877062
-2.1122193 2.0866461 -1.7092673
-1.9252081 2.0733988 -1.7640694
-1.6213706 2.0989923 -1.7493024
-1.4842297 2.1261098 -1.6909648
-1.3610085 2.154547 -1.6543577
-0.82055587 2.0066268 -1.6241006
-0.67564428 2.0240688 -1.6367843
-0.50167263 2.0276165 -1.6401533
-0.30189565 2.0243876 -1.6360444
-0.14781033 2.0200076 -1.6213219
0.14030477 2.0174754 -1.6233369
0.31396008 2.0249605 -1.6380954
0.50489098 2.0289977 -1.6467004
0.68588167 2.0283122 -1.6422942
0.84015983 2.0127223 -1.6181494
1.3568218 2.1397119 -1.6588644
1.4678279 2.1284564 -1.713213
1.6574554 2.0546904 -1.7603316
1.9055037 2.0772374 -1.7236271
2.0898738 2.1169755 -1.6944671
2.2228262 2.1627467 -1.6875293
-2.2676947 2.3025684 -1.6979549
-2.1819112 2.2310326 -1.7451057
-1.6135987 2.2021368 -1.7980032
-1.4296994 2.2604499 -1.7438521
-1.3115127 2.3450749 -1.7033908
-1.1808059 2.368902 -1.665415
1.1666001 2.3481009 -1.6718018
1.3137509 2.3102906 -1.7064239
1.4163196 2.2770848 -1.7694651
2.1593173 2.2778478 -1.7089062
2.2504928 2.3128345 -1.6985412
-2.2708075 2.4942226 -1.7036651
-2.1861048 2.5508902 -1.6343751
-1.4048795 2.4059241 -1.7815514
-1.2492622 2.4890375 -1.7357792
-1.1354543 2.5426683 -1.7030715
1.1394119 2.5246229 -1.695914
1.2367595 2.4976344 -1.746323
2.1814387 2.5123434 -1.6746423
2.2547896 2.4955575 -1.7103872
-2.2536852 2.686044 -1.7132314
-2.1467371 2.7200713 -1.6758459
-1.9966698 2.7917614 -1.606449
-1.1128068 2.6962702 -1.7033631
1.0972953 2.7022126 -1.7045618
1.995524 2.7868843 -1.6096905
2.1407397 2.7141564 -1.6854519
2.2435889 2.6842203 -1.7121401
-2.2278576 2.851501 -1.7428837
-2.0941355 2.8925111 -1.706394
-1.9213982 2.9373949 -1.6730124
-1.7745851 2.9765728 -1.6334683
-1.2024617 2.9861307 -1.6079178
-1.116907 2.899648 -1.7004931
1.1038357 2.9008029 -1.69824
1.773007 2.976311 -1.6306286
1.9214967 2.9369366 -1.6740423
2.0884817 2.8901026 -1.7080915
2.2227418 2.8434501 -1.7495816
-2.0517194 3.0335641 -1.7509849
-1.882229 3.0685728 -1.7178489
-1.7162907 3.1154985 -1.6908123
-1.5175508 3.1684058 -1.6521822
-1.2758181 3.1372261 -1.6781164
-1.1473968 3.0764987 -1.7115484
1.1439726 3.0843439 -1.7071869
1.2668623 3.151782 -1.6741587
1.5264944 3.1724391 -1.6438267
1.7166306 3.11586 -1.6909686
1.8814311 3.0680046 -1.7186264
2.0471132 3.0314715 -1.7552001
-1.6691262 3.2508328 -1.7250985
-1.5025817 3.272234 -1.7129653
-1.3258076 3.2590647 -1.7191238
-1.1783588 3.223942 -1.7382659
1.1767771 3.2257431 -1.733812
1.3221712 3.2656286 -1.7128552
1.5016109 3.2780423 -1.7107295
1.6663307 3.2501423 -1.7226449
1.8263123 3.2054706 -1.7939732
-0.62935579 5.1622105 -1.7619523
-0.48593831 5.1444063 -1.71781
-0.30059153 5.1395874 -1.704906
-0.12540744 5.1521411 -1.7201904
0.12483959 5.1650915 -1.7270619
0.30731264 5.1522155 -1.71573
0.48426157 5.1512098 -1.7230921
0.63242155 5.1686597 -1.7670857
-0.63858509 5.3151393 -1.7174085
-0.5309149 5.288939 -1.6927769
-0.29054219 5.2088165 -1.62124
-0.080501072 5.2688684 -1.6919894
0.080306828 5.2712431 -1.6938634
0.29245219 5.2166162 -1.6410005
0.52548993 5.2843742 -1.6873386
0.65337944 5.3229361 -1.7226688
-0.62786686 5.486351 -1.702215
-0.54395813 5.5093126 -1.7003038
-0.0087971929 5.4128532 -1.6361716
0.010981254 5.4076233 -1.6466726
0.58108991 5.510004 -1.6750995
0.65608066 5.4973793 -1.711367
-0.60611564 5.6208086 -1.6810524
-0.50611699 5.7002544 -1.7007474
-0.031548802 5.7767625 -1.709324
-0.28150934 4.3270049 -3.7564476
0.55896014 5.7078404 -1.6968611
0.63895375 5.6921444 -1.7041606
-0.46736914 5.8939981 -1.7024423
-0.392133 5.9600511 -1.6849443
-0.078142188 5.9122367 -1.6811759
0.08314871 5.8998351 -1.7163893
0.23443376 5.9650011 -1.6466641
0.53973573 5.9040794 -1.6973981
0.62179029 5.8905344 -1.7165546
-0.4613972 6.0982928 -1.7129177
-0.36244646 6.1109529 -1.6700966
-0.087475292 6.1085906 -1.6691347
0.12234396 6.1112242 -1.7017341
0.29296327 6.1117487 -1.6474892
0.51518923 6.0994244 -1.6963098
0.61754084 6.0962157 -1.7469325
-0.46499822 6.2998152 -1.7208804
-0.32561225 6.3012214 -1.6574409
-0.078331813 6.3047056 -1.6637915
0.10427853 6.3034053 -1.709866
0.30529258 6.3036547 -1.6669362
0.49962673 6.298872 -1.7088975
0.62208176 6.3030434 -1.7675304
-0.46296337 6.4982271 -1.7221047
-0.32182065 6.4988837 -1.6534079
-0.078200661 6.5006542 -1.6654457
0.09944313 6.5003867 -1.7128372
0.30109179 6.5004115 -1.6863505
0.49045244 6.4992914 -1.721217
0.62105262 6.4856906 -1.772145
-0.45080861 6.6936712 -1.713062
-0.3492066 6.6988006 -1.6738136
-0.057004094 6.6874313 -1.6615103
0.1006485 6.7070045 -1.7007318
0.30278063 6.6984482 -1.6800139
0.49215499 6.6991539 -1.7168938
0.61593366 6.6715589 -1.7757424
-0.44083428 6.8943567 -1.6991993
-0.34911346 6.8461547 -1.8104088
-0.034882177 6.9010124 -1.6557461
0.097524449 6.8981409 -1.6849362
0.29995862 6.8970146 -1.6546588
0.49057364 6.9004946 -1.7090282
0.60862327 6.8829441 -1.7747899
-0.43082154 7.0952616 -1.6844404
-0.33220994 7.0834913 -1.7451679
-0.045722194 7.0977283 -1.704916
0.091194607 7.0911322 -1.6754799
0.30688494 7.0957556 -1.6341803
0.47281379 7.0928345 -1.716467
0.61120474 7.006135 -1.7938255
-0.43570918 7.2985172 -1.6693723
-0.33149862 7.2428217 -1.8332599
-0.093657091 7.3152981 -1.753442
0.080981851 7.2759428 -1.7209249
0.31706199 7.2397223 -1.6163317
0.4684695 7.2875619 -1.7255431
-0.43050945 7.4724531 -1.6562256
-0.30285487 7.3923054 -1.8654363
-0.088849455 7.3615937 -1.9344949
0.048873551 7.3024883 -2.0061016
0.37773681 7.4610763 -1.8565521
0.46094087 7.4462194 -1.7678002
-0.41760823 7.6388502 -1.6346666
-0.27376211 7.6087775 -1.8087665
-0.086936958 7.5438142 -1.9574988
0.075844347 7.5734649 -1.9662281
0.30591926 7.5941286 -1.9394145
0.44656107 7.6760821 -1.7111448
-0.25281939 7.8424649 -1.6434145
-0.092558034 7.7985024 -1.7205507
0.10283196 7.8082891 -1.7995676
0.28180793 7.7516212 -1.8916035
0.42170599 7.8501935 -1.6638325
0.18873727 8.0018826 -1.6362367
0.25815478 8.0060625 -1.6369108
-0.21465139 -1.2100484 -1.4256451
-0.076518752 -1.2249833 -1.4789672
0.085469723 -1.230913 -1.484288
0.24382149 -1.2251102 -1.4647168
-0.61399245 -1.0049349 -1.5872631
-0.46726799 -1.0408659 -1.5071365
-0.29341796 -1.0826447 -1.4993916
-0.1094769 -1.1262704 -1.5066751
0.11267263 -1.1372813 -1.5062993
0.29802859 -1.0911009 -1.4986538
0.46870711 -1.0461838 -1.5050311
0.60613489 -1.000926 -1.5935099
-0.85177964 -0.83428901 -1.4979208
-0.68579322 -0.87620199 -1.5009166
-0.51315975 -0.93322277 -1.4986104
-0.36783764 -0.98388064 -1.465887
0.38141182 -0.98780924 -1.4490858
0.51610261 -0.93527347 -1.4983042
0.68400943 -0.8731544 -1.5013027
0.84577411 -0.83129972 -1.4971391
-1.0342565 -0.64695901 -1.5118023
-0.9069562 -0.70369756 -1.4967146
-0.75938231 -0.78067321 -1.5084409
0.7551716 -0.77619123 -1.5088663
0.90214562 -0.69829977 -1.49624
1.0291015 -0.64520729 -1.5136425
-1.2120403 -0.4182896 -1.5278395
-1.0847473 -0.49045026 -1.5007551
-0.97057235 -0.56393307 -1.5043128
0.96676362 -0.55403048 -1.4975177
1.0769963 -0.48697495 -1.5015482
1.20761 -0.41701776 -1.5491034
-1.2455417 -0.27868283 -1.5002307
-1.1486828 -0.31467837 -1.4970628
1.1402917 -0.31267703 -1.4969454
1.2402838 -0.27436703 -1.5002326
-1.4447653 -0.041222148 -1.4570659
-1.2965641 -0.10171863 -1.4999849
-1.1875161 -0.18337907 -1.5120547
1.1839253 -0.17426534 -1.5051838
1.2873595 -0.096387804 -1.4995615
1.4418036 -0.038957756 -1.4498523
-1.6106209 0.093440935 -1.4038026
-1.4656764 0.11087138 -1.477091
-1.3576841 0.084040955 -1.5176927
1.3500153 0.085864134 -1.5115203
1.4606581 0.11250455 -1.4768406
1.6077255 0.094356082 -1.4070777
-1.6093323 0.36680552 -1.4127853
-1.4811587 0.30288512 -1.4934494
-1.3869518 0.25170362 -1.5496271
1.3838986 0.26596749 -1.5413146
1.4736267 0.30465293 -1.4884205
1.6061665 0.32499006 -1.407822
-1.6275704 0.53248036 -1.4581064
-1.5206137 0.49314648 -1.5052694
1.5093108 0.49683148 -1.5046241
1.6239759 0.53998929 -1.4475187
-1.6428322 0.70327932 -1.4786851
-1.5500939 0.69622731 -1.5144826
1.5379769 0.69581485 -1.5098379
1.636278 0.70497215 -1.4763399
-1.636579 0.87409317 -1.4714426
-1.5243847 0.90714747 -1.5106517
-1.3759125 0.98840564 -1.5808636
1.381115 0.98131853 -1.5793802
1.5195174 0.9050352 -1.5087796
1.6310472 0.87326378 -1.4654568
-1.6119928 1.0157288 -1.4167261
-1.4722543 1.0618582 -1.4820788
-1.3047879 1.1177702 -1.5134943
-1.1688946 1.1542188 -1.5334234
1.1655552 1.1558353 -1.5362289
1.3066628 1.1168634 -1.514221
1.4700257 1.0640209 -1.4841762
1.6111622 1.0070475 -1.414566
-1.4080648 1.2148826 -1.4054594
-1.2453803 1.2725482 -1.4887619
-1.148241 1.3093339 -1.5106975
1.1469878 1.3080515 -1.5130318
1.2408708 1.2763727 -1.4879966
1.4113961 1.2111462 -1.4110955
-1.8735646 1.5760064 -1.4285555
-1.7204546 1.5707028 -1.4348532
-1.5792975 1.5796008 -1.4237553
-1.216118 1.4370925 -1.4824275
-1.0940205 1.4963201 -1.5054675
-0.96477109 1.5660784 -1.5289868
0.97570097 1.5789943 -1.5408922
1.1041229 1.5028629 -1.5063399
1.2127982 1.4361731 -1.4668694
1.5667385 1.5788584 -1.4286252
1.7022382 1.5784678 -1.422955
1.8286847 1.5831962 -1.4048398
-2.0536292 1.7459648 -1.4668484
-1.9003934 1.7252295 -1.4894143
-1.6971482 1.7350366 -1.4874142
-1.5303724 1.745698 -1.4594194
-1.0333791 1.6907356 -1.4762163
-0.92424017 1.7179205 -1.5190098
0.92764735 1.7155083 -1.5193062
1.0357423 1.6854663 -1.4810219
1.5291549 1.7382317 -1.4636545
1.689521 1.7257247 -1.4786947
1.8817995 1.7375076 -1.4679675
2.0417862 1.7749155 -1.4293671
-2.2188985 1.9450179 -1.4655879
-2.1019487 1.8997375 -1.4977013
-1.9238194 1.8711966 -1.5567245
-1.6267819 1.8660417 -1.5574861
-1.5062848 1.9431314 -1.5045824
-1.3845338 1.976279 -1.420945
-1.034709 1.8622514 -1.4586307
-0.86642671 1.9314475 -1.51583
-0.71144283 1.9822403 -1.5729612
-0.44269326 1.9706688 -1.5718323
-0.29559106 1.955912 -1.5624411
-0.096508935 1.9634118 -1.5288891
0.1011702 1.9585055 -1.5328106
0.2370393 1.9373988 -1.5752715
0.5190025 1.9763037 -1.5743637
0.6842863 1.9660755 -1.5754958
0.85646963 1.9635379 -1.5248673
1.0336871 1.8744384 -1.4630374
1.3733461 1.9403592 -1.462137
1.4776461 1.8928037 -1.5200275
1.6969711 1.8316636 -1.5465119
1.906142 1.8855428 -1.5138386
2.0702734 1.9238509 -1.47312
2.221823 1.9454585 -1.4160331
-2.2407546 2.1081419 -1.4938143
-2.1555214 2.0878174 -1.500144
-1.43994 2.0798848 -1.5306404
-1.3556223 2.1358147 -1.4916193
-0.84612697 2.057807 -1.4734045
-0.68001902 2.0875165 -1.4965738
-0.47282824 2.0897012 -1.505407
-0.30645716 2.072686 -1.4953084
-0.10119661 2.0566204 -1.4906476
0.12168049 2.0449669 -1.4889716
0.30757338 2.0651917 -1.4942755
0.471993 2.0991092 -1.5082577
0.68691701 2.1608527 -1.5133168
0.84205711 2.0683517 -1.4867287
1.1054887 2.0992737 -1.4510742
1.3407969 2.1216536 -1.4994521
1.3601534 2.0993457 -1.5616355
1.9794145 2.0150347 -1.5699431
2.1076806 2.0948076 -1.4980233
2.2236009 2.1360331 -1.4738041
-2.255599 2.2994604 -1.5093938
-2.1686053 2.3060791 -1.4734796
-1.4037839 2.2123768 -1.5868701
-1.2937168 2.293916 -1.5035132
-1.173003 2.3431575 -1.5011219
1.1575696 2.3314805 -1.5096817
1.2671416 2.2925239 -1.506551
2.1497626 2.2994328 -1.4901544
2.2347522 2.306499 -1.5122765
-2.2474995 2.4879274 -1.5227326
-2.1314423 2.5126452 -1.4801103
-1.9939731 2.5894401 -1.4112564
-1.2245727 2.4809265 -1.4879979
-1.1480024 2.5250952 -1.5102178
1.1475316 2.5195694 -1.505447
1.21381 2.4493549 -1.4844716
1.9892813 2.5899756 -1.4118309
2.1231055 2.5083334 -1.4851342
2.2343326 2.4849744 -1.5379522
-2.2273908 2.6579614 -1.5584161
-2.0927179 2.6949501 -1.5070752
-1.9292691 2.7393265 -1.4625008
-1.7866585 2.7850375 -1.42475
-1.2084786 2.6838422 -1.4357985
-1.1395316 2.7055016 -1.509047
1.1307566 2.7025959 -1.4978569
1.2026825 2.6330516 -1.412213
1.7854059 2.782043 -1.4202296
1.9304118 2.7339132 -1.4666015
2.087817 2.6908128 -1.5111747
2.2195144 2.6460085 -1.5691032
-2.0585496 2.8510392 -1.5455475
-1.8888119 2.8866396 -1.5116049
-1.7263478 2.9294789 -1.4762439
-1.575202 2.9795599 -1.4232125
-1.2351664 2.9345775 -1.4662857
-1.14599 2.8917251 -1.5167208
1.1404915 2.8980958 -1.5088753
1.2269388 2.9501028 -1.4478728
1.5800961 2.980211 -1.4157231
1.7275895 2.9272096 -1.4768629
1.8867055 2.8855283 -1.51051
2.0517678 2.846035 -1.5511875
-1.8422517 3.0306101 -1.5640347
-1.6827867 3.0753195 -1.5189165
-1.5076867 3.1094816 -1.4919728
-1.3106885 3.0934272 -1.5041826
-1.1607351 3.0534611 -1.5345658
1.1614262 3.0607708 -1.533374
1.301578 3.1053443 -1.499294
1.5101714 3.1153359 -1.4887645
1.6806736 3.0770116 -1.5176132
1.8379537 3.0289021 -1.564521
-1.6258765 3.2152812 -1.5771413
-1.4921139 3.229378 -1.5534774
-1.3559136 3.2249277 -1.5619464
1.3423318 3.2293034 -1.5510106
1.4930336 3.2322032 -1.547775
1.6322463 3.2177444 -1.576293
-0.45897666 5.1676259 -1.5387837
-0.31016168 5.1685615 -1.5322284
-0.14105743 5.1749067 -1.5554379
0.1526432 5.1878638 -1.5653148
0.31581426 5.171454 -1.5433408
0.44738975 5.1719708 -1.5550616
-0.61680746 5.3520303 -1.5315677
-0.49596843 5.3123217 -1.5073267
-0.3028684 5.2577987 -1.4843384
-0.10052513 5.3110676 -1.4986216
0.09986636 5.3182316 -1.5034232
0.30511364 5.2795844 -1.488613
0.4881705 5.3191495 -1.5113212
0.62374842 5.3606167 -1.5495243
-0.61942858 5.5020466 -1.5076791
-0.53578907 5.5012589 -1.4992456
-0.050583929 5.4358482 -1.4542092
0.045376081 5.4351544 -1.4621295
0.54108888 5.4929166 -1.4910439
0.63471442 5.5120883 -1.5191909
-0.604433 5.6270571 -1.5100228
-0.50992846 5.7019839 -1.5002927
-0.033136085 5.7800832 -1.4966495
0.02088852 5.7825427 -1.4828117
0.54432899 5.7026892 -1.4959947
0.62703371 5.6876025 -1.5163876
-0.46581277 5.8849349 -1.5052481
-0.31496397 5.9361029 -1.4806544
-0.096419096 5.9081464 -1.4942257
0.097512275 5.9006033 -1.5242662
0.30070361 5.9504223 -1.4881853
0.50965768 5.9016385 -1.5015963
0.61577696 5.8634439 -1.5310843
-0.43607727 6.071732 -1.5433012
-0.30232793 6.0880527 -1.5320385
-0.13809946 6.0991087 -1.5479263
0.1739447 6.0210652 -1.5253992
0.31056938 6.0729222 -1.5243752
0.47161281 6.0692654 -1.5397471
-0.41427135 6.2784543 -1.5794996
-0.29476747 6.2952647 -1.5516466
-0.11806092 6.3063235 -1.557891
0.01131556 6.333499 -1.5820943
0.3218624 6.2874708 -1.5815549
0.4445993 6.2543693 -1.5834517
-0.4177385 6.5156775 -1.584106
-0.29229417 6.5017838 -1.5556282
-0.11256143 6.5037942 -1.5596662
0.012976933 6.4851422 -1.5859711
0.30552578 6.4608555 -1.5944699
-0.41680741 6.7114191 -1.574719
-0.2893599 6.7110553 -1.5465543
-0.11390674 6.7079058 -1.5500729
0.030438431 6.7289658 -1.5734452
0.31620064 6.7290764 -1.5870619
0.43234372 6.7514825 -1.59097
-0.41871443 6.906589 -1.5622633
-0.29553327 6.9049292 -1.521449
-0.10903729 6.9010339 -1.5232382
0.057091109 6.9064646 -1.5686009
0.30610988 6.9131231 -1.5698688
0.44512838 6.9142089 -1.5763427
-0.42456728 7.1155419 -1.5404737
-0.30499655 7.0996227 -1.5012457
-0.098983951 7.0978518 -1.498522
0.085239306 7.1173067 -1.5504111
0.29923424 7.1077366 -1.5548356
0.44111252 7.1041427 -1.5657017
-0.44056851 7.3061681 -1.5127752
-0.32358336 7.2970257 -1.4789344
-0.08526583 7.2960114 -1.4719092
0.090017669 7.3058872 -1.5256404
0.299279 7.3095255 -1.5300735
0.45270237 7.315309 -1.54676
-0.43462628 7.4907856 -1.5036085
-0.34887061 7.478466 -1.5319834
-0.04419047 7.4771299 -1.4587715
0.089314409 7.4783282 -1.5210195
0.31024316 7.5010624 -1.4892182
0.449047 7.5000935 -1.5336796
-0.41521892 7.6567321 -1.4960455
-0.31968296 7.6674004 -1.574146
-0.023981974 7.6501865 -1.6465528
0.089694738 7.6540914 -1.5659144
0.31749219 7.6981449 -1.4928221
0.4385564 7.6894145 -1.525869
-0.2673502 7.8204679 -1.549485
-0.11857595 7.7933292 -1.6108987
0.11594898 7.8726239 -1.5222652
0.29678553 7.8813834 -1.515812
0.42478728 7.8554215 -1.5252348
0.19215767 8.0044127 -1.5712193
0.26077065 8.0066738 -1.5625746
-0.22505993 -1.2165213 -1.285349
-0.092194982 -1.2382543 -1.2944658
0.096260399 -1.2439103 -1.2992483
0.25501856 -1.2312038 -1.2862322
-0.44723558 -1.0301425 -1.317302
-0.2925584 -1.0896969 -1.3018395
-0.10598057 -1.1532949 -1.3063624
0.10316212 -1.1650324 -1.3065468
0.31020454 -1.1053191 -1.3013372
0.44926828 -1.0475409 -1.3064971
-0.84125334 -0.8296392 -1.3135318
-0.68493974 -0.86647922 -1.3054149
-0.50570136 -0.91476792 -1.2960961
-0.36126116 -0.95994854 -1.2916139
0.38322407 -0.9759376 -1.2998748
0.50983804 -0.92024863 -1.295118
0.68213505 -0.86583453 -1.3051691
0.83354336 -0.82577914 -1.3186436
-1.0311395 -0.63812292 -1.3076941
-0.899158 -0.69569147 -1.2986602
-0.74191558 -0.76727539 -1.2796226
0.73856246 -0.76298332 -1.2836523
0.89293319 -0.69214815 -1.3002654
1.0253701 -0.63190746 -1.3115351
-1.2057998 -0.41321155 -1.3020172
-1.0788952 -0.4849425 -1.3025278
-0.96710718 -0.55468875 -1.2930158
0.96243382 -0.54579401 -1.2953457
1.0724636 -0.48122695 -1.3015568
1.2039673 -0.40494609 -1.3036289
-1.4643292 -0.21694088 -1.2335131
-1.2580363 -0.27266017 -1.293231
-1.1464137 -0.32395062 -1.3008704
1.1390831 -0.3208558 -1.3016415
1.2538779 -0.26799649 -1.2935867
1.4660339 -0.21670733 -1.2360624
-1.6529778 -0.057024468 -1.2604465
-1.4934839 -0.084366441 -1.2895232
-1.3085744 -0.12584844 -1.3100181
-1.192818 -0.18051873 -1.3171862
1.1902956 -0.17747229 -1.3144363
1.3053 -0.11563199 -1.3061931
1.491892 -0.077903382 -1.282343
1.6524832 -0.054783132 -1.2601185
-1.8194398 0.14872037 -1.2311178
-1.6807489 0.10294522 -1.2785555
-1.5207394 0.093533941 -1.3437028
-1.3841203 0.0236864 -1.3844496
1.3760595 0.024822677 -1.3772372
1.5121843 0.092854328 -1.3351222
1.6747957 0.10812873 -1.271997
1.8141202 0.152474 -1.2281591
-1.8297058 0.3048375 -1.2256638
-1.6847035 0.2990669 -1.2772949
-1.5356547 0.29917958 -1.3415947
1.528103 0.29916251 -1.3335663
1.6793922 0.29862368 -1.2697554
1.8287094 0.29880688 -1.2262881
-1.8210745 0.50409871 -1.2219793
-1.6828723 0.50062621 -1.2867315
-1.5605189 0.48167521 -1.3458374
1.5527784 0.4848612 -1.3349414
1.6766603 0.50463444 -1.279436
1.8227065 0.49236044 -1.2190142
-1.8152139 0.67775434 -1.2251997
-1.6950959 0.70090544 -1.301178
-1.5856237 0.67536426 -1.378469
1.5810593 0.68566537 -1.3679168
1.6861758 0.70027596 -1.2909167
1.8094615 0.66900605 -1.2145737
-1.8056852 0.81887782 -1.2028811
-1.6748247 0.88902742 -1.2879606
-1.5645611 0.93731296 -1.3347932
1.5629795 0.9277364 -1.3297279
1.667063 0.88615257 -1.2860438
-1.6389978 1.0579891 -1.2606765
-1.5029224 1.0983579 -1.298315
-1.332702 1.1601566 -1.3333566
-1.1853048 1.1930381 -1.3810574
1.3398361 1.1606731 -1.3364344
1.5021801 1.0964143 -1.2979425
1.6375812 1.0524049 -1.2603908
-1.8444296 1.3870697 -1.2167957
-1.7024853 1.3807735 -1.2234154
-1.4656007 1.2471819 -1.2561033
-1.2830852 1.2787889 -1.292487
-1.1573302 1.3172563 -1.3089082
1.1598928 1.3206205 -1.3120722
1.2806822 1.2832648 -1.294295
1.4576014 1.2443937 -1.257327
1.7151854 1.3816538 -1.224769
1.848412 1.3879235 -1.2128332
-2.2351117 1.5700018 -1.2238649
-2.0771062 1.5519623 -1.244674
-1.8934158 1.5293666 -1.2762592
-1.6855649 1.5188379 -1.2861596
-1.5033431 1.5618051 -1.2735838
-1.220883 1.434854 -1.3072118
-1.0999906 1.5233006 -1.3041208
-0.85370469 1.8195703 -1.3489622
1.1121151 1.5027164 -1.3065283
1.2155824 1.4414111 -1.3165506
1.5167882 1.514426 -1.2737623
1.692297 1.5068508 -1.2774578
1.8820536 1.5419852 -1.2633594
2.0910575 1.5459585 -1.2427386
2.2290449 1.5688536 -1.2174606
-2.2646384 1.7289691 -1.2557298
-2.0859225 1.7198313 -1.2990886
-1.915769 1.6744778 -1.3295233
-1.6760129 1.7234464 -1.3627721
-1.4602513 1.7642487 -1.317531
-1.3742745 1.7402318 -1.2387422
-1.0610472 1.7001188 -1.2994258
-0.95270199 1.7462732 -1.3240536
0.94420815 1.7116218 -1.3272254
1.0568062 1.6988235 -1.3032072
1.3699102 1.7333374 -1.2562097
1.461264 1.7059283 -1.3289561
1.6913451 1.7006247 -1.346482
1.8817185 1.7015865 -1.3126804
2.0676789 1.7477809 -1.2891895
2.2560973 1.7230283 -1.2541875
-2.4130538 1.9114268 -1.2252955
-2.2718644 1.9109306 -1.2907858
-2.1112347 1.890797 -1.3504651
-1.4310904 1.9210192 -1.3265723
-1.362911 1.8972311 -1.2932863
-1.049819 1.8913321 -1.2985271
-0.90697145 1.9377995 -1.3848081
-0.21319932 1.9983032 -1.3996468
-0.07982377 1.9881032 -1.3054863
0.064399995 1.998384 -1.3170904
0.92653012 1.9631346 -1.3782976
1.05661 1.9287046 -1.3102899
1.3472736 1.9246042 -1.2979888
1.3979524 1.9191407 -1.3627465
1.9635209 1.8373315 -1.3665771
2.0849535 1.9080766 -1.3466723
2.2567813 1.9118104 -1.2818552
-2.4058697 2.0300305 -1.224371
-2.280077 2.0977733 -1.2927667
-2.1668541 2.0987048 -1.3585958
-1.4214879 2.0433669 -1.3197033
-1.352989 2.1126354 -1.2910498
-1.0332288 2.0416639 -1.2448893
-0.85815638 2.084455 -1.3141854
-0.68100953 2.1501677 -1.3309065
-0.48429376 2.1676633 -1.327741
-0.29047871 2.1248627 -1.3189775
-0.12939674 2.0936444 -1.3147067
0.11798018 2.0738473 -1.3067727
0.29990363 2.129447 -1.3160434
0.4770062 2.1585915 -1.3315692
0.66887164 2.1803563 -1.3493876
0.87297881 2.1512852 -1.3382798
1.0248601 2.0629358 -1.2770467
1.3192828 2.095283 -1.3039396
2.1476052 2.0996053 -1.3523377
2.2605979 2.1001885 -1.2840641
-2.2509346 2.2869444 -1.2887106
-2.1576087 2.3199813 -1.3161081
-1.2910752 2.2970119 -1.2974832
-1.1749898 2.3482533 -1.3119423
-0.82263267 2.2089138 -1.2152309
-0.69264239 2.2175324 -1.2436781
-0.52305949 2.2123089 -1.2482998
0.39993256 2.2015038 -1.2416837
0.51372278 2.2156739 -1.2664983
0.69381368 2.225884 -1.2606558
0.84948456 2.2188251 -1.2348604
1.1662799 2.3427942 -1.3023599
1.2681288 2.2966404 -1.2961197
2.1482077 2.3131113 -1.314321
2.2482378 2.2877724 -1.2827206
-2.2254312 2.4548736 -1.2638479
-2.1126039 2.5056827 -1.3082242
-1.9891731 2.5854695 -1.3428942
-1.2491832 2.5031443 -1.2912935
-1.1632643 2.5113516 -1.3116754
1.1554563 2.5130014 -1.3115734
1.233253 2.4978404 -1.2907139
1.9841533 2.580658 -1.3357041
2.1035614 2.5016863 -1.3051026
2.2251656 2.457041 -1.2458599
-2.0591717 2.6596434 -1.2995167
-1.9122151 2.7164204 -1.3064079
-1.7229273 2.76387 -1.2768173
-1.5671161 2.7791088 -1.2222636
-1.2454382 2.7073319 -1.2898697
-1.1543592 2.6968601 -1.3160321
1.1546885 2.7015414 -1.3163661
1.2312561 2.7035058 -1.2823151
1.5700295 2.7817111 -1.2234073
1.7270652 2.7630775 -1.2789109
1.9098958 2.7124591 -1.3036637
2.0554178 2.6565423 -1.2993933
-1.849227 2.8368745 -1.3191242
-1.6921717 2.886075 -1.3115621
-1.5098565 2.9202936 -1.2814677
-1.3076273 2.9074337 -1.2991668
-1.1585289 2.8786473 -1.3317409
1.1637645 2.8786964 -1.3340729
1.2944695 2.9155331 -1.2884611
1.5169077 2.9232976 -1.2771052
1.6924574 2.8851607 -1.3110998
1.8465661 2.8343241 -1.3210727
-1.6438577 3.0324402 -1.3556476
-1.4979029 3.0542338 -1.3331871
-1.3399425 3.046524 -1.3448206
-1.190568 3.027395 -1.3864793
1.1871361 3.0191886 -1.3832791
1.3315833 3.0528209 -1.3346509
1.493207 3.0586853 -1.328706
1.6423321 3.0350316 -1.3576759
-0.26685122 3.5582573 -1.2317109
-0.09297958 3.5496795 -1.2318521
0.063050643 3.560842 -1.2212405
-0.4159255 3.7308676 -1.2110902
-0.27426553 3.721601 -1.2497221
-0.11158939 3.6211073 -1.3985621
0.077469058 3.6611857 -1.3255619
0.23120263 3.7231064 -1.2208085
-0.43597999 3.9235132 -1.2309471
-0.29162943 3.8940189 -1.2792878
-0.1028435 3.7124217 -1.5599471
0.090660676 3.7479987 -1.4750309
0.24464673 3.9192317 -1.239062
-0.43902376 4.0550961 -1.2275094
-0.28167075 4.0742388 -1.2461027
-0.088493325 4.0525541 -1.3327903
0.06989155 4.0247545 -1.3692338
0.24530824 4.0680337 -1.2381431
-0.26194379 4.2274165 -1.2318468
-0.10038159 4.2460551 -1.2433875
0.052974332 4.2301302 -1.227935
-0.47527096 5.3459501 -1.3262739
-0.30157995 5.3430781 -1.3205664
-0.1255008 5.3521814 -1.3377101
0.12053739 5.3656278 -1.3430293
0.30489638 5.3469129 -1.3341032
0.46262309 5.3552723 -1.3388382
-0.60819876 5.5129833 -1.3548034
-0.51062256 5.5039172 -1.3010063
-0.29649013 5.4299517 -1.2499552
-0.088006765 5.4801397 -1.2897112
0.086806983 5.4754043 -1.2898532
0.3151795 5.4405494 -1.2710203
0.49415758 5.5075393 -1.3059942
0.61347735 5.5404844 -1.3655131
-0.60164094 5.6170516 -1.362619
-0.50029504 5.7012529 -1.3014759
-0.39745861 5.7984457 -1.2211387
-0.040504713 5.7197719 -1.269371
0.027564423 5.7472992 -1.2796096
0.51516962 5.7015328 -1.300692
0.61131692 5.6925292 -1.3585528
-0.45759904 5.8659029 -1.3034263
-0.31519127 5.9177308 -1.2994674
-0.102195 5.9073405 -1.3015347
0.09120433 5.92065 -1.3074855
0.31577718 5.9491181 -1.3037714
0.48065066 5.8873415 -1.3028369
0.60506821 5.8169217 -1.385108
-0.25810951 6.0239305 -1.246508
-0.1395584 6.032382 -1.2388517
0.12104776 6.0400724 -1.2597519
0.30365852 6.0414639 -1.2786674
0.4257254 6.0218148 -1.2832968
-0.26253799 7.1539102 -1.3883414
-0.13717319 7.1576686 -1.3867754
-0.41876021 7.3328719 -1.3796616
-0.28800613 7.317081 -1.3543254
-0.11826092 7.3225312 -1.3600934
0.017745674 7.3795123 -1.3847281
-0.41428548 7.5005345 -1.3705444
-0.2871618 7.5049562 -1.3314345
-0.10975556 7.5100069 -1.32809
0.060303126 7.5342021 -1.3651779
0.28499076 7.5395269 -1.3800704
0.40590528 7.5417895 -1.3892101
-0.40546432 7.6544147 -1.383679
-0.28637516 7.6971812 -1.3226963
-0.099770203 7.702177 -1.3060448
0.084282257 7.6978483 -1.356339
0.28410253 7.7041898 -1.3666967
0.4025366 7.6825609 -1.3867807
-0.26641399 7.8537292 -1.3384387
-0.11777182 7.8559437 -1.3338796
0.10842083 7.8369465 -1.3685788
0.28197983 7.8511477 -1.3730286
-0.22398919 -1.2176433 -1.1350031
-0.089404538 -1.2403245 -1.1083678
0.095820718 -1.2494889 -1.1058083
0.24974217 -1.2263213 -1.1182764
-0.42002541 -1.0233309 -1.1469605
-0.27929613 -1.0773261 -1.1051987
-0.11372701 -1.1402233 -1.0923603
0.10479289 -1.1645668 -1.0953009
0.30312911 -1.0988326 -1.097676
0.43081099 -1.044938 -1.1192473
-0.82088453 -0.81503356 -1.1451645
-0.67934519 -0.84709203 -1.1108702
-0.49239802 -0.88409162 -1.1037447
-0.33847126 -0.93722516 -1.0859181
0.36418179 -0.94975233 -1.0842115
0.49597546 -0.89280361 -1.1001735
0.67736113 -0.84510911 -1.1106037
0.8158862 -0.81111449 -1.1668952
-1.0226687 -0.62360561 -1.1120402
-0.88464433 -0.68150949 -1.1034449
-0.71432912 -0.74487329 -1.0956293
-0.56322765 -0.78425169 -1.0468985
0.57188398 -0.78367883 -1.0561302
0.71518248 -0.74065626 -1.0948932
0.88046849 -0.67669445 -1.104315
1.0175749 -0.61573505 -1.12471
-1.209344 -0.40778974 -1.1448148
-1.0736159 -0.48018277 -1.1036972
-0.95217144 -0.54525012 -1.091316
0.94691825 -0.53693938 -1.0926728
1.0662409 -0.47606385 -1.1050082
-1.6156963 -0.2123763 -1.0553677
-1.4825536 -0.2368208 -1.0845845
-1.2772484 -0.2682876 -1.0983642
-1.1377521 -0.32009357 -1.0941842
1.1312532 -0.31563321 -1.0956285
1.2793301 -0.25984836 -1.095827
1.4785336 -0.23543596 -1.0818723
1.6049395 -0.20796283 -1.0584484
-1.6637866 -0.072723955 -1.1006806
-1.5145606 -0.13345768 -1.1032531
-1.3085244 -0.16719061 -1.1107739
-1.1942179 -0.19245 -1.1552483
1.1912637 -0.19073617 -1.0994445
1.3037025 -0.15992121 -1.1114321
1.5140924 -0.12114315 -1.1019727
1.6575944 -0.067152761 -1.0997046
-1.8324593 0.13088292 -1.0989119
-1.7152858 0.093511239 -1.0916754
-1.5917945 0.014518857 -1.0127509
1.5894703 0.021825695 -1.0258367
1.70514 0.095853366 -1.0950124
1.8282536 0.14218782 -1.1045868
-1.8609439 0.31146836 -1.0924853
-1.7610394 0.2810567 -1.120923
1.7542379 0.28645176 -1.1176505
1.8553982 0.31445715 -1.0905043
-2.001024 0.46667933 -1.0181384
-1.8761457 0.49897811 -1.08777
-1.7512878 0.50253737 -1.1546214
1.7432677 0.50354719 -1.148829
1.8676674 0.49831739 -1.0807623
-1.8551102 0.68863487 -1.0800399
-1.7550777 0.71009153 -1.1215122
1.7472076 0.70780927 -1.1144066
1.8506534 0.68725044 -1.0757565
-1.8338157 0.88056767 -1.0613147
-1.72618 0.90609616 -1.1104736
-1.5973727 0.99190015 -1.1845266
1.5900362 0.98396856 -1.1875926
1.7174252 0.90362668 -1.108536
1.828388 0.87806708 -1.0523703
-1.8163477 1.064573 -1.0236197
-1.6924088 1.0978961 -1.0890201
-1.5205983 1.1278669 -1.1492091
-1.3898966 1.1874771 -1.182742
1.3924091 1.1909244 -1.1861583
1.5298026 1.1683091 -1.1477528
1.6807505 1.1085917 -1.0861083
1.8133924 1.0682654 -1.020456
-2.2263925 1.3811611 -1.0249668
-2.0815809 1.3593695 -1.0516722
-1.8889151 1.3386633 -1.0705187
-1.6917125 1.309665 -1.077793
-1.465808 1.3776962 -1.1094695
-1.214143 1.4649768 -1.1409104
-1.1644781 1.4735285 -1.1495467
1.117334 1.3867326 -1.1478209
1.2704804 1.3785055 -1.1379362
1.4430603 1.3390689 -1.1066062
1.6698911 1.3158784 -1.0753127
1.887355 1.336484 -1.0700279
2.0831659 1.3591591 -1.0537663
2.2308252 1.3803332 -1.0298939
-2.4049258 1.5816205 -1.0256127
-2.2717016 1.5292525 -1.0724891
-2.0881183 1.5008627 -1.1061344
-1.9019995 1.4926813 -1.1294441
-1.6547136 1.4729142 -1.1521245
-1.4814203 1.5269694 -1.1386144
-1.2830248 1.4981052 -1.0782161
-1.0936645 1.5371439 -1.1102102
-1.1042179 1.7814993 -1.2162056
1.1105419 1.5073874 -1.1168028
1.2618238 1.450093 -1.080528
1.4614562 1.479273 -1.1234555
1.6692803 1.4633405 -1.1450766
1.8919107 1.4831001 -1.1225873
2.0908022 1.5136948 -1.1011993
2.2665601 1.5290601 -1.0719056
2.408412 1.5774863 -1.0201204
-2.427238 1.7242131 -1.0642227
-2.2966492 1.7029766 -1.1096512
-2.0463645 1.6849303 -1.1894673
-1.5796335 1.8112622 -1.2557456
-1.4062604 1.7964987 -1.1804466
-1.3123039 1.7335372 -1.1129955
-1.0737234 1.6978601 -1.1029413
-0.94295162 1.6473826 -1.1465778
0.99097258 1.6798851 -1.1640825
1.0657316 1.6991258 -1.1085185
1.3110039 1.7863652 -1.1248398
1.275659 1.6829376 -1.2190399
1.934985 1.6116811 -1.1861193
2.1357384 1.6477777 -1.172703
2.2782176 1.7190187 -1.1038775
2.4128888 1.7264584 -1.0393773
-2.4291468 1.8975655 -1.0819733
-2.3308685 1.9070476 -1.1170255
-1.3588268 1.8515228 -1.1665332
-1.3252245 1.9386331 -1.1263261
-1.0837308 1.9052312 -1.1153585
-0.084172204 2.0024493 -1.1588917
0.065828912 2.0608006 -1.2032
1.1128453 1.8832422 -1.1187226
1.3135496 1.9361178 -1.1337287
2.3172815 1.9031936 -1.1123329
2.4171987 1.9041647 -1.057187
-2.418323 2.0676484 -1.0846646
-2.3281209 2.1057074 -1.1044693
-1.4096171 2.0250492 -1.1911395
-1.3116641 2.1041365 -1.0982271
-1.0330836 2.1252837 -1.116727
-0.87620836 2.2077422 -1.1654191
-0.64985722 2.2059631 -1.168162
-0.50056189 2.1928763 -1.1656779
-0.28670728 2.1590893 -1.1468742
-0.11159271 2.0915163 -1.125168
0.11545984 2.1015909 -1.124895
0.273702 2.1487839 -1.1524551
0.49185628 2.17191 -1.1675498
0.66824317 2.1706059 -1.1757336
0.8766616 2.1593325 -1.1880776
0.99369043 2.1312747 -1.1684016
1.2929251 2.1054106 -1.101114
2.3081405 2.101949 -1.1050541
2.4110713 2.0507939 -1.0483401
-2.40308 2.2015696 -1.0186621
-2.2832685 2.296581 -1.0972353
-2.1866462 2.3639097 -1.1592923
-1.2752557 2.2999432 -1.1040927
-1.155471 2.2967727 -1.0328858
-0.88145906 2.2255828 -1.0693897
-0.69507289 2.2323844 -1.081858
-0.50699568 2.2353449 -1.0852802
-0.32809815 2.2237952 -1.0673735
-0.17725831 2.2092106 -1.0374098
0.18997316 2.211184 -1.0191686
0.33022559 2.224982 -1.0766705
0.50829387 2.2272213 -1.0995754
0.6921261 2.2271655 -1.1035596
0.87951899 2.224591 -1.0978302
1.1419129 2.2943666 -1.0777787
1.2643418 2.3006179 -1.1032934
2.1845396 2.3503072 -1.1545188
2.2767847 2.2950768 -1.0952682
-2.2482843 2.4779522 -1.0879862
-2.1445141 2.523834 -1.1084229
-1.278578 2.5052712 -1.093594
-1.1913466 2.4870009 -1.1253991
1.1754066 2.5022862 -1.1112298
1.2679071 2.5035799 -1.0934192
2.1378479 2.5213156 -1.1070834
2.2481215 2.4770634 -1.0874691
-2.2083414 2.6132619 -1.0648078
-2.0764058 2.6673427 -1.0956074
-1.9130696 2.7328594 -1.1027756
-1.6957237 2.7480254 -1.0975994
-1.5088722 2.7432752 -1.0826429
-1.3147875 2.7051778 -1.0990833
-1.1867281 2.6700974 -1.1612586
1.18112 2.6734664 -1.1448113
1.3049669 2.7132089 -1.0938143
1.5086218 2.7463462 -1.0822506
1.6966785 2.7518754 -1.0953816
1.9134532 2.7258968 -1.1006763
2.0736661 2.6644428 -1.0941355
2.207757 2.6092701 -1.0593786
-1.8663144 2.8218288 -1.098181
-1.6920209 2.8290658 -1.1221501
-1.4990946 2.8591766 -1.1298293
-1.3450404 2.8539271 -1.1452098
-1.1899847 2.8203297 -1.1961796
1.1882601 2.8215067 -1.1900443
1.3386391 2.8642554 -1.1373665
1.4960787 2.8647897 -1.1279691
1.6921105 2.8302894 -1.1233941
1.8623607 2.8198283 -1.1020789
1.3929186 3.0000834 -1.1885543
1.4614451 3.004359 -1.1919692
-0.43070242 3.3636663 -1.0324141
-0.28361604 3.3558755 -1.0489856
-0.096610636 3.3586328 -1.0583121
0.096343063 3.352947 -1.0503715
0.25542176 3.3603621 -1.0267038
-0.45435679 3.5286703 -1.0504625
-0.29494369 3.4532807 -1.1830978
-0.093898714 3.4023643 -1.2432994
0.089688271 3.4052134 -1.2513129
0.27473211 3.467907 -1.1390235
0.42661124 3.5467632 -1.0266073
-0.46942079 3.7101066 -1.067688
-0.30151817 3.5776129 -1.30458
-0.15641147 3.2944078 -1.7430788
0.12862918 3.5291624 -1.4084347
0.28393254 3.6356695 -1.1953504
0.42435238 3.702925 -1.0280122
-0.60211766 3.9129512 -1.0007367
-0.47157484 3.9044211 -1.0842861
-0.35458657 3.8671751 -1.1753007
0.12944691 3.737896 -1.3651508
0.29224432 3.8900921 -1.1063365
0.42709756 3.8974416 -1.0171088
-0.46210921 4.0845146 -1.0839127
-0.32037979 4.1226454 -1.1240916
-0.086297423 4.064642 -1.2792656
0.10332529 4.0610514 -1.2330657
0.27266261 4.0836558 -1.0891391
0.40633109 4.0211191 -1.0253272
-0.41748443 4.2169228 -1.0554755
-0.28098908 4.2620878 -1.0775045
-0.10297471 4.2846704 -1.09087
0.078437053 4.2594829 -1.0880544
0.22368531 4.2221255 -1.0580357
-0.102743 4.4067488 -1.0180373
-0.45937154 5.3854365 -1.161473
-0.32690385 5.3833342 -1.1562017
-0.15849362 5.3911862 -1.1701356
0.32011628 5.3856096 -1.1672176
0.42163846 5.3922272 -1.1806477
-0.48242581 5.520781 -1.1145819
-0.30009621 5.4942083 -1.0891418
-0.10721324 5.5315418 -1.1139019
0.10670727 5.5342798 -1.1106459
0.30770636 5.5092397 -1.0980432
0.46003181 5.5339041 -1.126361
-0.48001263 5.7013779 -1.1016134
-0.33630916 5.6558523 -1.0145118
-0.072107822 5.6698461 -1.0716277
0.060200538 5.6665206 -1.0626746
0.35468775 5.6645532 -1.0339907
0.47223225 5.7039781 -1.1103308
-0.45065096 5.8786068 -1.0957592
-0.33982089 5.9262066 -1.1131985
-0.081128739 5.9391785 -1.1419756
0.049217217 5.9367456 -1.1421534
0.37784994 5.9529018 -1.1127431
0.46116254 5.8920002 -1.1007041
-0.41752177 6.0266824 -1.0474265
-0.28803927 6.0755224 -1.081519
-0.10963739 6.0938096 -1.0861578
0.10339614 6.0946722 -1.1116471
0.31189319 6.104064 -1.0999305
0.44395971 6.0711837 -1.0793949
-0.23890758 6.2269516 -1.0267106
-0.12291263 6.2377391 -1.0326973
0.1167346 6.2453876 -1.0412451
0.29138064 6.2472649 -1.0434153
0.41841924 6.2308216 -1.0302662
-0.22305621 7.719852 -1.192259
-0.14774658 7.7121282 -1.1918249
-0.06823235 -1.2239499 -0.95059997
0.087307803 -1.2278738 -0.94428593
0.22737037 -1.2139838 -0.96183705
-0.26102939 -1.0595623 -0.9208079
-0.10010704 -1.0944858 -0.90152025
0.098966733 -1.1042476 -0.89223021
0.28070757 -1.0736558 -0.91395128
0.41765639 -1.0261444 -0.94197935
-0.80498743 -0.80785978 -0.97527862
-0.66404951 -0.82785165 -0.92582786
-0.48274508 -0.86177325 -0.91284853
-0.31320134 -0.91437161 -0.89545649
-0.13249561 -0.96181458 -0.83680743
0.12133534 -0.98003167 -0.817527
0.32770374 -0.93216753 -0.88096666
0.48132378 -0.87493837 -0.90870166
0.65095055 -0.82654691 -0.92593503
-1.0071924 -0.60964 -0.96168739
-0.87273687 -0.66394305 -0.91335613
-0.70758468 -0.71326572 -0.89492571
-0.51719928 -0.7596823 -0.88250226
-0.37949783 -0.79249936 -0.82125258
0.39690498 -0.79994345 -0.8095324
0.53253233 -0.75924957 -0.8817395
0.70770532 -0.70976293 -0.89664471
0.86817789 -0.66042352 -0.9145183
1.005015 -0.60990119 -0.9953649
-1.0576981 -0.47450039 -0.91387856
-0.92443848 -0.52344686 -0.89018029
-0.78939688 -0.59432441 -0.81975114
0.78161669 -0.58888078 -0.82639265
0.91937679 -0.51750094 -0.89184111
1.0510637 -0.46763793 -0.91633171
-1.6071225 -0.21270806 -0.96662164
-1.4723927 -0.24844936 -0.90378112
-1.296375 -0.26114094 -0.89563948
-1.1126986 -0.30760095 -0.89468342
-0.98551071 -0.37780058 -0.83588952
0.97965258 -0.36998004 -0.83871943
1.1068288 -0.30182743 -0.89661777
1.2970934 -0.25565398 -0.8906042
1.4722544 -0.24624948 -0.90622211
-1.6394718 -0.071364507 -0.93389004
-1.5155581 -0.10766257 -0.89183402
-1.2778461 -0.19442758 -0.97035533
-1.1879795 -0.19809259 -0.92703378
1.1741594 -0.19453853 -0.90845919
1.299437 -0.18866217 -0.9489395
1.5053154 -0.10596574 -0.89419371
1.6356083 -0.067049906 -0.94085491
-1.8239409 0.17061038 -0.96594411
-1.6766969 0.1134 -0.91466147
-1.5584259 0.079193681 -0.87301344
1.5528446 0.081521705 -0.87842762
1.6709349 0.1161169 -0.91732138
1.8152788 0.17845027 -0.9680289
-1.8623803 0.3265124 -0.91575825
-1.718376 0.28420451 -0.88474935
-1.5831708 0.22897816 -0.82950544
1.5776938 0.23367828 -0.83541524
1.714403 0.28796709 -0.89033163
1.8547016 0.33218786 -0.91705096
-2.0181422 0.52812684 -0.88960475
-1.9090643 0.49307379 -0.90011907
-1.7706844 0.4225859 -0.82870597
1.7660757 0.4257952 -0.83751822
1.8995156 0.4954851 -0.90185726
2.0131485 0.53748715 -0.87246716
-2.0209334 0.67767417 -0.85978585
-1.9100859 0.70462412 -0.9086228
-1.7891479 0.76297587 -0.98174858
1.7863052 0.75710988 -0.97594202
1.9020541 0.70220292 -0.90411174
2.0133524 0.66722137 -0.84706372
-2.0061226 0.82465816 -0.82052612
-1.8790426 0.89936894 -0.88896728
-1.7667793 0.93785244 -0.95367038
1.751271 0.93446398 -0.94836056
1.8624846 0.9048875 -0.88583595
2.0029144 0.83129132 -0.80481601
-2.0340278 1.1798191 -0.8258118
-1.8681273 1.1048779 -0.87514895
-1.7000197 1.1531971 -0.93298244
1.7350107 1.1358182 -0.93055212
1.8643845 1.1226441 -0.88015085
2.0480072 1.1757122 -0.83870143
-2.253238 1.3567705 -0.8757211
-2.0966372 1.3202699 -0.88949144
-1.9032608 1.2907385 -0.91162163
-1.6865289 1.3201457 -0.962551
-1.5424342 1.2957509 -1.0215931
1.5843019 1.3133984 -0.99535167
1.7040944 1.3391074 -0.96302366
1.9016597 1.2901832 -0.91030532
2.0941362 1.3206702 -0.88673288
2.2545559 1.3542402 -0.87360114
-2.422416 1.5496292 -0.88072205
-2.3009856 1.4969075 -0.90051901
-2.1396289 1.4288315 -0.94398576
-1.9608724 1.4119602 -0.98906004
-1.1436329 1.7798114 -1.0341724
-1.0682219 1.7258981 -1.012337
1.0454865 1.5901926 -0.99026281
1.1930943 1.5970135 -1.0282459
1.4129696 1.4226974 -0.99743766
1.9652424 1.4101979 -0.98500007
2.1282773 1.4212227 -0.94627154
2.2972317 1.4996461 -0.89927977
2.4213505 1.5438253 -0.87800574
-2.4384258 1.7087288 -0.89275837
-2.356312 1.6938908 -0.90345812
-1.1730745 1.7582902 -0.98897946
-1.0569856 1.7186733 -0.95970988
1.1072062 1.8016132 -0.96518081
1.2209086 1.8299901 -0.97217447
2.3447244 1.6940037 -0.90662366
2.4349637 1.7088627 -0.88998997
-2.4429669 1.8987894 -0.89854592
-2.366102 1.900422 -0.9028222
-1.2072568 2.0108237 -1.0015631
-1.0864403 1.9929788 -0.96766108
1.083227 1.9010077 -0.9769184
1.1863754 1.951136 -1.0058039
2.3429883 1.9050968 -0.91687363
2.4392717 1.8962731 -0.89490372
-2.4224596 2.0747409 -0.90241563
-2.3363726 2.1064487 -0.89882779
-1.1958473 2.1288865 -0.99129277
-1.0600165 2.1631076 -1.0218356
-0.88765049 2.1469212 -0.96401316
-0.68706679 2.1778555 -0.94729793
-0.49079198 2.2144985 -0.9448055
-0.26344019 2.2600608 -0.98619366
-0.11251583 2.1969919 -0.95827198
0.094324462 2.1827109 -0.96878022
0.26521799 2.2713346 -1.000778
0.44084492 2.1924117 -0.96613407
0.68333942 2.1979697 -0.98049819
0.94455999 2.1883323 -0.9592424
1.0507561 2.2087905 -1.0204248
1.2299112 2.1866755 -0.98884797
2.3327796 2.1091073 -0.90430444
2.4219787 2.0744505 -0.89521015
