# .PCD v0.7 - Point Cloud Data file format
VERSION 0.7
FIELDS x y z
SIZE 4 4 4
TYPE F F F
COUNT 1 1 1
WIDTH 1441
HEIGHT 1
VIEWPOINT 0 0 0 1 0 0 0
POINTS 1441
DATA ascii
2.3341477 1.6286118 -1.0320796
-2.4748769 1.8525664 -0.97561651
-2.3765018 1.8059134 -1.0479243
-2.2675085 1.7305311 -1.1290823
-1.333416 1.8583351 -1.1389372
-1.2358615 1.871593 -1.0395602
-1.0776417 1.7962036 -1.0529886
1.0799581 1.7907526 -1.0559291
1.2155122 1.8150893 -1.0407051
1.3068466 1.8585712 -1.1202586
2.2640669 1.7733408 -1.1113645
2.3446193 1.8087159 -1.0463177
-2.4740939 1.9326978 -0.96901542
-2.3700423 1.9960761 -1.0481936
-1.3340292 2.0658872 -1.1065898
-1.2281382 2.0397506 -1.054953
-1.052261 2.1046894 -1.1127146
-0.92787963 2.0893712 -1.1187592
-0.38025308 2.0889039 -1.1389377
-0.24240413 2.1286347 -1.1303426
-0.066534288 2.087472 -1.1140064
0.059612472 2.086853 -1.1517266
0.21519312 2.2115834 -1.1954298
1.0611808 2.04845 -1.1805077
1.2331014 1.9885134 -1.044806
1.3201109 2.06285 -1.1137469
2.2713251 2.0065992 -1.1243153
2.3430305 2.0114875 -1.0495063
-2.3405328 2.1757236 -1.0408349
-2.262435 2.2270262 -1.0614243
-1.3467398 2.1409757 -1.0985698
-1.2578862 2.1890168 -1.0357493
-1.0056548 2.1832242 -1.0725299
-0.81645435 2.2185755 -1.1077539
-0.6616202 2.2199121 -1.1048526
-0.45240924 2.1870949 -1.102194
-0.27412936 2.1856432 -1.1007019
-0.1037351 2.1366036 -1.0572414
0.11462953 2.1502926 -1.044691
0.28452122 2.1796613 -1.0945426
0.46135363 2.2478418 -1.1022155
0.64199334 2.2838664 -1.114363
0.83227319 2.2520523 -1.1180223
0.99337798 2.1924691 -1.1140789
1.249923 2.1883018 -1.0424666
1.3341907 2.1072271 -1.1168649
2.2596908 2.2038891 -1.0607836
2.3372312 2.1777413 -1.0367844
-2.3166857 2.3601196 -1.0389283
-2.2316585 2.3816676 -1.0487056
-1.3309059 2.4572415 -0.96710038
-1.2546724 2.3779442 -1.0386635
-0.87424052 2.2805376 -0.96244574
-0.64274782 2.2850933 -0.99105877
-0.50370359 2.2888396 -0.99866784
0.50391692 2.2974112 -1.0056874
0.66819322 2.2982099 -1.0304208
0.84671688 2.2976115 -1.0156965
1.0099533 2.3035827 -0.98069322
1.2407522 2.3813362 -1.0438046
2.2272968 2.3809779 -1.0490963
2.3163621 2.3591156 -1.0380239
-2.2979343 2.4929898 -1.0272026
-2.1753087 2.5568845 -1.043855
-2.044616 2.6263797 -1.0475636
-1.3477223 2.5990491 -1.0038868
-1.2755321 2.5588913 -1.0507214
1.2645558 2.5616217 -1.0446514
1.350443 2.6244292 -0.98177814
2.0402174 2.6195064 -1.0490371
2.1714513 2.5543346 -1.0430431
2.2959986 2.4920056 -1.0246681
-2.1224537 2.6844614 -1.0395613
-1.9833628 2.7288294 -1.0429492
-1.8086586 2.7691209 -1.0449396
-1.6094126 2.7590122 -1.0484737
-1.4334425 2.7500291 -1.0473917
-1.2812167 2.7256656 -1.0710521
1.28189 2.7351973 -1.0711235
1.4301695 2.7582417 -1.042456
1.6091028 2.7637386 -1.0493522
1.8097532 2.767004 -1.0464673
1.9823736 2.7234716 -1.0427738
2.1195736 2.681798 -1.0338273
-1.7953755 2.8509278 -1.1358408
-1.549058 2.8707697 -1.1203113
-1.4417545 2.8767655 -1.1137785
-1.2996126 2.8544853 -1.1291726
1.3127964 2.8749588 -1.1208616
1.4325917 2.8852327 -1.1069589
1.5497942 2.8754833 -1.1207424
-0.38746059 3.2266908 -0.95396876
0.14951926 3.2217247 -0.96278751
0.24849564 3.2276635 -0.95608377
-0.43701804 3.3636785 -0.99234068
-0.28032407 3.3603714 -1.0153431
-0.094124079 3.3601778 -1.0231436
0.096069738 3.3542578 -1.020965
0.26454687 3.3568895 -1.0009744
0.40485644 3.3964481 -0.96240669
-0.59204078 3.5551996 -0.97718805
-0.44919229 3.5121338 -1.0441958
-0.27410823 3.372 -1.2714213
-0.095828615 3.3690131 -1.2709519
0.095802799 3.3621936 -1.2936171
0.27793032 3.4481342 -1.170969
0.41899019 3.5379195 -0.9915458
-0.59435487 3.7139926 -0.98109585
-0.47119674 3.712399 -1.0413899
-0.26064461 3.4583833 -1.4632492
0.19684821 3.6128988 -1.3000808
0.290636 3.6320961 -1.1988767
0.421781 3.7065108 -1.0013783
-0.59827626 3.9025068 -0.98362839
-0.47584748 3.8959858 -1.0432209
-0.35987228 3.8968089 -1.1092337
0.16784963 3.8645341 -1.1202749
0.29234833 3.8772347 -1.0849128
0.41795427 3.8873549 -0.9938364
-0.58137554 4.0193505 -1.0069722
-0.45983726 4.0792069 -1.0453358
-0.33560851 4.133522 -1.0662854
0.1458379 4.1316252 -1.0902915
0.275112 4.0809884 -1.0439774
0.39857665 4.0296512 -1.0052943
-0.41059491 4.2136297 -1.0264702
-0.27917737 4.2631307 -1.0374691
-0.098142035 4.2937713 -1.050727
0.087030612 4.2624559 -1.0381664
0.22717248 4.2201109 -1.0199796
-0.22839575 4.3976417 -0.98040897
-0.10207444 4.4048181 -0.99400491
0.051106818 4.3949652 -0.98093897
-0.57297605 5.4998274 -1.1282036
-0.45350376 5.4653082 -1.07471
-0.29334977 5.4737973 -1.0709745
-0.13009657 5.4761972 -1.0888979
0.12782024 5.487174 -1.0882789
0.2914305 5.4724517 -1.07312
0.43187866 5.4745307 -1.0876477
-0.57844001 5.5909181 -1.1256526
-0.46954575 5.6126299 -1.0529455
-0.27811348 5.5817766 -1.0082595
-0.091374099 5.6124787 -1.0470213
0.093557887 5.607101 -1.0407742
0.29455069 5.5924082 -1.0255139
0.44634485 5.6196814 -1.0653433
-0.45368475 5.7920222 -1.0452352
-0.36562008 5.8614392 -1.0581621
-0.062506385 5.7542953 -1.0161188
0.050319161 5.7528772 -1.0061686
0.35463047 5.7523379 -0.97442055
0.45398554 5.7972002 -1.0496186
-0.42675179 5.9615455 -1.0368592
-0.3152045 6.0015531 -1.0540596
-0.084651373 6.0270028 -1.0817856
0.049253695 5.9852281 -1.1878563
0.34473309 6.0404911 -1.0849917
0.44181272 5.9762554 -1.0403793
-0.39365962 6.1019211 -0.98575133
-0.26866281 6.1475477 -1.020578
-0.10441583 6.1618047 -1.0265932
0.098011367 6.1685696 -1.0380951
0.29049817 6.1754861 -1.0424174
0.42530793 6.1507726 -1.0260825
-0.22169352 6.2888203 -0.97301966
-0.11620095 6.3000112 -0.9814406
0.11264317 6.3116989 -0.99082702
0.27752253 6.3155179 -0.98998654
0.4025979 6.3044696 -0.97641647
-0.20440023 -1.1543027 -0.92230564
-0.078489117 -1.1785865 -0.89216161
0.08979281 -1.1834431 -0.88339025
0.23772451 -1.1671541 -0.90323395
-0.39819685 -0.96283656 -0.90015066
-0.26279798 -1.0163975 -0.87123406
-0.098060451 -1.0456229 -0.85139322
0.094753683 -1.0544559 -0.84331048
0.27620372 -1.0298117 -0.86489296
0.41582254 -0.98549724 -0.87899226
-0.7936672 -0.77553421 -0.90484482
-0.64961189 -0.80209243 -0.86949682
-0.46403179 -0.83537877 -0.86407882
-0.3003183 -0.87743884 -0.83982646
-0.12407067 -0.91175276 -0.79118323
0.11296327 -0.93359977 -0.77619869
0.31198141 -0.89362055 -0.82323331
0.46907264 -0.84468287 -0.8591845
0.64203227 -0.80189925 -0.87146825
0.77622741 -0.77133226 -0.90468901
-0.98026818 -0.60091221 -0.8886295
-0.8417235 -0.64732778 -0.86003077
-0.67485917 -0.69465572 -0.84715909
-0.50638819 -0.7287783 -0.81973571
-0.3618823 -0.7506783 -0.76895988
0.52044916 -0.73023421 -0.8188324
0.67388254 -0.69073778 -0.84537178
0.83785057 -0.64460707 -0.86327946
0.97124386 -0.59499437 -0.89675528
-1.150986 -0.40472728 -0.91698539
-1.0234339 -0.45792538 -0.86172503
-0.89607805 -0.51261204 -0.8387965
0.75715423 -0.5671618 -0.76646209
0.89179617 -0.50442433 -0.83968651
1.0184257 -0.45581466 -0.86496627
1.149708 -0.39764982 -0.93136317
-1.5519782 -0.22952531 -0.88285428
-1.4104379 -0.25061646 -0.85870332
-1.2279564 -0.26806435 -0.85892117
-1.0735472 -0.3077541 -0.84519339
0.94755268 -0.36376917 -0.76504004
1.0683126 -0.30107221 -0.84586006
1.2279395 -0.25913382 -0.85714656
1.4048027 -0.24416627 -0.85970026
1.5481951 -0.21974085 -0.88847303
-1.5775002 -0.080399767 -0.87266725
-1.4690745 -0.10952118 -0.8401053
1.207685 -0.18717477 -0.9233616
1.4617317 -0.10492888 -0.84129399
1.5718731 -0.07730484 -0.87222606
-1.7442528 0.14111283 -0.90885514
-1.6088899 0.097047001 -0.85989565
-1.5000941 0.06291689 -0.79854041
1.4949176 0.067778938 -0.81082743
1.6029967 0.10012572 -0.86406779
1.7385527 0.14607318 -0.91580498
-1.9243228 0.34756994 -0.88836098
-1.7889134 0.30103463 -0.86754698
-1.6452477 0.26076597 -0.8349008
-1.5147308 0.19911611 -0.7635144
1.5130209 0.20147428 -0.7642622
1.6396197 0.26558441 -0.83774823
1.7834303 0.30577192 -0.87068164
1.9200659 0.35522127 -0.90738517
-1.9535576 0.49168706 -0.85883009
-1.8302189 0.44501343 -0.83853424
-1.6937762 0.39942223 -0.78155375
1.6865591 0.40314224 -0.78611815
1.8286054 0.45279258 -0.84398603
1.943436 0.49505371 -0.860111
-1.960363 0.66155118 -0.84700596
-1.8276232 0.78117031 -0.92409205
1.8469324 0.69704449 -0.89962143
1.9340872 0.66905028 -0.8460964
-1.9493287 0.84614533 -0.83461905
-1.8034513 0.88736689 -0.88773614
1.8173066 0.88538855 -0.88198262
1.9354188 0.85782713 -0.8391661
-1.9387556 1.0450304 -0.8107276
-1.8072755 1.0772579 -0.88002259
1.8063421 1.0732734 -0.87998587
1.943975 1.0491316 -0.81123322
-2.2949209 1.3265448 -0.78911591
-2.1585743 1.2839499 -0.83295602
-1.9895506 1.2472998 -0.84360641
-1.8081969 1.2354869 -0.89131218
-1.5348408 1.2949522 -0.98968595
1.6967229 1.2120863 -0.93719137
1.812637 1.2485627 -0.89226735
1.9850656 1.2530258 -0.84586549
2.1582792 1.2769748 -0.83130127
2.2937505 1.3187488 -0.80276269
-2.3311555 1.4528103 -0.84563005
-2.2027147 1.4018741 -0.8615905
-2.0169477 1.3539356 -0.90668815
-1.8823326 1.3390772 -0.93658096
-1.0271052 1.584126 -1.0634691
-0.71319735 1.6012288 -1.1040295
1.1306475 1.5103636 -0.93395513
1.1696953 1.3593147 -1.0560176
1.3438027 1.5020822 -0.94042426
1.8766936 1.3371953 -0.93755251
2.0086899 1.3825155 -0.91252935
2.2009199 1.4049351 -0.85967386
2.3323295 1.4514779 -0.84299117
-2.478034 1.6808569 -0.80983436
-2.3732052 1.6148603 -0.85593027
-2.2656364 1.5363973 -0.92969286
-1.3322666 1.616798 -0.9463194
-1.1133871 1.6666057 -1.0272959
-1.004102 1.6694746 -1.0550339
1.0335721 1.7931365 -1.0115378
1.1369551 1.7768291 -1.0217804
1.0595008 2.1114275 -1.2670119
2.2715251 1.5379926 -0.93160743
2.3678167 1.6159054 -0.85587204
2.4763319 1.6799911 -0.7942028
-2.4828231 1.8104448 -0.84763336
-2.3978853 1.8022463 -0.85752171
-1.3439027 1.8060473 -0.92740655
-1.1824805 1.9524126 -0.97498184
-0.97915041 1.963016 -1.0230819
1.0077565 1.8555481 -0.98475039
1.1405302 1.8820688 -0.97654402
1.1055235 2.0489917 -1.304352
2.3882287 1.8046474 -0.86051959
2.4783607 1.811782 -0.8308692
-2.476335 1.9277828 -0.86559182
-2.3803227 1.997817 -0.85347837
-2.2781315 2.0856035 -0.76781535
-1.3354361 1.9339283 -0.94950366
-1.1354076 2.1186843 -1.0334715
-0.95845807 2.2297251 -1.1262931
-0.038657796 2.0778565 -0.8870374
0.033757333 2.0752492 -0.87321079
1.0372576 2.1501467 -1.0138354
1.1188637 2.0623689 -1.0445951
2.3742547 2.0017984 -0.85820049
2.4727974 1.9181639 -0.83151472
-2.3417251 2.1785724 -0.85471231
-2.2707741 2.2245145 -0.84777737
-1.1820822 2.1885114 -0.93439257
-1.001114 2.1985197 -0.98706472
-0.8391754 2.2047725 -0.91559321
-0.64668548 2.2108359 -0.92230815
-0.4643974 2.2138879 -0.90610862
-0.27303165 2.1776302 -0.934605
-0.11131976 2.2033989 -0.92663449
0.10455316 2.2065005 -0.9327125
0.26696911 2.2443671 -0.95445782
0.45342511 2.2075329 -0.94170415
0.6536786 2.1841202 -0.94961017
0.83342582 2.1941934 -0.90796685
0.99100184 2.1795738 -0.99052012
1.1732795 2.195673 -0.961487
2.2723632 2.2339032 -0.87094802
2.3421056 2.1766689 -0.85206354
-2.3276007 2.3647182 -0.85799783
-2.238507 2.387321 -0.8604933
-1.3300655 2.4569185 -0.93845844
-1.2147381 2.386708 -0.85988212
-1.0673007 2.3459854 -0.81954288
-0.86212379 2.2914138 -0.85037994
-0.65737253 2.2916298 -0.8406288
-0.47356394 2.3016548 -0.83701879
-0.30070537 2.2972889 -0.82559329
-0.17017257 2.2896075 -0.82297355
0.14241441 2.291949 -0.79963791
0.30891863 2.2983408 -0.82702518
0.48525909 2.3088276 -0.83948904
0.65956831 2.3076055 -0.84373134
0.86378729 2.3091843 -0.84522372
1.0556135 2.3361933 -0.82321328
1.215741 2.382725 -0.85880852
2.23125 2.3827558 -0.86879581
2.3281879 2.3621416 -0.85311186
-2.296905 2.5036411 -0.86125499
-2.1680875 2.5494568 -0.86908644
-2.0274627 2.6235824 -0.85851157
-1.3751613 2.6138895 -0.85509664
-1.2618043 2.5529392 -0.84590673
-1.1262437 2.4803774 -0.77975458
1.1261352 2.4838283 -0.78145134
1.263046 2.5589328 -0.85022223
1.3663437 2.6297462 -0.85054219
2.0302033 2.6265929 -0.84643555
2.1603374 2.5465627 -0.87262094
2.2985208 2.5003729 -0.86062914
-2.1258407 2.6864107 -0.86335009
-1.9841795 2.7227206 -0.85923129
-1.8071865 2.7505674 -0.85508239
-1.6137007 2.7379727 -0.85445702
-1.4455775 2.7173481 -0.86388838
-1.303408 2.685643 -0.85369509
1.3041933 2.6897326 -0.86743677
1.4435815 2.7184055 -0.86294943
1.6153628 2.7387664 -0.85369658
1.8077676 2.7466979 -0.85494524
1.9825639 2.7199562 -0.85939097
2.1224377 2.6827047 -0.86170214
-0.38367277 3.0273755 -0.76551199
-0.34731138 3.0190663 -0.77150309
0.12014239 3.0206978 -0.77646065
0.25590682 3.0274913 -0.77283216
-0.43854386 3.1765068 -0.81603199
-0.28122637 3.1044722 -0.91189694
-0.1041769 3.1857295 -0.80577976
0.10158441 3.1510262 -0.8467871
0.26614788 3.1221514 -0.88799649
0.40779346 3.1940265 -0.79614556
-0.59735638 3.3664854 -0.80180037
-0.46881312 3.3091881 -0.88727826
-0.2417409 3.182992 -1.1427722
-0.10191364 3.2551174 -0.94961703
0.06149229 3.2150879 -1.0351354
0.30233991 3.2332244 -1.0159849
0.42724025 3.3316245 -0.85322207
-0.61951596 3.537719 -0.82993329
-0.51183683 3.4936535 -0.89353585
-0.36031723 3.4285014 -0.93568587
0.33066034 3.4250686 -1.0235238
0.44984972 3.5081367 -0.87140411
0.58275539 3.5731094 -0.77283096
-0.62667 3.7041583 -0.84176975
-0.53850567 3.7172441 -0.88563657
0.36105257 3.7069418 -0.92961037
0.46262735 3.7099421 -0.8494885
0.58441818 3.6938298 -0.78562438
-0.77856505 3.9617889 -0.77876085
-0.62875253 3.8936532 -0.83266962
-0.51741779 3.9024372 -0.86237216
0.33917242 3.9073749 -0.87636524
0.46054846 3.8923361 -0.84411079
0.61380285 3.9277706 -0.79489416
-0.79889977 4.1023984 -0.78146905
-0.64809984 4.0827427 -0.8084625
-0.48443186 4.0902348 -0.8661015
-0.35952201 4.1488647 -0.91043341
0.1719767 4.1552305 -0.91814405
0.29641575 4.08848 -0.88369578
0.47500604 4.0840764 -0.84314156
0.63607347 4.0931487 -0.79872864
-0.81823874 4.2781687 -0.79014063
-0.65833879 4.270102 -0.80064976
-0.46348831 4.2677379 -0.83578449
-0.30724466 4.2964702 -0.88319653
-0.093510732 4.3384933 -0.92214131
0.11858495 4.2986326 -0.89009213
0.27806497 4.2750216 -0.85202563
0.47694293 4.2769551 -0.83739948
0.64752901 4.2759109 -0.80685115
0.79347384 4.2970448 -0.7832042
-0.80095184 4.4156218 -0.78072172
-0.65983528 4.4253335 -0.79379857
-0.45101956 4.4233241 -0.79692382
-0.27690855 4.4496198 -0.83711851
-0.095276237 4.4646945 -0.85602885
0.084677592 4.4513021 -0.8364259
0.27597904 4.4363561 -0.80921799
0.47407541 4.4377327 -0.80598509
0.64304554 4.4285512 -0.80016714
0.78515762 4.4090748 -0.78082252
-0.2477261 4.588089 -0.78827852
-0.1034512 4.5977721 -0.79822505
0.064908631 4.5869541 -0.78425139
0.22027141 4.5694923 -0.76911879
0.42888188 4.5668201 -0.76899815
-0.40913126 5.4936209 -0.941836
-0.30890036 5.500587 -0.94249916
0.25198686 5.5093203 -0.94366646
-0.43322882 5.63234 -0.90559638
-0.28499961 5.6379466 -0.89503306
-0.1266513 5.6530972 -0.90910131
0.12482919 5.6540489 -0.9097982
0.28353471 5.6364508 -0.89972043
0.41242206 5.6521749 -0.9211098
-0.43228135 5.8023601 -0.87863058
-0.29848653 5.7895551 -0.84583914
-0.09305419 5.7980471 -0.85475403
0.091628745 5.7974091 -0.85465413
0.29336205 5.7957687 -0.85451502
0.42600057 5.813282 -0.88779515
-0.42009607 5.9760122 -0.86387438
-0.33124977 5.9907651 -0.84960437
-0.051261891 5.9262962 -0.80711573
0.062137388 5.8949323 -0.88777161
0.34421906 5.9739976 -0.82984239
0.4324365 5.9908056 -0.8665992
-0.39840785 6.1270461 -0.84433609
-0.28962606 6.1787586 -0.85423416
-0.088467762 6.2231474 -0.90791631
0.081582703 6.1677852 -1.0017043
0.35534316 6.1866932 -0.86248255
0.43559372 6.1706719 -0.85392737
-0.2493801 6.3385773 -0.82597744
-0.10151012 6.3598447 -0.84077352
0.099393897 6.3560476 -0.86460453
0.29732582 6.3681579 -0.86260664
0.43172035 6.3517723 -0.83176506
-0.23032552 6.4952092 -0.79134768
-0.10425644 6.5107427 -0.80207419
0.11264452 6.5194798 -0.79997826
0.281905 6.5301476 -0.80937171
0.42167962 6.5218177 -0.79844183
0.16348095 6.6681881 -0.76852822
0.27727857 6.6590843 -0.77333277
-0.23447539 -0.9744305 -0.73795599
-0.081229351 -0.99881488 -0.7158643
0.089420155 -1.006732 -0.70516425
0.25167161 -0.9867233 -0.72484493
0.38386479 -0.9560976 -0.74183369
-0.61804551 -0.77693921 -0.72751439
-0.4535197 -0.80448288 -0.70804614
-0.27367485 -0.83246768 -0.68951082
-0.096464455 -0.85115343 -0.66935986
0.098176733 -0.86324167 -0.65927392
0.27595305 -0.83908218 -0.67827779
0.45067292 -0.8156476 -0.70197237
0.60905921 -0.77675366 -0.72779226
-0.95425868 -0.57478029 -0.75331223
-0.8249945 -0.62098777 -0.69411075
-0.65864414 -0.64722532 -0.67712355
-0.47416461 -0.66849774 -0.66255462
-0.29038325 -0.68255782 -0.64132994
-0.11792575 -0.71209532 -0.61993706
0.10814109 -0.73397052 -0.59592032
0.30322647 -0.69589663 -0.63063061
0.47652587 -0.67102116 -0.65725148
0.65661305 -0.64566994 -0.67963791
0.81754458 -0.61707473 -0.69580114
-0.99758995 -0.43846846 -0.68980986
-0.8581571 -0.47535288 -0.66424942
-0.6843996 -0.51806325 -0.62497956
-0.48793066 -0.54656559 -0.59815484
-0.34061271 -0.55743754 -0.58190691
0.37530491 -0.56978631 -0.57699537
0.50346869 -0.54660457 -0.59519506
0.68713623 -0.51666212 -0.62742317
0.85570478 -0.47103691 -0.66583651
0.98889518 -0.43328303 -0.69518405
-1.3930213 -0.24511486 -0.682832
-1.231371 -0.26895124 -0.66750777
-1.0495338 -0.30061105 -0.66327339
-0.90793228 -0.34275633 -0.63203478
0.90417552 -0.33419263 -0.63922995
1.0474406 -0.29100949 -0.66483706
1.2277045 -0.26103193 -0.66940123
1.3856665 -0.23906244 -0.68317312
-1.5439115 -0.054014768 -0.72276741
-1.4198885 -0.091463447 -0.66694963
-1.3075142 -0.15092476 -0.61111349
1.2987002 -0.14164063 -0.61710906
1.4128941 -0.090324201 -0.66950154
1.5392152 -0.043822624 -0.72427034
-1.5665199 0.11709022 -0.69363517
-1.4511247 0.089719683 -0.65229094
-1.329185 0.0038232803 -0.58174896
1.3256762 0.0035478473 -0.57635593
1.443838 0.090395585 -0.65386647
1.5604663 0.11707203 -0.70002139
-1.7551719 0.33776739 -0.71116179
-1.6052989 0.29350176 -0.66970164
-1.4842824 0.24553689 -0.63401079
1.478906 0.25255695 -0.6374079
1.6007049 0.29534981 -0.67376089
1.7491294 0.3438043 -0.71733445
-1.9481807 0.51316577 -0.68434298
-1.7981268 0.48194358 -0.66838872
-1.6528765 0.4376573 -0.64476478
1.6471132 0.44283718 -0.64460921
1.7952824 0.48618802 -0.67084014
1.9429333 0.51872772 -0.68586922
-1.967247 0.6767109 -0.66833228
-1.855675 0.60083073 -0.62733531
1.8502467 0.6058954 -0.63349563
1.9629538 0.67404485 -0.66681463
-2.0975201 0.89892077 -0.58329374
-1.9782853 0.8661834 -0.6665225
-1.7007885 1.1413811 -0.80760288
1.8868858 0.89831769 -0.74411237
1.9749287 0.8671748 -0.66756856
2.0991514 0.89793861 -0.59259802
-2.1134043 1.077756 -0.60675359
-1.9858713 1.0551974 -0.66985869
-1.8070351 1.0974131 -0.76780367
1.8775345 1.0483941 -0.73561901
1.9693891 1.0652529 -0.67509091
2.1210313 1.0772524 -0.61724424
-2.2984478 1.3092616 -0.64935309
-2.1658027 1.2539089 -0.65782255
-2.0129423 1.2040367 -0.68988687
-1.7538601 1.2256136 -0.78151411
1.8860842 1.1611904 -0.74515235
2.0149238 1.2077255 -0.69430107
2.17047 1.2510762 -0.65857404
2.3024535 1.3019738 -0.65119523
-2.3369658 1.4444079 -0.66809827
-2.2286005 1.392635 -0.66572422
2.2337189 1.3904815 -0.66848058
2.3383613 1.4453391 -0.66757298
-2.4760818 1.6733352 -0.71967554
-2.3701892 1.6115272 -0.66352034
-2.2790718 1.5410298 -0.59152699
2.3699412 1.6119895 -0.66391855
2.4754355 1.6686238 -0.70640832
-2.4762287 1.7833447 -0.72230417
-2.3851829 1.8069924 -0.66047072
-2.2793159 1.8770888 -0.5737927
1.2126539 1.7450342 -0.75810719
2.3834913 1.8047401 -0.66092569
2.4751809 1.7944151 -0.72104913
-2.356982 1.9926001 -0.66717482
-2.2727561 2.0267987 -0.61589354
-0.20621079 2.0879908 -0.6082505
-0.076395325 2.0444136 -0.64637518
0.069876529 2.0879679 -0.69440359
0.20141803 2.0774097 -0.63308144
2.2776604 2.0599709 -0.58889729
2.3599055 1.994674 -0.6642468
2.4725456 1.9029646 -0.75097704
-2.3375416 2.1793699 -0.67271948
-2.26741 2.1958318 -0.64989996
-0.89359474 2.13521 -0.81778723
-0.82768166 2.1582763 -0.74719805
-0.66073775 2.1678095 -0.70988435
-0.47635236 2.1921411 -0.69654769
-0.27777404 2.2277701 -0.70777285
-0.096986607 2.1610422 -0.67406815
0.097251989 2.1633773 -0.67034805
0.28032205 2.1941824 -0.68813771
0.46925804 2.1792173 -0.70841008
0.64536327 2.1855352 -0.71159971
0.80537122 2.1559312 -0.77984178
0.95952076 2.1086655 -0.88036156
2.2713275 2.2261417 -0.63018465
2.3376424 2.1789606 -0.67012441
-2.321619 2.3617406 -0.6709767
-2.2242684 2.3843729 -0.66366029
-1.1721289 2.4345019 -0.69672143
-1.0432348 2.3851159 -0.66857296
-0.88054609 2.3167274 -0.64365655
-0.66324985 2.2943633 -0.68635792
-0.47338945 2.2955875 -0.67997009
-0.31426176 2.2934492 -0.69271421
-0.17087272 2.285368 -0.74297047
0.15020612 2.2868929 -0.74209273
0.31914169 2.2976575 -0.67236805
0.47999009 2.3065546 -0.67019993
0.66995484 2.3087106 -0.67703229
0.86424613 2.3157887 -0.64997154
1.0467412 2.3732398 -0.66478592
1.1768036 2.4308841 -0.68719894
2.222688 2.3890262 -0.66365629
2.3264272 2.3617017 -0.67044353
-2.293993 2.4916587 -0.70334858
-2.1680062 2.5480549 -0.67010319
-2.0101156 2.6005216 -0.65973818
-1.8156706 2.6432097 -0.61821187
-1.606828 2.6424141 -0.6277625
-1.4157046 2.6255894 -0.65130872
-1.2401457 2.5544839 -0.66466862
-1.0972018 2.5038624 -0.64722878
1.1053495 2.4962273 -0.64338702
1.248819 2.5547154 -0.66186112
1.4141186 2.6296074 -0.65177983
1.6067431 2.6405156 -0.63030082
1.8173919 2.6418283 -0.62479204
2.0097549 2.603508 -0.65547884
2.1638288 2.5396619 -0.67962921
2.2950301 2.4922795 -0.69527829
-2.1152999 2.6765451 -0.70525557
-1.983078 2.7049847 -0.67736804
-1.8063608 2.7196987 -0.67724037
-1.6172826 2.7172496 -0.67574871
-1.4467357 2.7106168 -0.67705268
-1.3075253 2.6756954 -0.68618888
-0.27988154 2.8390355 -0.60055244
0.071575537 2.8318176 -0.59313869
0.21991211 2.8393986 -0.59565258
1.311002 2.6768465 -0.67475384
1.4462843 2.7086544 -0.67711395
1.6172453 2.7147121 -0.67633265
1.8030931 2.7176933 -0.67694318
1.9822172 2.7022805 -0.67663443
2.1117008 2.6721604 -0.71541011
-0.40646797 2.998219 -0.64273912
-0.29657313 2.9411008 -0.69001359
-0.10042926 2.9501555 -0.65677911
0.10475212 2.9305277 -0.71017206
0.26314893 2.9588799 -0.68626839
-0.5905481 3.2043188 -0.63564092
-0.45865029 3.1521113 -0.66845149
-0.29634377 3.0052321 -0.86901647
-0.1377918 3.0175669 -0.92269266
0.10149536 2.9586554 -0.99781966
0.27995482 3.1082826 -0.72834593
0.43633765 3.1797454 -0.64633322
-0.62017262 3.3497698 -0.64672059
-0.51801866 3.3000593 -0.69368213
-0.21534808 3.2482669 -0.74044383
-0.088987701 3.2519133 -0.73430669
0.040719662 3.2503068 -0.74063373
0.35715443 3.2359438 -0.77874506
0.46048477 3.3165131 -0.69028115
0.58944154 3.3751931 -0.60282493
-0.77795208 3.5754051 -0.60520643
-0.64689219 3.5187261 -0.66245872
-0.55821717 3.4515073 -0.72294492
0.49974597 3.5103164 -0.67218977
0.60327566 3.5370877 -0.63747358
-0.80460083 3.7306271 -0.61561161
-0.67102224 3.7028198 -0.6749028
-0.55834788 3.7610071 -0.73847878
0.51259702 3.6988282 -0.69984341
0.63140506 3.7181947 -0.63824093
0.77227706 3.7811792 -0.58394086
-0.95932692 3.9474049 -0.59844691
-0.83240455 3.9013126 -0.65417653
-0.6913569 3.8804979 -0.70760447
-0.551467 3.8487515 -0.74745494
0.52233267 3.8560917 -0.73430616
0.66858917 3.8963063 -0.66685414
0.79137111 3.9239063 -0.61635268
-0.98386568 4.1083899 -0.61901444
-0.83798116 4.0579205 -0.75002718
-0.65463519 3.9923096 -0.93019789
0.69923431 4.0792108 -0.68495452
0.81338072 4.0754275 -0.69780177
-0.99185008 4.2702222 -0.62755418
-0.85843182 4.2127471 -0.82768112
-0.64790034 4.0785222 -1.2707789
-0.48012286 4.3190532 -0.73753315
-0.3661575 4.3515348 -0.73297745
0.18511409 4.3620954 -0.73647428
0.2368152 4.3396916 -0.74035776
0.72028267 4.2519765 -0.77554345
0.82236558 4.2526765 -0.70198792
-0.97355258 4.4113116 -0.61330473
-0.83144909 4.4105659 -0.72635418
-0.66604966 4.435164 -0.75628692
-0.47364053 4.4821191 -0.67011362
-0.31018177 4.4982805 -0.7009176
-0.097704567 4.5343723 -0.73657811
0.12024181 4.5071774 -0.70885473
0.28710559 4.4947467 -0.68326122
0.47909582 4.5035615 -0.68222743
0.67081058 4.4689946 -0.6659025
0.8166942 4.4118524 -0.68288606
-0.79520398 4.5749478 -0.60825557
-0.6579445 4.5871243 -0.61860162
-0.45421138 4.5996346 -0.61829877
-0.27703315 4.6370006 -0.64440012
-0.094941802 4.6545377 -0.66437262
0.089904994 4.6429687 -0.64579242
0.2731595 4.6099849 -0.62859815
0.47552592 4.5952859 -0.63341796
0.6388467 4.5861664 -0.62819332
-0.24413463 4.7802992 -0.59630877
-0.099710941 4.7852077 -0.6084941
0.071642332 4.7795486 -0.5969221
0.19857591 4.7546721 -0.57500672
-0.39172268 5.8573036 -0.73445064
-0.27465135 5.8405881 -0.70712811
-0.11052568 5.8471656 -0.70770806
0.11083855 5.8530416 -0.71958089
0.27290171 5.8424606 -0.7142483
0.39891666 5.8792028 -0.74526727
-0.39224595 5.9804616 -0.73695385
-0.28123322 5.9925461 -0.67593783
-0.089344598 5.9807572 -0.66317338
0.090742297 5.9862399 -0.66626209
0.28859878 5.9894013 -0.67406136
0.41088137 6.0044923 -0.70980847
-0.38498271 6.1320772 -0.73135823
-0.28781042 6.1758194 -0.66779512
-0.079157077 6.1234994 -0.61288226
0.083372876 6.1440053 -0.62012053
0.31613457 6.1622567 -0.64990288
0.42473805 6.1870279 -0.68073732
-0.38200256 6.3424211 -0.60434127
-0.2796967 6.3651552 -0.66711307
-0.097332314 6.4301672 -0.74118543
0.022197414 6.2223215 -1.0346311
0.36889997 6.3407526 -0.67688698
0.43648237 6.3699641 -0.66158748
-0.25131312 6.5302739 -0.64449143
-0.098128915 6.5563641 -0.6677447
0.088379197 6.5697966 -0.66916233
0.29880071 6.5896683 -0.68890572
0.43911752 6.5463471 -0.65251839
-0.20837489 6.6639686 -0.59775364
-0.092450954 6.6703649 -0.61139268
0.1208069 6.687191 -0.6293295
0.28084648 6.6988602 -0.63805234
0.41689739 6.6874466 -0.62956607
-0.20754619 -0.77279949 -0.56749964
-0.067272797 -0.79481733 -0.52174789
0.090451926 -0.80695099 -0.51241624
0.23587981 -0.78616858 -0.52921873
-0.78979653 -0.57370281 -0.56565523
-0.63642257 -0.5990715 -0.53621405
-0.4633536 -0.61305815 -0.52007765
-0.27236578 -0.63540477 -0.4934701
-0.10244282 -0.6710906 -0.47471535
0.095972836 -0.69586307 -0.46963373
0.2841509 -0.65887439 -0.4810349
0.45344257 -0.6205532 -0.50398225
0.63410252 -0.59983599 -0.53679127
-0.97041374 -0.39738327 -0.52959651
-0.83551443 -0.4367485 -0.49579367
-0.66410959 -0.46372232 -0.4818188
-0.47710577 -0.48604211 -0.46436054
-0.30405372 -0.51986301 -0.45823774
-0.17147025 -0.54927301 -0.40602618
0.34721184 -0.54120928 -0.45509353
0.48271272 -0.49532488 -0.46355233
0.66197616 -0.46360254 -0.48179558
0.83027315 -0.43482578 -0.4971911
0.95730907 -0.38943279 -0.54332989
-1.3561753 -0.22330967 -0.52355522
-1.2181809 -0.25092825 -0.48769638
-1.0423743 -0.28018412 -0.47376204
-0.86721069 -0.32062334 -0.46632895
-0.69563264 -0.35821608 -0.4218559
-0.55397046 -0.37548408 -0.39006311
0.55307043 -0.37726164 -0.38704801
0.69820786 -0.35591102 -0.43115827
0.86592692 -0.31282499 -0.46821031
1.03888 -0.27147719 -0.47856808
1.215116 -0.24473639 -0.49106866
1.3511505 -0.21460707 -0.52998453
-1.3806968 -0.078705654 -0.49495566
-1.2604048 -0.10966062 -0.46346164
-1.1222647 -0.18238294 -0.40082514
1.1128274 -0.17556031 -0.40839553
1.2524838 -0.10685372 -0.46504611
1.3743221 -0.076677896 -0.49781069
-1.5339736 0.16329935 -0.54946125
-1.4088942 0.10303823 -0.48347798
-1.304976 0.059717197 -0.43168816
1.2991272 0.068644114 -0.43857795
1.4007541 0.10476569 -0.48531482
1.5301225 0.17220351 -0.55149812
-1.5745988 0.31192684 -0.4890005
-1.4570156 0.27002797 -0.46774051
1.3243701 0.19601399 -0.39273822
1.4493991 0.2722705 -0.47016644
1.5701869 0.31903115 -0.48935843
-1.9280207 0.54969943 -0.52773547
-1.7805518 0.51122481 -0.48861164
-1.6280199 0.46184576 -0.47254708
-1.5063844 0.39417303 -0.4347842
1.4994867 0.39999884 -0.44350213
1.6225295 0.46706501 -0.47377491
1.7791853 0.51651287 -0.48883289
1.9230603 0.55304348 -0.53396839
-1.9636952 0.69061774 -0.48248124
-1.8233438 0.63593417 -0.46360624
-1.6957521 0.58533162 -0.41325569
1.6901573 0.58452934 -0.42847043
1.820911 0.63824266 -0.46481162
1.9617459 0.69222409 -0.48342782
-2.1151836 0.88404489 -0.46045581
-2.0112431 0.84691805 -0.47767472
-1.8950016 0.76527572 -0.39585829
1.8877738 0.76214826 -0.39915377
2.0073776 0.8452369 -0.47749972
2.1186357 0.88722771 -0.46662164
-2.1334362 1.0603924 -0.46743667
-2.0421283 1.0392131 -0.49255151
2.0422189 1.0408027 -0.49346238
2.1414869 1.0615487 -0.46650919
-2.2957439 1.2993515 -0.49878967
-2.1702662 1.2391142 -0.47410476
-2.0715671 1.1728318 -0.50356525
2.0766664 1.1632621 -0.53995967
2.1769302 1.2340738 -0.47407231
2.3015366 1.2954975 -0.48861715
-2.3242886 1.440374 -0.48786369
-2.2270036 1.4152118 -0.46684936
2.2307913 1.4132563 -0.46561509
2.3254371 1.439997 -0.48763505
-2.3437288 1.6201535 -0.48554927
-2.257946 1.5997803 -0.43232054
2.2576461 1.59674 -0.43322814
2.3436866 1.619819 -0.48607048
-2.3462491 1.8021624 -0.48487672
-2.2638824 1.8164953 -0.43890709
2.2717237 1.7976359 -0.40844551
2.3476212 1.8053254 -0.4822602
-2.3351498 1.9895655 -0.48318869
-2.2546341 2.0011811 -0.46479675
-0.780487 2.0688145 -0.41861722
-0.64773721 2.0438907 -0.44154623
-0.52136081 2.0553391 -0.44462809
-0.083937258 2.0133669 -0.6769079
0.10330333 1.9784285 -0.75364691
0.22396737 2.0898533 -0.56028819
0.53789556 2.0708027 -0.41379499
0.64704555 2.0627015 -0.41535988
0.77625191 2.0847905 -0.40226534
2.2643344 2.0154231 -0.44564795
2.3391995 1.989555 -0.48376375
-2.3236704 2.1793885 -0.48373705
-2.2382083 2.1935325 -0.46655238
-0.97137165 2.2693233 -0.40873992
-0.83974087 2.2027581 -0.49767917
-0.66848063 2.1530304 -0.49951407
-0.47544813 2.1846626 -0.48491272
-0.26914036 2.1415932 -0.65628511
-0.10381381 2.1594176 -0.59393996
0.1035048 2.1421506 -0.64551198
0.26250204 2.1273441 -0.66432995
0.48054242 2.1889586 -0.49330699
0.66066217 2.177413 -0.48463449
0.81654388 2.1969035 -0.48218822
2.244982 2.1957881 -0.46046486
2.3295064 2.1797733 -0.48380643
-2.305119 2.3372264 -0.50396836
-2.1912572 2.38146 -0.47099212
-2.0700409 2.4460554 -0.43056887
-1.1696498 2.4458106 -0.4329052
-1.0313559 2.3782358 -0.47211239
-0.88106161 2.3217101 -0.50544608
-0.72393036 2.2886312 -0.50971526
-0.43951669 2.3217707 -0.45318303
-0.28444263 2.2855902 -0.54731923
-0.087641045 2.349968 -0.44186583
0.10041031 2.3074739 -0.5279749
0.28098395 2.2969255 -0.54519981
0.44934219 2.2989936 -0.52855754
0.72027111 2.3055167 -0.53513318
0.86796987 2.3113711 -0.50770384
1.0374988 2.3854442 -0.47194126
1.1727662 2.4471285 -0.4591074
2.0698109 2.4521337 -0.42182815
2.193068 2.3834882 -0.4716846
2.3098552 2.3429134 -0.49886256
-2.149601 2.5240304 -0.49208117
-2.0014095 2.5675681 -0.47294113
-1.8092786 2.6066127 -0.46411687
-1.6154931 2.6045363 -0.46442282
-1.4242222 2.5967619 -0.46499959
-1.2447114 2.548995 -0.47880426
-1.0919008 2.5055625 -0.49178749
-0.20336497 2.6339033 -0.38425303
-0.075631693 2.5689349 -0.40586776
0.080557264 2.5574539 -0.40775499
0.25587925 2.5133002 -0.39360064
1.1018764 2.4938803 -0.48918858
1.2481897 2.5421817 -0.4764567
1.4223462 2.596421 -0.4670215
1.6154774 2.6038208 -0.46560284
1.8090283 2.6048377 -0.46467808
1.9995892 2.5678339 -0.47520033
2.1505919 2.5232673 -0.49292639
-1.9518583 2.6837554 -0.51069635
-1.8065128 2.6931708 -0.49490836
-1.6155579 2.6926415 -0.49600661
-1.4511145 2.6895506 -0.49467742
-1.3287902 2.6752694 -0.55465055
-0.24824987 2.8030527 -0.44282141
-0.085528485 2.7738249 -0.4478474
0.089754999 2.7617712 -0.47119546
0.22507867 2.800451 -0.45098361
1.3185235 2.665957 -0.53229034
1.4479768 2.6876585 -0.49491009
1.6176711 2.6886034 -0.49663574
1.8068767 2.6890779 -0.49541828
1.9439203 2.6803033 -0.51494449
-0.41458002 2.9913588 -0.46616507
-0.29733169 2.9263861 -0.50833863
-0.030767307 2.7600543 -0.85657549
0.097397819 2.8190565 -0.72297901
0.25643376 2.9708581 -0.46826574
0.40405348 3.0246062 -0.43362072
-0.61250478 3.1848764 -0.46138057
-0.47636214 3.1341248 -0.47591454
-0.35891706 3.0599864 -0.48500034
-0.07059066 3.0507178 -0.5631274
0.0011233398 3.0508695 -0.56896687
0.31221494 3.1049519 -0.48385054
0.44456398 3.1683698 -0.46320182
0.5931443 3.2075987 -0.42791325
-0.77459371 3.3798749 -0.41306591
-0.64554054 3.3321612 -0.47066301
-0.55233622 3.267556 -0.51524258
0.50452 3.3178368 -0.48378778
0.61116338 3.3476675 -0.45549935
-0.80322462 3.5447586 -0.44993597
-0.69694042 3.5047901 -0.48326698
0.54226506 3.4792113 -0.51802713
0.6362285 3.5238624 -0.46204972
0.76719809 3.5930147 -0.41486076
-0.95630455 3.784133 -0.41472146
-0.82971084 3.7134099 -0.46605411
-0.73494953 3.6638706 -0.5128665
0.68199188 3.7000091 -0.47797906
0.78483272 3.7369289 -0.44676989
-0.98039222 3.9236696 -0.45559007
-0.87625718 3.8800972 -0.51161516
0.72548884 3.8739133 -0.49160972
0.80737579 3.9054143 -0.47744992
-0.9995926 4.0922565 -0.47809586
-0.90889484 4.0427647 -0.53416699
0.75269395 4.0253716 -0.545165
0.83116454 4.0837417 -0.48724908
0.95187682 4.1742845 -0.44566241
-1.0084738 4.2629938 -0.48688087
-0.9359116 4.2727718 -0.56794477
0.84568179 4.2691298 -0.49688938
0.95442182 4.2432718 -0.4761194
-0.98927045 4.424726 -0.46775523
-0.86247551 4.4438844 -0.53863996
-0.68284047 4.4905214 -0.56910181
-0.50046659 4.5391922 -0.53383452
0.30399045 4.5505176 -0.55602944
0.51547056 4.5477896 -0.5204947
0.68564743 4.4925399 -0.47411713
0.81724608 4.4354939 -0.48922038
-0.80644864 4.5835171 -0.46520853
-0.65549642 4.6123915 -0.46234
-0.46990427 4.644609 -0.46867576
-0.31316704 4.6879754 -0.4987053
-0.095571719 4.7306776 -0.54631561
0.1223923 4.6990805 -0.51195353
0.28759414 4.6635718 -0.47860032
0.47180623 4.6308193 -0.46839163
0.64120245 4.6019592 -0.4664031
0.7625854 4.5679913 -0.4843868
-0.41063833 4.7808151 -0.42067388
-0.27174297 4.8123951 -0.45411864
-0.094722226 4.8282757 -0.4660359
0.086149141 4.816648 -0.45602763
0.25345024 4.7921214 -0.43010637
0.39489058 4.7599602 -0.39125714
-0.088619843 4.9456491 -0.39239612
-0.23392613 6.0254359 -0.5466966
-0.10263062 6.0324068 -0.54192388
0.12309609 6.038312 -0.55242604
0.25071612 6.0266099 -0.54885268
-0.25404066 6.1981883 -0.50204158
-0.093555525 6.1870484 -0.4819788
0.090301998 6.1983142 -0.496966
0.27698812 6.1994343 -0.50254214
0.40984988 6.2297602 -0.51585746
-0.38175327 6.38515 -0.54729152
-0.27096871 6.3678637 -0.4789134
-0.10758922 6.3163142 -0.41668722
0.098694235 6.3395624 -0.43251482
0.30184737 6.3521786 -0.4545497
0.43397081 6.3848486 -0.49219409
-0.26127326 6.5468397 -0.47396442
-0.096869066 6.6011863 -0.47796816
0.072522856 6.5940418 -0.46815392
0.35697439 6.5567474 -0.4325152
0.43932453 6.5548425 -0.47844678
-0.22426523 6.6739283 -0.46335718
-0.096457548 6.68501 -0.46981704
0.10864408 6.6976318 -0.47448483
0.2851719 6.7128201 -0.4725028
0.43312123 6.6982045 -0.47852218
-0.028785622 -0.76919144 -0.3681834
0.077300012 -0.77175748 -0.35774648
-0.24414726 -0.60250545 -0.31918317
-0.085019283 -0.63470507 -0.29814461
0.094528928 -0.64402109 -0.29253414
0.2656852 -0.62693381 -0.30103379
0.40895122 -0.59557325 -0.33807844
-0.81203842 -0.40500459 -0.33256871
-0.65262717 -0.42195505 -0.30820507
-0.4651666 -0.44347921 -0.29970774
-0.28729603 -0.47479922 -0.28179863
-0.11499271 -0.51930153 -0.26019281
0.099530615 -0.54466653 -0.2417445
0.30159077 -0.50320411 -0.26750022
0.46453044 -0.45679 -0.29413363
0.64686608 -0.42260069 -0.30768335
0.79622281 -0.39989433 -0.33089361
-1.1910096 -0.22719476 -0.32267171
-1.0304197 -0.25283954 -0.2997691
-0.85389888 -0.28063774 -0.28591052
-0.67081511 -0.31204438 -0.27233258
-0.49281764 -0.34559602 -0.26433372
-0.34847406 -0.3707194 -0.20720132
0.5117982 -0.34935531 -0.25330099
0.67222196 -0.31037179 -0.27329558
0.85302037 -0.27593249 -0.28964615
1.0301403 -0.24506572 -0.30274761
1.1863315 -0.22335961 -0.33285302
-1.3491435 -0.043888863 -0.35132977
-1.2197502 -0.082857609 -0.2981711
-1.066878 -0.12786944 -0.25959331
-0.89181203 -0.1629533 -0.2192467
-0.73495537 -0.18631959 -0.19393738
0.74329787 -0.17708457 -0.19143307
0.88110638 -0.15935232 -0.22424957
1.063518 -0.11948779 -0.26534358
1.2155427 -0.080397286 -0.30273688
1.3460677 -0.035638839 -0.35618782
-1.3783364 0.11953367 -0.30839765
-1.2515906 0.087368265 -0.27394703
-1.1264566 0.024819059 -0.20542496
1.1208501 0.02991127 -0.21478063
1.2444916 0.090771951 -0.27687359
1.3739028 0.12564975 -0.31551474
-1.5582666 0.33316708 -0.3123261
-1.4194744 0.28732702 -0.28713042
-1.2910025 0.23824064 -0.24051985
1.2877368 0.24720299 -0.24839675
1.4146718 0.29130074 -0.28927445
1.5554239 0.34126428 -0.31922531
-1.7545961 0.53080171 -0.31145149
-1.6041452 0.48815629 -0.29027075
-1.4697329 0.43784001 -0.25394279
1.4637368 0.44411436 -0.2566438
1.6010052 0.49133381 -0.29220355
1.7527146 0.53633845 -0.3147524
-1.9571596 0.70931739 -0.30023152
-1.8010255 0.67006451 -0.28756282
-1.6514757 0.61516339 -0.25790232
1.5087593 0.57401979 -0.19242196
1.6467237 0.61949515 -0.25890306
1.8006034 0.67307377 -0.28770173
1.9560025 0.71327364 -0.3030906
-2.116601 0.89181906 -0.30429626
-1.9965576 0.8500669 -0.28372785
-1.8604612 0.78982836 -0.23822278
1.8546065 0.78811407 -0.24362208
1.9974993 0.85010529 -0.28420269
2.1204185 0.89079535 -0.30208451
-2.1322339 1.0539387 -0.29427111
-2.0396113 1.0419669 -0.27182603
2.0482254 1.0378824 -0.27065843
2.1382625 1.0556537 -0.29249001
-2.1501906 1.2444812 -0.29906517
-2.0383308 1.2287863 -0.25263569
2.0431931 1.2321393 -0.24453957
2.1540873 1.2407154 -0.29680833
-2.3015099 1.4627723 -0.34127176
-2.1796203 1.4258815 -0.28843451
-2.0448141 1.3996947 -0.2239311
2.0465987 1.4087194 -0.22265594
2.1817558 1.4268121 -0.28978273
2.3029745 1.4543793 -0.34333766
-2.3135905 1.6277384 -0.30978861
-2.2102911 1.6082022 -0.27353624
-2.0845578 1.5295143 -0.20300674
2.076628 1.5404277 -0.20157412
2.2064035 1.6097925 -0.27271318
2.3155003 1.6270082 -0.31454825
-2.3176486 1.8032358 -0.2972129
-2.2284765 1.8036687 -0.27375188
-0.81820482 1.8593332 -0.2278873
-0.66293925 1.8508471 -0.25291702
-0.53771865 1.8727221 -0.23306152
0.56054318 1.8902341 -0.20531496
0.67262489 1.8680358 -0.23006412
0.80601251 1.8739828 -0.21905014
2.2326727 1.7999886 -0.26989007
2.3255358 1.8053606 -0.29910016
-2.3067017 1.9826926 -0.30829847
-2.2180519 1.9982802 -0.27560815
-0.97616982 2.0365114 -0.21184227
-0.84304094 1.9979624 -0.2671015
-0.66309333 1.9790437 -0.29561472
-0.49855465 2.0038328 -0.27643269
0.51557809 2.0130286 -0.26638213
0.65961224 1.9947484 -0.28361082
0.83840764 2.0047011 -0.25285763
0.96796834 2.048907 -0.20550229
2.2286017 1.9973328 -0.2762771
2.3170009 1.9885873 -0.29908398
-2.2980938 2.1617785 -0.33623621
-2.1943831 2.1881943 -0.27743611
-2.0855896 2.2663333 -0.210062
-1.1505431 2.2654397 -0.20752549
-1.0199927 2.2145052 -0.25849405
-0.88246799 2.1685834 -0.30975544
-0.65830261 2.1097991 -0.35472825
-0.46810973 2.183295 -0.28670749
-0.2184377 2.2566221 -0.3585425
-0.028812038 2.160583 -0.73467577
0.15605414 2.25877 -0.36332008
0.13941592 2.1807005 -0.74019057
0.48563394 2.1853225 -0.28459346
0.64719063 2.1233675 -0.33861583
0.87066597 2.1756413 -0.30133438
1.0064089 2.222687 -0.2466791
2.201767 2.1899908 -0.27590004
2.3033993 2.1634634 -0.32269692
-2.282191 2.294024 -0.3518115
-2.1609046 2.362205 -0.29691562
-2.0261917 2.4134495 -0.26755959
-1.8401352 2.4596446 -0.20697773
-1.5843657 2.4536488 -0.22248606
-1.4188874 2.4410899 -0.23042141
-1.2187696 2.3995416 -0.26561427
-1.0701303 2.3502111 -0.30249679
-0.91495299 2.3090279 -0.33376098
-0.44101778 2.3622999 -0.2765882
-0.28132394 2.2820473 -0.54605108
-0.12565047 2.2546787 -0.56909388
0.13223946 2.1997406 -0.6798318
0.24305907 2.2614059 -0.57738864
0.44431144 2.3382559 -0.34086013
0.91081566 2.3146231 -0.33871624
1.0620847 2.3490729 -0.29761687
1.2176352 2.4065635 -0.26929477
1.4179004 2.4455886 -0.22462836
1.5814872 2.4525433 -0.21858627
1.8348129 2.4588575 -0.20921446
2.0233052 2.4199097 -0.26503709
2.164475 2.3622839 -0.29580766
2.2895231 2.3038285 -0.36110371
-2.1225855 2.4999869 -0.32505226
-1.9826094 2.5345304 -0.29773989
-1.8105851 2.5561175 -0.2858327
-1.6155566 2.5538657 -0.29016948
-1.4317665 2.5465329 -0.29439896
-1.2653681 2.5169322 -0.31166926
-1.1114475 2.4889331 -0.35393938
-0.42171913 2.531193 -0.23136632
-0.26841611 2.5281179 -0.34568778
-0.099127844 2.4755189 -0.54026413
0.081594817 2.4629576 -0.58882105
0.28434214 2.496377 -0.41990763
0.41886482 2.5001259 -0.34102139
1.1285092 2.484482 -0.36010417
1.2665826 2.5145719 -0.3126446
1.4312167 2.5464666 -0.29403341
1.6149218 2.5523679 -0.29125503
1.80619 2.5553026 -0.2861757
1.9827009 2.533915 -0.29912814
2.1253746 2.4968221 -0.32079351
-1.9002793 2.6682138 -0.37103868
-1.7891327 2.6667714 -0.36135721
-1.5999407 2.6656022 -0.37001151
-1.4765579 2.6688159 -0.36442751
-0.57442629 2.8329282 -0.20143747
-0.43460599 2.7766807 -0.21093957
-0.26676098 2.7636662 -0.26886037
-0.1177922 2.5876389 -0.66951901
0.10392615 2.6403337 -0.55281365
0.26097918 2.7449732 -0.31011948
0.43720654 2.7729158 -0.2229867
0.57658631 2.8330648 -0.20125008
1.4799532 2.665581 -0.37312883
1.6523713 2.6625049 -0.37326509
1.7749153 2.6639242 -0.37158194
-0.59557968 2.9804058 -0.20841265
-0.44955593 2.9716694 -0.25357589
-0.31483835 2.9288726 -0.29131866
0.17533717 2.8980267 -0.32089731
0.28454337 2.9465089 -0.28573218
0.45873147 2.9438155 -0.28248438
0.59363121 2.9762461 -0.22209501
-0.63352334 3.1687169 -0.26713336
-0.49424538 3.1104338 -0.29135516
-0.36745188 3.0519209 -0.33014879
0.33302912 3.0846024 -0.31998026
0.47224385 3.129245 -0.29085252
0.61164778 3.1715717 -0.24793237
-0.78907573 3.3589294 -0.26616982
-0.6865409 3.3204396 -0.28743759
0.54011232 3.278579 -0.31050986
0.63680947 3.3415883 -0.27437049
0.76976168 3.4002161 -0.2034142
-0.81439137 3.5290432 -0.27749768
-0.73264796 3.4971883 -0.29103726
0.67523712 3.5141845 -0.28524667
0.77734643 3.5450904 -0.25945231
-0.95946562 3.7794607 -0.27818447
-0.84814602 3.7040927 -0.28309572
-0.75443625 3.6175778 -0.34141791
0.70781827 3.6960769 -0.2890299
0.79343534 3.7236004 -0.27605918
-0.98848408 3.9112291 -0.2828986
-0.89919227 3.8833277 -0.28548554
0.73847663 3.8465967 -0.30251777
0.82404965 3.9079633 -0.27871346
-1.0070903 4.0917077 -0.2887716
-0.93140155 4.0734882 -0.26407999
0.84577119 4.0893197 -0.28332067
-1.0046258 4.2618899 -0.30513886
-0.91811663 4.2971644 -0.26521698
0.74028653 4.3424459 -0.25238067
0.83164334 4.2708292 -0.28914201
-0.98111355 4.4132705 -0.30538616
-0.85465103 4.463882 -0.2843233
-0.72671598 4.5112505 -0.312718
0.56359559 4.5538368 -0.28370434
0.68175727 4.4797306 -0.28195056
0.80046397 4.420156 -0.31562662
-0.79800308 4.5931735 -0.28822914
-0.65828842 4.6446319 -0.28249067
-0.49325165 4.6931758 -0.3033931
-0.36070064 4.7293043 -0.355023
0.17998201 4.7439585 -0.37099898
0.31789267 4.7115731 -0.3237581
0.48983815 4.6679964 -0.28757477
0.62923545 4.6189265 -0.28121793
-0.59276438 4.7722607 -0.22400457
-0.45455903 4.8106194 -0.2670835
-0.29216561 4.857739 -0.29005343
-0.098132327 4.8881373 -0.29547366
0.10148438 4.8724627 -0.2929216
0.27782956 4.8309197 -0.27792943
0.43955985 4.7927942 -0.25432059
0.57682008 4.7673531 -0.19705081
-0.24746428 4.9595284 -0.24522686
-0.096104033 4.9706488 -0.25945848
0.077297166 4.9643135 -0.25153956
0.22500525 4.9536514 -0.22183052
-0.22227903 6.2445788 -0.36249048
-0.097218648 6.2373538 -0.35100806
0.064314581 6.2381668 -0.35490748
0.27903205 6.2537231 -0.36461359
-0.24241306 6.3911362 -0.32246462
-0.094035663 6.3789592 -0.30483338
0.087445118 6.3841691 -0.32158569
0.27461061 6.3912983 -0.33044171
0.41146028 6.4118867 -0.35024685
-0.24215162 6.5393109 -0.31311023
-0.096377395 6.5521021 -0.2901161
0.093982026 6.5495706 -0.30629978
0.2837078 6.5580845 -0.30465996
0.42383891 6.5578141 -0.3259109
-0.22555915 6.669158 -0.33836395
-0.10125148 6.6797023 -0.33266312
0.11974296 6.6926141 -0.33286962
0.28063783 6.7017536 -0.32086724
0.41921765 6.6888742 -0.33263755
-0.065068163 -0.59505284 -0.12377259
0.090298817 -0.60576117 -0.11538598
0.23153022 -0.58990395 -0.13233049
-0.60980231 -0.39300326 -0.16698216
-0.44994572 -0.41705003 -0.13940072
-0.26472273 -0.44309548 -0.11237352
-0.10351665 -0.47872552 -0.094540045
0.097250879 -0.50403982 -0.084526628
0.28366023 -0.46669105 -0.10062018
0.44649351 -0.42707011 -0.12148441
0.60428411 -0.39432424 -0.16742747
-1.0132619 -0.21761963 -0.15898454
-0.84354895 -0.24203935 -0.14054249
-0.65515274 -0.2632055 -0.11776034
-0.47435999 -0.28341153 -0.096359305
-0.29165682 -0.30781597 -0.073786825
-0.17517646 -0.35643637 -0.047893561
0.34004262 -0.32275414 -0.061740823
0.47496191 -0.28910953 -0.088969916
0.65285915 -0.26362815 -0.11817991
0.83805478 -0.23813365 -0.14235595
1.0026143 -0.21643263 -0.16521382
-1.180793 -0.056563918 -0.14275727
-1.0367835 -0.080103792 -0.11245035
-0.85340828 -0.097407825 -0.09303882
-0.67362744 -0.10767134 -0.073570028
-0.48722836 -0.12029498 -0.03869101
-0.31958348 -0.14377111 -0.018549137
0.36581579 -0.1575556 -0.0083637498
0.49588692 -0.12717856 -0.034050126
0.67447156 -0.10779162 -0.073275954
0.85170496 -0.093955532 -0.097339451
1.032093 -0.074702986 -0.1169536
1.1739001 -0.046505209 -0.14893204
-1.3463411 0.17153472 -0.16669384
-1.2113248 0.11067188 -0.11361303
-1.0630335 0.079599962 -0.070833959
-0.86274284 0.054129288 -0.035708427
-0.6959942 0.032344986 -0.022851195
-0.54727441 0.016180953 -0.0023794968
0.56686574 0.015982628 -0.0055575371
0.69953805 0.037557937 -0.025245642
0.86547166 0.060010586 -0.040426385
1.059799 0.085809298 -0.077612929
1.2050999 0.11567498 -0.1160058
1.3440312 0.1720859 -0.17535254
-1.5271827 0.36395797 -0.17777736
-1.3883556 0.31725109 -0.12048414
-1.2505888 0.27727941 -0.089123093
-1.1156794 0.22065608 -0.019483754
1.1076601 0.22897612 -0.028365441
1.2426993 0.27959007 -0.092161871
1.3820761 0.32221663 -0.12586351
1.521829 0.37488723 -0.18917918
-1.7218481 0.56315851 -0.17283826
-1.5793105 0.51368612 -0.11910877
-1.4273742 0.47174785 -0.092797406
-1.2976207 0.42304805 -0.055767465
1.2894021 0.42799091 -0.060374428
1.4231981 0.47589433 -0.094733745
1.5764751 0.52088308 -0.12183697
1.7206764 0.56651527 -0.18089998
-1.9280384 0.73473603 -0.15571022
-1.7774237 0.69809943 -0.11727636
-1.6212199 0.65849769 -0.092929631
-1.4822994 0.60220033 -0.046337608
1.4788393 0.60500938 -0.055245157
1.6190501 0.66161984 -0.093876906
1.7760359 0.70077127 -0.11898495
1.9304347 0.7391634 -0.15652041
-2.1002147 0.92311299 -0.181023
-1.9645708 0.87602329 -0.12543221
-1.8111436 0.84584123 -0.087181747
-1.6756927 0.79461282 -0.043086912
1.6733997 0.79379255 -0.047803216
1.8102543 0.84518254 -0.087206319
1.9649781 0.87499243 -0.12315451
2.1010151 0.92527229 -0.17334254
-2.1025434 1.0603426 -0.16828226
-1.9772267 1.0461445 -0.11578348
-1.8291488 1.0463852 -0.058593553
-1.7001146 1.1267735 -0.0017193556
1.8338357 1.0460523 -0.055188227
1.9808949 1.0463172 -0.11054484
2.1080809 1.0534186 -0.16542488
-2.1087534 1.2555124 -0.17049152
-1.9775769 1.2321657 -0.1208377
-1.817407 1.2395623 -0.072000124
-1.6885043 1.2584373 -0.02459483
1.699152 1.2758113 -0.014115891
1.8190142 1.2413042 -0.065780401
1.980509 1.2333497 -0.11561729
2.1117933 1.2404667 -0.16642509
-2.1388497 1.4472489 -0.14352736
-1.9858731 1.4309605 -0.11255428
-1.8119935 1.4203168 -0.073307581
-1.6724 1.4339336 -0.041321404
1.6813196 1.4385107 -0.035496522
1.8149397 1.4226707 -0.071368106
1.9845392 1.4296569 -0.11179849
2.1337826 1.44293 -0.15253833
-2.2886884 1.6851597 -0.1686521
-2.1641259 1.6245763 -0.11720193
-2.0066328 1.6041671 -0.071439728
-1.8079236 1.5996506 -0.040983133
-1.6618963 1.6003592 -0.022423314
1.6709012 1.6048844 -0.023067025
1.8134605 1.6006267 -0.041534945
2.0048623 1.6059434 -0.077905975
2.1602254 1.6275483 -0.12081985
2.284611 1.6950474 -0.17143624
-2.290787 1.7982317 -0.16855799
-2.17611 1.8066843 -0.10228729
-2.0364735 1.7932827 -0.032652877
-1.7645611 1.7240226 -0.0041854382
-1.6407169 1.7976063 -0.0062910956
-1.4941065 1.8808136 -0.006359756
-1.2049664 1.8897791 -0.013804339
-1.0172529 1.8634436 -0.057104249
-0.85104066 1.8329792 -0.096274093
-0.66614681 1.8264555 -0.098906912
-0.53337038 1.8566908 -0.11098567
0.55299658 1.8791962 -0.11533169
0.66878861 1.844594 -0.09302865
0.84827405 1.8497932 -0.087565787
0.99795783 1.8789492 -0.045811113
1.4692715 1.8762863 -0.0064412463
1.645251 1.7875454 -0.0059561911
1.846305 1.740942 -0.0069552953
2.0213776 1.7959336 -0.038042925
2.174639 1.806595 -0.10406535
2.2933412 1.8218584 -0.17010032
-2.2840185 1.9240105 -0.18373454
-2.170429 1.9929216 -0.10462464
-2.0574334 2.0046248 -0.032979127
-1.565599 2.0130875 -0.022730028
-1.4197918 2.010004 -0.032196533
-1.2282681 2.0082066 -0.052539211
