# .PCD v0.7 - Point Cloud Data file format
VERSION 0.7
FIELDS x y z
SIZE 4 4 4
TYPE F F F
COUNT 1 1 1
WIDTH 1537
HEIGHT 1
VIEWPOINT 0 0 0 1 0 0 0
POINTS 1537
DATA ascii
3.1254263 0.13320965 -3.6669884
3.377938 0.13258377 -3.6672113
3.626554 0.13043112 -3.6662591
3.8739958 0.13005576 -3.6666825
4.1275368 0.13142174 -3.6636224
4.3750219 0.1309634 -3.6673343
4.6237192 0.1294246 -3.6637304
4.8748269 0.13054432 -3.6641107
5.1177001 0.13577256 -3.6367233
5.2676511 0.12526667 -3.5639489
-0.084817402 0.3748965 -3.5962729
0.13667282 0.37640411 -3.6720488
0.37349883 0.37461534 -3.6748137
0.62736213 0.37543911 -3.6719558
0.88356853 0.37453017 -3.6733081
1.1256145 0.37687373 -3.6724038
1.3727177 0.374935 -3.6731381
1.6239203 0.37504396 -3.6706026
1.8764681 0.37671694 -3.6721294
2.1241446 0.37714723 -3.6728241
2.3755922 0.37271798 -3.67154
2.62714 0.37323177 -3.6717176
2.8769422 0.37491235 -3.6717243
3.1272528 0.37730944 -3.6698186
3.3749037 0.3772231 -3.670419
3.6245947 0.37556285 -3.6708868
3.8745241 0.3745074 -3.6698191
4.1275663 0.37673005 -3.6683495
4.3763723 0.37394395 -3.6705821
4.6245708 0.37472263 -3.6692152
4.8737016 0.37443402 -3.6685538
5.1186328 0.37659252 -3.6384139
5.2669506 0.37645659 -3.5655987
-0.085382506 0.62563777 -3.5981574
0.13718362 0.6253866 -3.6704257
0.37372884 0.62605298 -3.6745167
0.62731105 0.62715697 -3.6722701
0.87996411 0.62631261 -3.6730261
1.1249486 0.62650263 -3.6733291
1.3747785 0.62712169 -3.6716902
1.6263798 0.62846184 -3.6700804
1.8739692 0.62637728 -3.6721628
2.1236961 0.6280787 -3.6703987
2.3745458 0.62668103 -3.6696088
2.6249118 0.62473524 -3.6701245
2.8748956 0.62691802 -3.6701281
3.1205769 0.62706077 -3.6705048
3.3738303 0.62665117 -3.6709814
3.624073 0.62861049 -3.669131
3.8761744 0.62676466 -3.6695256
4.1284776 0.62819576 -3.6689205
4.3756075 0.6270088 -3.6706462
4.6211009 0.62626874 -3.6687973
4.8705802 0.62510067 -3.6680653
5.1149626 0.6246866 -3.6377151
5.2664208 0.63446432 -3.5672796
-0.083850317 0.87668759 -3.597923
0.13504602 0.87482381 -3.672107
0.37647745 0.8764717 -3.6734834
0.62689495 0.8750698 -3.6733506
0.8787446 0.87620878 -3.672204
1.1248863 0.87345278 -3.6738122
1.3776129 0.87622219 -3.6756046
1.6268871 0.87443078 -3.6708925
1.8748308 0.87567282 -3.6717601
2.1238532 0.87527317 -3.672672
2.3760712 0.87754142 -3.6719415
2.6256523 0.87370318 -3.6722808
2.8753746 0.87606639 -3.6724567
3.124475 0.87466359 -3.6693742
3.3711586 0.87522984 -3.6705134
3.6251204 0.87564093 -3.6712742
3.8732042 0.87530196 -3.6685443
4.1266427 0.87387252 -3.6674862
4.3726673 0.8767339 -3.6714261
4.6220698 0.87605166 -3.6677997
4.8688507 0.87460452 -3.6692324
5.1158152 0.87392777 -3.636472
5.2674084 0.8775543 -3.567312
-0.084939405 1.1249607 -3.5937948
0.13564973 1.1295379 -3.6685898
0.37692076 1.12283 -3.6736636
0.62859386 1.1261253 -3.6729503
0.87933171 1.1261803 -3.6703844
1.1222168 1.123439 -3.6714737
1.3724483 1.1232359 -3.6719692
1.6256882 1.124892 -3.6695271
1.8741416 1.1255648 -3.6698527
2.1236022 1.1245865 -3.6712391
2.3764031 1.1245935 -3.6708419
2.630177 1.1255202 -3.6694033
2.8762186 1.1238755 -3.6698964
3.1218414 1.1255996 -3.6681199
3.3754919 1.1252242 -3.6689878
3.6251624 1.1247624 -3.6698198
3.8725984 1.1221321 -3.6669958
4.125958 1.1234373 -3.6674581
4.3786278 1.1249776 -3.6688981
4.6239438 1.1258314 -3.6675775
4.8712196 1.1254148 -3.668566
5.1129632 1.1266489 -3.6369441
5.2677531 1.1240124 -3.5680211
-0.083909221 1.3720697 -3.594013
0.13693167 1.373683 -3.6697304
0.3762877 1.3744717 -3.6736207
0.62532228 1.3780785 -3.6717224
0.88038778 1.373458 -3.6705244
1.1265242 1.3745704 -3.6724689
1.3747085 1.3779693 -3.6751442
1.6245834 1.3760381 -3.6709135
1.8755329 1.3743759 -3.6701124
2.1253562 1.3735468 -3.672765
2.381474 1.3739229 -3.6698089
2.633873 1.377869 -3.6687255
2.8772728 1.3742392 -3.6728122
3.1281261 1.3724048 -3.668282
3.3770401 1.3730057 -3.6704555
3.6250238 1.3782278 -3.6694508
3.8731627 1.3778927 -3.6704974
4.1243496 1.3746608 -3.6688712
4.3772264 1.374689 -3.6695087
4.6280394 1.3772621 -3.6674817
4.8748302 1.374299 -3.6686001
5.1173344 1.3746253 -3.6351509
5.2653518 1.3708729 -3.5723736
-0.085084498 1.6207724 -3.591964
0.13682598 1.6231059 -3.6681225
0.37348723 1.6247849 -3.6732681
0.62866569 1.6263663 -3.6727729
0.88044834 1.621472 -3.6729524
1.128525 1.6265887 -3.6734502
1.3737592 1.6270217 -3.6719272
1.6236364 1.6225226 -3.6700275
1.8722502 1.6255101 -3.6713569
2.1270289 1.6206893 -3.6701233
2.3815992 1.6254511 -3.6704853
2.6315181 1.6291387 -3.6693432
2.875191 1.6259367 -3.6717246
3.1272261 1.6204244 -3.6672211
3.3758585 1.6230977 -3.671227
3.6222188 1.6252829 -3.6691582
3.8755822 1.6263682 -3.6658192
4.124795 1.6255805 -3.668143
4.3760571 1.6228102 -3.6691618
4.6289401 1.6259601 -3.667726
4.875617 1.6245506 -3.6689665
5.1162329 1.6219535 -3.6362679
5.2660785 1.6152431 -3.5620177
-0.083557621 1.8742058 -3.5934355
0.13756551 1.8759691 -3.670007
0.3728157 1.8776724 -3.6729672
0.62549436 1.876651 -3.6716018
0.87545973 1.8748878 -3.6715753
1.1239598 1.8766937 -3.6712873
1.3755429 1.8761353 -3.6701815
1.6218696 1.8745821 -3.6706758
1.8718139 1.8754389 -3.6693251
2.1231072 1.8736498 -3.6702826
2.3809018 1.8766009 -3.6685948
2.6318662 1.8774499 -3.667237
2.8774109 1.8768208 -3.6741462
3.1238892 1.8719972 -3.6663182
3.3749561 1.8746595 -3.6697698
3.6231868 1.8769408 -3.6693683
3.8741949 1.8760476 -3.6691971
4.1242814 1.8766876 -3.6669862
4.3788228 1.8728298 -3.668376
4.6254692 1.8797119 -3.6664824
4.8729668 1.8755084 -3.6691496
5.1183286 1.8755335 -3.6354754
5.2665715 1.8723271 -3.5596383
-0.08458069 2.1281898 -3.5984726
0.13634212 2.1239228 -3.6673307
0.37116909 2.1247752 -3.6729667
0.62439626 2.1222875 -3.670006
0.87379456 2.1256247 -3.6712317
1.1237007 2.126487 -3.6722181
1.3782711 2.1253328 -3.6706698
1.6270044 2.1261137 -3.6681354
1.8746516 2.1228371 -3.671129
2.1234524 2.1228783 -3.6695974
2.3779998 2.124084 -3.6694732
2.6292512 2.1271517 -3.6676044
2.8726578 2.1244128 -3.6732862
3.1232715 2.1223314 -3.6675308
3.3744509 2.1226585 -3.6671188
3.6220791 2.1257052 -3.6696372
3.8776948 2.1274693 -3.6684217
4.127233 2.1258175 -3.6652358
4.3773856 2.1253359 -3.6698716
4.6267128 2.1239414 -3.6673121
4.8731284 2.1236656 -3.6678865
5.1190481 2.1244426 -3.6364975
5.2659407 2.1225793 -3.5593748
-0.082863472 2.374181 -3.5990632
0.13846692 2.3728752 -3.6709642
0.37157494 2.3736191 -3.6721807
0.62414896 2.372637 -3.6712804
0.8756783 2.3766227 -3.6712437
1.1225739 2.3758862 -3.6720431
1.375146 2.3751907 -3.669956
1.625162 2.3736873 -3.6693301
1.875297 2.3732708 -3.67012
2.1239228 2.3742094 -3.6719143
2.3785245 2.3748341 -3.6707575
2.6263375 2.3749971 -3.665483
2.8743601 2.3744988 -3.6734176
3.1236315 2.3741908 -3.668335
3.3743432 2.3725913 -3.6660693
3.6256235 2.3737371 -3.6705937
3.8760979 2.3740239 -3.6694429
4.1271367 2.3752217 -3.6659882
4.3762774 2.3763573 -3.66961
4.6246943 2.3714697 -3.6648686
4.8757205 2.3736634 -3.6682811
5.1195168 2.3757892 -3.6382573
5.2686071 2.3690596 -3.5610564
-0.084971584 2.6246543 -3.5978425
0.13553397 2.6228375 -3.6687458
0.37365252 2.6240258 -3.669183
0.62388152 2.6239011 -3.6707044
0.87865794 2.6248753 -3.6682076
1.1257801 2.6236639 -3.6738837
1.3778892 2.6243508 -3.670207
1.6232462 2.6244183 -3.6702416
1.8717673 2.6219168 -3.6698575
2.1235189 2.625947 -3.6697848
2.3788209 2.6243222 -3.6703539
2.6259024 2.6249254 -3.6665294
2.871268 2.625437 -3.6703568
3.1237381 2.6244752 -3.6695116
3.3754222 2.6214311 -3.6656175
3.6271873 2.6256735 -3.668237
3.8808925 2.6233611 -3.6672728
4.1284585 2.6231942 -3.6677477
4.372231 2.6235642 -3.6700547
4.6241589 2.6246502 -3.6639094
4.8742738 2.6225305 -3.6659603
5.1191444 2.6248457 -3.6338291
5.2678142 2.6265962 -3.562675
-0.08352121 2.8733187 -3.5978088
0.13541308 2.8710451 -3.669251
0.37115175 2.873491 -3.6716514
0.62364417 2.8733149 -3.6705348
0.87706977 2.8734896 -3.6707408
1.1234121 2.8757317 -3.6685576
1.3764237 2.8727865 -3.6687491
1.6263231 2.8721757 -3.6695137
1.8706653 2.8707108 -3.6689367
2.1246619 2.8749542 -3.6698055
2.3786864 2.8726385 -3.6705635
2.6268508 2.8707469 -3.6668947
2.8736429 2.8739204 -3.6684031
3.1226852 2.8737011 -3.670434
3.3745041 2.8705587 -3.6676168
3.6246326 2.8729906 -3.6684144
3.8791215 2.8734105 -3.6678326
4.1281404 2.8739958 -3.668057
4.3726711 2.8732753 -3.6688502
4.6213632 2.8734274 -3.6674006
4.8721337 2.8734732 -3.6682832
5.1214762 2.8727648 -3.6335266
5.2679701 2.8757579 -3.5576656
-0.084056094 3.1269181 -3.5978928
0.13544749 3.1207125 -3.6681013
0.37111378 3.1243064 -3.6688273
0.62274361 3.1226618 -3.6714234
0.87619579 3.1257184 -3.6691468
1.1240215 3.1239033 -3.6692162
1.3756006 3.1261327 -3.6704798
1.6249377 3.1220496 -3.6692772
1.8740555 3.1242917 -3.6677203
2.1253493 3.1254847 -3.6686943
2.3780427 3.1240282 -3.6689937
2.6252189 3.1221192 -3.6678817
2.8714557 3.1240304 -3.6689069
3.1258216 3.1247454 -3.6662977
3.3774803 3.1252837 -3.6672442
3.6242881 3.1216888 -3.6651573
3.8750076 3.1261923 -3.6664822
4.1278901 3.1244211 -3.6669869
4.3741384 3.1259413 -3.6685791
4.6259909 3.123044 -3.6647635
4.8753805 3.1237702 -3.6652298
5.1182837 3.1235213 -3.6366475
5.2682028 3.1236992 -3.5608003
-0.08425162 3.3749859 -3.5938466
0.13405837 3.3737817 -3.6654959
0.37627047 3.3753669 -3.6735995
0.62317485 3.3742037 -3.6703832
0.87390602 3.3763232 -3.668498
1.1232635 3.3760755 -3.6713872
1.3773326 3.3757238 -3.672775
1.6243076 3.3741322 -3.6683011
1.8756579 3.3761158 -3.672312
2.1247759 3.3779929 -3.6699748
2.3770196 3.3764412 -3.6702466
2.6257823 3.3737421 -3.6680131
2.8706782 3.3761985 -3.6679239
3.1237741 3.377563 -3.6671648
3.3780572 3.3762512 -3.67029
3.6231148 3.3751993 -3.6685758
3.8753486 3.3762908 -3.6670966
4.1284294 3.3755136 -3.6659889
4.3733449 3.3761718 -3.6698694
4.6254373 3.3751454 -3.6665425
4.8729582 3.373564 -3.6653795
5.1144218 3.3745995 -3.6380708
5.2683721 3.3721867 -3.5580833
-0.085053094 3.6237626 -3.5979936
0.13722633 3.6275241 -3.6663029
0.37646165 3.6259358 -3.6700482
0.62746406 3.6250854 -3.6696615
0.8771897 3.6269314 -3.6696222
1.1238832 3.6237328 -3.6689501
1.3753932 3.6250744 -3.6699779
1.6216404 3.6253977 -3.6662028
1.8731173 3.6277735 -3.6658869
2.1241817 3.6254051 -3.667856
2.3754506 3.6242814 -3.6696146
2.6219234 3.6266553 -3.666497
2.8728216 3.6237533 -3.6675408
3.1238282 3.6264796 -3.6668899
3.3767757 3.6273797 -3.6664591
3.6238043 3.6269848 -3.6655581
3.8737776 3.6233959 -3.6660891
4.1273775 3.6244462 -3.6650653
4.3733921 3.6236308 -3.6681206
4.6271091 3.627738 -3.6648319
4.8745084 3.6252575 -3.6657481
5.1176176 3.6256511 -3.6358557
5.2702107 3.6218369 -3.5520713
-0.080352634 3.8754594 -3.59571
0.13278157 3.8768046 -3.6661279
0.37663519 3.8789864 -3.6734245
0.62755251 3.8745635 -3.6710584
0.87488782 3.877408 -3.6692331
1.1253986 3.8744497 -3.6701803
1.3751302 3.8769293 -3.6723666
1.6201487 3.873745 -3.6690164
1.8725456 3.8766801 -3.6708329
2.125695 3.8740067 -3.6683893
2.3711226 3.8741887 -3.6693571
2.61905 3.880614 -3.6695807
2.8732903 3.8751569 -3.6679223
3.1231413 3.8742487 -3.6683383
3.3768363 3.8760278 -3.667733
3.6218696 3.8757553 -3.6691012
3.8748524 3.874012 -3.6670194
4.1270447 3.8767984 -3.6688743
4.3752666 3.873831 -3.6691451
4.6270838 3.8749478 -3.6651573
4.8736906 3.8793271 -3.6661625
5.1163731 3.8760839 -3.6378179
5.270277 3.8725562 -3.5536427
-0.083942421 4.1267366 -3.5989079
0.13182275 4.1236801 -3.6638594
0.37525988 4.1260948 -3.6696658
0.62650418 4.1205449 -3.666851
0.8765654 4.1285124 -3.6688423
1.1246232 4.1232471 -3.6707394
1.3731984 4.1247358 -3.6684268
1.621979 4.1216459 -3.6689715
1.8748004 4.1245837 -3.669347
2.1236875 4.1251779 -3.6691883
2.3718295 4.1261625 -3.6689482
2.6209269 4.1258078 -3.6653006
2.871937 4.1261358 -3.6672897
3.1224771 4.1250787 -3.6677468
3.3720722 4.1239166 -3.6666675
3.6190791 4.1221957 -3.6699708
3.8704913 4.1245136 -3.6643438
4.1264987 4.1256385 -3.6663411
4.3755212 4.1255288 -3.6677849
4.6282678 4.1217246 -3.6611819
4.8768048 4.1269112 -3.6653233
5.1190028 4.124259 -3.6350172
5.2714524 4.1290059 -3.567992
-0.082459584 4.3784747 -3.5963118
0.13201338 4.3736629 -3.6640162
0.3715919 4.3755074 -3.672514
0.62298894 4.3734398 -3.6699431
0.87590253 4.3760338 -3.6698177
1.1255209 4.373683 -3.6699789
1.3726091 4.3765678 -3.6684871
1.6226834 4.3706379 -3.666604
1.87429 4.3742757 -3.6668599
2.1269939 4.3755279 -3.6676972
2.3746171 4.3760657 -3.6693573
2.6205461 4.3739214 -3.6702802
2.8713269 4.374898 -3.6678858
3.1217465 4.3753161 -3.666646
3.3746173 4.3745813 -3.6661267
3.6212292 4.3701024 -3.6678646
3.8725243 4.3754578 -3.6644797
4.126564 4.3764877 -3.6656551
4.3749399 4.3747511 -3.6691682
4.6266408 4.3728461 -3.6647344
4.873816 4.3757076 -3.66749
5.1145945 4.3764982 -3.6382086
5.2705092 4.3826923 -3.5694473
-0.084387094 4.6264391 -3.5940228
0.13550898 4.6267815 -3.664073
0.37186804 4.627151 -3.6701398
0.62642598 4.6268497 -3.6674602
0.87746447 4.6259179 -3.6679335
1.1284056 4.6265469 -3.668813
1.3793378 4.6265016 -3.6664059
1.6243984 4.6274452 -3.6680479
1.8753353 4.6256804 -3.6683614
2.1229501 4.6272879 -3.6676416
2.3755994 4.623909 -3.6655986
2.6211486 4.6233058 -3.6655755
2.8697774 4.624661 -3.6662688
3.1241972 4.628356 -3.6659126
3.3726611 4.6262813 -3.6657791
3.6242895 4.6267152 -3.6670275
3.875464 4.6247234 -3.6636789
4.1283278 4.6263056 -3.6656845
4.3730669 4.6273189 -3.6679554
4.6214786 4.625957 -3.6627588
4.8713999 4.624979 -3.6645832
5.110836 4.6269574 -3.634778
5.2741613 4.6273384 -3.5616858
-0.082111649 4.8724108 -3.5961409
0.13523005 4.8752613 -3.6660795
0.37288281 4.8722939 -3.6713829
0.62621152 4.8727107 -3.6701188
0.87582272 4.8732538 -3.6675777
1.1244875 4.8765621 -3.670033
1.3760302 4.8747139 -3.667788
1.6271623 4.878757 -3.6695688
1.8754683 4.8769784 -3.6679533
2.1246924 4.8753772 -3.6690588
2.3754032 4.8737645 -3.6680915
2.6230567 4.8745146 -3.6675453
2.8709028 4.8735714 -3.6697659
3.1223202 4.8779745 -3.6664116
3.3742504 4.8769541 -3.6666934
3.6240666 4.8779116 -3.6664867
3.8734293 4.8720021 -3.665601
4.126483 4.8760214 -3.6658189
4.3744998 4.8739004 -3.6672204
4.6256704 4.8744235 -3.6652582
4.8730354 4.8698201 -3.6652629
5.1142707 4.87321 -3.6350214
5.2710013 4.8782825 -3.5589697
-0.082004182 5.1234531 -3.5978684
0.13364539 5.1241641 -3.663537
0.37066969 5.1246219 -3.6708028
0.62409401 5.120872 -3.6688776
0.87761694 5.1213655 -3.667192
1.1248904 5.1243095 -3.6695333
1.3776257 5.1221104 -3.667129
1.628908 5.126461 -3.6674724
1.8776097 5.1257429 -3.6677697
2.1259112 5.1232891 -3.666347
2.3758829 5.124176 -3.6687045
2.6243796 5.1235466 -3.6677225
2.8715093 5.125288 -3.6677909
3.1215847 5.1249371 -3.6658211
3.3763363 5.1260805 -3.6659954
3.6275375 5.1232963 -3.6668425
3.8755703 5.1228423 -3.6644006
4.1282706 5.1233125 -3.6666543
4.3714638 5.1203985 -3.6650453
4.625104 5.1246233 -3.6644721
4.8770266 5.1223688 -3.6630697
5.1163292 5.1240773 -3.6337414
5.2692552 5.1268582 -3.561955
-0.083245583 5.3772602 -3.5972221
0.13681422 5.3774133 -3.6641631
0.37619466 5.374845 -3.6709189
0.62594312 5.3729334 -3.667027
0.87749827 5.3748264 -3.6670506
1.1253008 5.3790483 -3.6675401
1.3784099 5.3723354 -3.6671391
1.6291637 5.3740263 -3.6686337
1.8764266 5.3732309 -3.665832
2.1245046 5.3726931 -3.6670876
2.3759825 5.374681 -3.6668646
2.6234066 5.3735137 -3.6661673
2.8729382 5.3756723 -3.665976
3.1276865 5.3730803 -3.6660655
3.3750832 5.3739214 -3.6652324
3.6269941 5.3730202 -3.6653051
3.8775711 5.3740129 -3.6636994
4.1288352 5.378787 -3.6674488
4.3753772 5.3730054 -3.6648417
4.6267323 5.3748684 -3.6646106
4.877337 5.3756452 -3.6650026
5.1167493 5.3771162 -3.6330326
5.2676449 5.3590298 -3.5582569
-0.083941042 5.6272831 -3.5980685
0.13688029 5.628356 -3.6614463
0.37787479 5.6269627 -3.6699994
0.62844867 5.62324 -3.6687937
0.87714326 5.6281285 -3.667959
1.1254684 5.631115 -3.6673458
1.3766673 5.6228161 -3.6672828
1.6291016 5.6240287 -3.6686163
1.8747498 5.6257162 -3.6662471
2.1250248 5.6240435 -3.667994
2.3767006 5.6262655 -3.6686285
2.6264806 5.6298132 -3.6660948
2.875144 5.6258197 -3.6657948
3.12391 5.6260905 -3.6647527
3.3739069 5.6226935 -3.6657822
3.6274292 5.6254687 -3.6651549
3.8776364 5.6238222 -3.6641192
4.1290054 5.6308055 -3.6660602
4.3739944 5.6275311 -3.6641941
4.6271615 5.6237741 -3.6650419
4.8752236 5.6268377 -3.6635039
5.1172853 5.630424 -3.6316812
5.2645144 5.618504 -3.5591063
-0.085039862 5.8743696 -3.5925574
0.13809599 5.8763118 -3.6618333
0.37731916 5.8775024 -3.6687648
0.62681597 5.8704104 -3.6689453
0.8756178 5.8779879 -3.6702659
1.1272098 5.8757977 -3.6687236
1.3765974 5.8710413 -3.6665137
1.6267792 5.8730435 -3.6677389
1.8746148 5.8763604 -3.665925
2.1246321 5.8741484 -3.6661687
2.3778002 5.877553 -3.6680527
2.6278911 5.8771844 -3.6676188
2.871496 5.8769155 -3.6659205
3.1219144 5.87778 -3.6654508
3.3713539 5.8717828 -3.6650736
3.6256981 5.875052 -3.6671593
3.8769615 5.871388 -3.6646543
4.1279812 5.8751616 -3.667264
4.3739223 5.8768444 -3.664253
4.6275835 5.8730197 -3.6627414
4.8783312 5.875792 -3.663336
5.117209 5.8762984 -3.6301682
5.2659469 5.8771243 -3.561552
-0.08676935 6.1236711 -3.5935483
0.1358813 6.1246314 -3.6650333
0.3738817 6.1281672 -3.669791
0.62731361 6.128859 -3.6681881
0.87653697 6.1256294 -3.6683714
1.1283127 6.1249762 -3.6678803
1.3768305 6.1198502 -3.6671033
1.626757 6.1190329 -3.6652315
1.8758516 6.1278653 -3.6680458
2.1228485 6.1257143 -3.6688693
2.3735633 6.1268907 -3.666297
2.6228082 6.1253438 -3.6683862
2.8726337 6.1279659 -3.665273
3.1222911 6.1284666 -3.6644232
3.3728638 6.1229868 -3.6656208
3.6265533 6.1218352 -3.6654108
3.8788977 6.1201906 -3.6641893
4.1308179 6.1237602 -3.665998
4.3764248 6.1259232 -3.6653624
4.627728 6.1283922 -3.6658027
4.8765459 6.1270509 -3.6657925
5.1201315 6.1235824 -3.6323884
5.2666392 6.1260433 -3.5660541
-0.08380229 6.3773832 -3.5970917
0.13418752 6.3767166 -3.6631086
0.3716757 6.3723955 -3.6693053
0.62596375 6.3770719 -3.6675572
0.87298465 6.3766541 -3.66717
1.1284882 6.3741341 -3.6679151
1.3780353 6.3749919 -3.6662614
1.6272163 6.3708701 -3.6677024
1.8736303 6.3738394 -3.6682184
2.1201859 6.3755722 -3.6650856
2.3736541 6.3748293 -3.66732
2.6203053 6.3743229 -3.6665757
2.8701453 6.3771243 -3.6645648
3.1240518 6.3735876 -3.6650875
3.3752832 6.3741431 -3.6639905
3.6261466 6.3726282 -3.6642728
3.8769419 6.3743052 -3.6649127
4.1282988 6.3740168 -3.665508
4.3724394 6.3758588 -3.6623933
4.6233978 6.3763294 -3.6646411
4.8798127 6.3733807 -3.6628675
5.1194458 6.3761573 -3.632267
5.2681274 6.3821998 -3.5602081
-0.0842494 6.6282964 -3.5976393
0.13714549 6.6256914 -3.6624553
0.37579286 6.6192789 -3.668011
0.62425041 6.6259799 -3.6661797
0.87256664 6.6271915 -3.6693466
1.1286155 6.6224627 -3.6670864
1.3812628 6.6261935 -3.6655748
1.6291713 6.6277847 -3.6639378
1.8789735 6.623455 -3.668493
2.1244671 6.6259804 -3.665518
2.3740408 6.62536 -3.6667242
2.6235969 6.623323 -3.6685507
2.8715827 6.6280422 -3.6635883
3.1259394 6.6229906 -3.6642444
3.3793867 6.6258979 -3.663533
3.6276207 6.6240206 -3.6650748
3.8796458 6.6243362 -3.6639614
4.1282439 6.6267471 -3.6665542
4.3750911 6.6269331 -3.6624415
4.6253624 6.6242957 -3.6619353
4.874495 6.620914 -3.6636941
5.1199856 6.6266403 -3.6309075
5.2693281 6.6257844 -3.5598795
-0.081649445 6.8760176 -3.5985539
0.13840619 6.8696532 -3.6615307
0.37556529 6.8706398 -3.6683733
0.62580597 6.8720465 -3.6687694
0.87489229 6.8753834 -3.6674557
1.1278954 6.8715796 -3.666507
1.3769588 6.875298 -3.6657748
1.6263813 6.8775363 -3.6638374
1.8800927 6.8737078 -3.6663444
2.1238132 6.8749576 -3.6657264
2.3741565 6.874392 -3.6659107
2.6246085 6.8735728 -3.6666656
2.87148 6.8738842 -3.6642399
3.1270733 6.8731747 -3.6654208
3.3780358 6.8755231 -3.66415
3.6268384 6.8770957 -3.6633182
3.8779414 6.8722582 -3.662652
4.1276584 6.8770251 -3.6656425
4.3763914 6.8731956 -3.6639335
4.6254005 6.8721051 -3.6608276
4.8744464 6.8683624 -3.6634064
5.1187601 6.8710647 -3.6300457
5.2698088 6.8668947 -3.5540533
-0.085960031 7.1255541 -3.5978506
0.13292213 7.1224451 -3.6626604
0.37523556 7.1219721 -3.6660936
0.623622 7.1248746 -3.6683202
0.87716335 7.1266356 -3.6658428
1.1294171 7.1209559 -3.6668704
1.3779314 7.1240816 -3.6672847
1.6295675 7.1273661 -3.6645925
1.879819 7.1208129 -3.6681094
2.1270468 7.1236553 -3.6641543
2.3700876 7.1227932 -3.6655889
2.6233242 7.1230874 -3.6669884
2.8730333 7.1202602 -3.6635463
3.1249871 7.1235075 -3.6653967
3.3802252 7.1243 -3.6630602
3.627527 7.1267033 -3.6645975
3.8780901 7.1224232 -3.6639848
4.1303182 7.1242452 -3.6652815
4.3778234 7.1248269 -3.6619937
4.6269832 7.1248903 -3.6611719
4.8727684 7.1240211 -3.6609306
5.1163931 7.1211591 -3.6311603
5.2695975 7.129849 -3.5462878
-0.086135447 7.3748074 -3.5975883
0.13230847 7.3771768 -3.6653135
0.37328696 7.373138 -3.6668217
0.62322897 7.3767247 -3.6673121
0.8750782 7.3781724 -3.6676109
1.128002 7.373385 -3.6662683
1.3761455 7.3735638 -3.6653161
1.6263816 7.3755312 -3.6665385
1.8819503 7.3720875 -3.6664038
2.128458 7.375155 -3.6633112
2.3745825 7.3724008 -3.6671686
2.623214 7.3744597 -3.6670661
2.8752766 7.3728881 -3.6644585
3.126044 7.3745298 -3.6649239
3.3778152 7.3734894 -3.6636448
3.6255674 7.3738217 -3.6653466
3.8766525 7.3745766 -3.6640415
4.1264129 7.3752389 -3.6644099
4.3764701 7.3773603 -3.660743
4.6261306 7.3782787 -3.6618123
4.8712416 7.3761115 -3.6619573
5.1152434 7.3738713 -3.6333444
5.2721896 7.3804121 -3.5495267
-0.082938567 7.6232228 -3.5960147
0.13399251 7.6206036 -3.663372
0.37245032 7.6220484 -3.6662378
0.62043399 7.6243134 -3.6673808
0.87513959 7.6252766 -3.6683719
1.1288794 7.6232052 -3.6650348
1.3758382 7.6209679 -3.6642549
1.623313 7.6236401 -3.6663711
1.8790591 7.6235375 -3.6643829
2.1301208 7.6246462 -3.6643176
2.3729918 7.6210842 -3.6675189
2.6195519 7.6258211 -3.6652107
2.8722575 7.6217337 -3.6634161
3.1259296 7.6253891 -3.66468
3.3806708 7.6234488 -3.661772
3.6276443 7.6229014 -3.6629279
3.8773491 7.6220012 -3.6631405
4.1233745 7.6242909 -3.6622565
4.3759947 7.6259918 -3.6619806
4.6272616 7.6226511 -3.6604195
4.8738813 7.6232848 -3.661252
5.1176333 7.6227798 -3.631315
5.2718453 7.6271281 -3.5509763
-0.084404759 7.8725581 -3.5969441
0.12831636 7.8710251 -3.6603799
0.36939713 7.8773985 -3.6649547
0.62155461 7.8754568 -3.6662648
0.87543195 7.8727474 -3.6659272
1.1269962 7.8723302 -3.6635673
1.3766241 7.8723073 -3.6660242
1.6234466 7.8719811 -3.6650476
1.8786725 7.8757267 -3.6650586
2.1307256 7.8738627 -3.6603172
2.3754616 7.8743992 -3.6662645
2.6227093 7.8782725 -3.6653309
2.8743837 7.8761644 -3.6627791
3.1228883 7.8755994 -3.662194
3.3809671 7.8741679 -3.6613536
3.630197 7.8718734 -3.6633158
3.8754501 7.8745756 -3.663691
4.1233191 7.8699574 -3.6609395
4.3773379 7.8739085 -3.6603022
4.6280961 7.8739028 -3.6586144
4.8735652 7.8754201 -3.6587691
5.1149173 7.873538 -3.6305611
5.2710433 7.8698754 -3.5429697
-0.082677357 8.1223326 -3.5982769
0.13134009 8.125639 -3.6629305
0.37140694 8.1283464 -3.6658204
0.62372601 8.1253996 -3.668277
0.8727358 8.1260824 -3.6660001
1.1216618 8.1250277 -3.6639445
1.373997 8.1249256 -3.6673365
1.6220771 8.1236095 -3.6652195
1.876595 8.1234436 -3.6651816
2.127893 8.1257067 -3.6625662
2.3759804 8.1285772 -3.6664853
2.62219 8.1318922 -3.6644814
2.8729885 8.1285114 -3.662112
3.1230683 8.1250591 -3.6633329
3.3794472 8.1215181 -3.661463
3.6265311 8.1228313 -3.6619573
3.8757534 8.1266289 -3.6639113
4.1251674 8.1240082 -3.6616766
4.3779054 8.1256752 -3.6594458
4.6273665 8.1254416 -3.6624136
4.875031 8.1260157 -3.6602008
5.1171517 8.1259565 -3.629025
5.2707415 8.1229906 -3.5445631
-0.083014496 8.3755341 -3.5956748
0.13224807 8.3767843 -3.6599276
0.37466013 8.3787632 -3.6674018
0.6248976 8.3764668 -3.6675234
0.87410516 8.3793516 -3.6638634
1.1217699 8.3739576 -3.6644044
1.3765914 8.3746719 -3.6657405
1.6248251 8.3741856 -3.663913
1.8790156 8.374938 -3.6650841
2.128222 8.3759937 -3.6609471
2.3707187 8.376358 -3.6671624
2.6188331 8.3801003 -3.6646993
2.8744347 8.3771172 -3.6644611
3.1244369 8.3740864 -3.6626506
3.3814428 8.3728991 -3.6616366
3.6275697 8.3748913 -3.6614461
3.8742163 8.3743229 -3.6642454
4.1275687 8.3747816 -3.6630378
4.3797297 8.3794289 -3.6600385
4.6267366 8.3757439 -3.6607482
4.876895 8.3790245 -3.6605215
5.1166415 8.376236 -3.6283565
5.2700419 8.3712015 -3.5511265
-0.082994416 8.6236506 -3.5958135
0.13034205 8.6272402 -3.6607087
0.37608606 8.6288452 -3.6670403
0.62648863 8.6279135 -3.6656969
0.8768177 8.6286287 -3.6653204
1.125894 8.6272659 -3.6633584
1.3745755 8.6220703 -3.6648092
1.6259707 8.627142 -3.6622241
1.8797094 8.6271563 -3.6641102
2.1299479 8.6271629 -3.6625791
2.371398 8.6237936 -3.6638293
2.6195335 8.6260853 -3.6612723
2.8728168 8.627058 -3.6617439
3.1255279 8.6259937 -3.6632924
3.3797405 8.6258631 -3.6626525
3.6233256 8.6262217 -3.6604254
3.8756909 8.6253233 -3.6614254
4.1274891 8.6240587 -3.6614943
4.3780551 8.6306028 -3.6582444
4.6283317 8.6270924 -3.6595588
4.8773088 8.6311092 -3.6589749
5.1173215 8.6259718 -3.6292973
5.2706738 8.6186543 -3.5491698
-0.084118828 8.8720989 -3.5939949
0.13293815 8.8746395 -3.6583753
0.37820712 8.8748236 -3.6658306
0.627518 8.8764944 -3.6663139
0.87548506 8.8759184 -3.6640303
1.1253661 8.8803406 -3.6630428
1.375598 8.8748779 -3.6658058
1.6262153 8.8746605 -3.6621823
1.8811482 8.87358 -3.6654241
2.1257646 8.8738689 -3.6622674
2.372813 8.8765707 -3.6631577
2.6204307 8.8733559 -3.663763
2.8684916 8.8756933 -3.6615467
3.1250715 8.8751392 -3.6608756
3.3785853 8.8756151 -3.6610405
3.6243167 8.8760996 -3.6597376
3.8737471 8.8756628 -3.6606598
4.1275582 8.8767242 -3.6630652
4.3748722 8.8783007 -3.6611788
4.6244669 8.8768873 -3.6581292
4.8772545 8.8734322 -3.6596594
5.1190767 8.8740911 -3.6292186
5.2706423 8.8736649 -3.5486023
-0.08107847 9.1233225 -3.5975633
0.13571677 9.1230087 -3.6607888
0.37503308 9.1251488 -3.6647367
0.62643331 9.1234493 -3.6630187
0.87294573 9.1250401 -3.6648636
1.1241186 9.1298695 -3.6628985
1.3765494 9.1271467 -3.6652811
1.6267158 9.1240158 -3.663307
1.8795022 9.1232719 -3.6650102
2.1255679 9.1221132 -3.6612921
2.3701458 9.1258678 -3.6603613
2.6208746 9.1266708 -3.6624069
2.8744984 9.1238194 -3.6605089
3.1280787 9.123354 -3.6606276
3.3772802 9.1252384 -3.6608212
3.624121 9.125206 -3.6611371
3.8723292 9.1256742 -3.6595032
4.1281176 9.1278105 -3.6633077
4.3758936 9.1280861 -3.6588027
4.6272783 9.1230555 -3.6568036
4.8800583 9.1243677 -3.6584134
5.1205249 9.1242628 -3.6300361
5.2689829 9.1280527 -3.5629027
-0.082603887 9.3757305 -3.595252
0.13687351 9.3728704 -3.6617446
0.37660486 9.3769855 -3.6652362
0.62755817 9.3750648 -3.6661508
0.87178826 9.376091 -3.6655409
1.1282173 9.3765583 -3.6640854
1.3780565 9.3764696 -3.6630201
1.6275305 9.3769159 -3.6619384
1.8801 9.3721285 -3.665642
2.1258566 9.3751163 -3.6617417
2.3731105 9.3762627 -3.6634665
2.6192338 9.3788013 -3.663784
2.871099 9.3751268 -3.6586592
3.1283278 9.3732748 -3.6631491
3.3775077 9.3738852 -3.6622186
3.6273632 9.3760033 -3.6595147
3.8781073 9.3743477 -3.6587901
4.1278372 9.3770037 -3.6630299
4.3755813 9.378171 -3.6608706
4.6279821 9.3754921 -3.6599066
4.8793392 9.3762369 -3.6601529
5.1187077 9.3747377 -3.6317372
5.2693224 9.3827124 -3.561167
-0.083457105 9.6253471 -3.593899
0.13188824 9.6239042 -3.6571624
0.37610304 9.625947 -3.6647296
0.62701988 9.6254997 -3.6646225
0.87363529 9.6251307 -3.6655762
1.1261088 9.6248846 -3.6632626
1.3757176 9.625371 -3.6633289
1.6293285 9.6251993 -3.6632948
1.8765181 9.6244774 -3.6649079
2.1234193 9.6255178 -3.6609595
2.3736999 9.6267204 -3.6632583
2.6204674 9.6259537 -3.6621413
2.869314 9.6245232 -3.659291
3.1259074 9.6239958 -3.6632988
3.3771496 9.6262445 -3.6616778
3.6269407 9.6239681 -3.6611795
3.8789091 9.626524 -3.6594329
4.1262336 9.6253529 -3.6622801
4.3697162 9.6259661 -3.6588256
4.6266513 9.6257124 -3.6595826
4.8776393 9.623435 -3.6590035
5.1189265 9.6243906 -3.6267672
5.2702699 9.6209955 -3.5592237
-0.082606785 9.8785353 -3.5938952
0.13219887 9.876647 -3.65855
0.37406519 9.8732271 -3.6637313
0.62392014 9.8743954 -3.6650336
0.87331331 9.876111 -3.6641631
1.1262475 9.8730507 -3.6625159
1.378173 9.8740044 -3.6636727
1.6256375 9.8750753 -3.6620164
1.8756747 9.8767338 -3.663209
2.1229148 9.8736305 -3.6589804
2.3735597 9.8767233 -3.6619129
2.6231327 9.8713169 -3.6624823
2.8693211 9.8763123 -3.6595318
3.1218643 9.873085 -3.6613808
3.3725789 9.8788128 -3.6600187
3.6253784 9.873373 -3.6592724
3.8782339 9.8767939 -3.6579556
4.1283469 9.8732967 -3.6604159
4.3722048 9.8746119 -3.658664
4.6282654 9.8741961 -3.6603527
4.8800688 9.8756647 -3.658534
5.1168542 9.875762 -3.6281147
5.2698407 9.8732243 -3.5594251
-0.082659826 10.128689 -3.5966322
0.13301373 10.129075 -3.6536636
0.37662432 10.124587 -3.6673143
0.62771338 10.12755 -3.6634934
0.87646091 10.125231 -3.6636829
1.1264349 10.125797 -3.6628792
1.3758159 10.125084 -3.6622419
1.6259443 10.127341 -3.6634636
1.8743191 10.12754 -3.6615176
2.1242752 10.126402 -3.6603098
2.3780227 10.128321 -3.6628945
2.6238301 10.121955 -3.6624684
2.8703725 10.128016 -3.6595428
3.1222415 10.124751 -3.6601617
3.3730433 10.130609 -3.6585455
3.6240819 10.125359 -3.6590512
3.8775382 10.12647 -3.6587064
4.1278863 10.124478 -3.6618092
4.3735447 10.12519 -3.658253
4.6269684 10.127352 -3.6597469
4.8779793 10.126106 -3.6581311
5.1164589 10.127994 -3.6281736
5.2717872 10.127173 -3.5626819
-0.082433164 10.377021 -3.5975318
0.13385785 10.374393 -3.6564353
0.37533739 10.378421 -3.6660776
0.62585133 10.376965 -3.6628263
0.87561679 10.374869 -3.6633713
1.1253453 10.375706 -3.6623893
1.3780345 10.375177 -3.660248
1.6302279 10.373062 -3.661592
1.8753903 10.377004 -3.6605835
2.1243727 10.37504 -3.6606333
2.3791323 10.377995 -3.6622717
2.6255958 10.371736 -3.6601994
2.8720348 10.37607 -3.6606474
3.124825 10.37513 -3.6620748
3.3734808 10.374817 -3.6598749
3.6264141 10.374563 -3.6603279
3.8773649 10.376662 -3.659869
4.1298294 10.37439 -3.6588187
4.3724875 10.375824 -3.6590633
4.6254039 10.376159 -3.6595998
4.8768702 10.377174 -3.6583605
5.1188922 10.377445 -3.6256464
5.2726822 10.373929 -3.5588188
-0.079076886 10.627926 -3.5964606
0.13020067 10.6231 -3.6554096
0.37290123 10.625054 -3.6653528
0.62594044 10.622901 -3.6630397
0.87948567 10.623723 -3.6611769
1.1246375 10.623291 -3.6642704
1.3801154 10.623521 -3.6588726
1.6297821 10.624499 -3.662003
1.8733046 10.625508 -3.6623442
2.1267452 10.62399 -3.6609805
2.3789563 10.623981 -3.6614635
2.626056 10.623506 -3.6594141
2.874397 10.62462 -3.6610355
3.1257021 10.624144 -3.6588507
3.3774295 10.625099 -3.6587863
3.6284051 10.62366 -3.658982
3.8758075 10.625535 -3.6577311
4.1286221 10.622548 -3.658684
4.3724961 10.624458 -3.6585851
4.6242332 10.624116 -3.6594481
4.8751788 10.624804 -3.6572139
5.1135378 10.625916 -3.6257453
5.2699656 10.632242 -3.5583978
-0.081784494 10.879146 -3.5958049
0.13135588 10.873346 -3.6558349
0.37118694 10.871147 -3.6651037
0.62212187 10.872606 -3.6620333
0.87556261 10.869709 -3.6626441
1.1254971 10.873648 -3.6611667
1.3751793 10.873918 -3.6610508
1.6281111 10.876995 -3.6609385
1.8767502 10.874842 -3.659313
2.1269608 10.874557 -3.6616912
2.3759491 10.872511 -3.659075
2.623652 10.876156 -3.6594672
2.8713102 10.874099 -3.660501
3.1266809 10.872952 -3.6595018
3.3778133 10.87579 -3.6574385
3.6275396 10.876978 -3.6607423
3.8757393 10.874216 -3.6583982
4.1242948 10.872311 -3.6590462
4.3716741 10.871993 -3.6602845
4.623558 10.872597 -3.657599
4.873692 10.871733 -3.6576016
5.1137347 10.876173 -3.6268969
5.2696743 10.884805 -3.5661833
-0.08150173 11.128377 -3.5964072
0.13158172 11.126261 -3.6570723
0.37173596 11.124583 -3.6642702
0.6277284 11.122694 -3.6610911
0.87755162 11.1253 -3.6608534
1.1258619 11.124353 -3.6615398
1.375438 11.124173 -3.6629155
1.6280346 11.127555 -3.6624272
1.8778213 11.125297 -3.6585724
2.1270907 11.121063 -3.6629612
2.3768723 11.124745 -3.658659
2.6229112 11.125672 -3.6606393
2.8716278 11.126256 -3.6593454
3.1261737 11.121025 -3.6597917
3.3746321 11.125519 -3.6584523
3.628129 11.127892 -3.6594312
3.8765469 11.124356 -3.6585362
4.127954 11.124442 -3.6558313
4.3737979 11.124227 -3.6599498
4.6242857 11.124071 -3.656817
4.8740182 11.12526 -3.6590211
5.113018 11.126291 -3.6296206
5.2699108 11.132543 -3.5724051
-0.084967114 11.373834 -3.5925553
0.12877694 11.379114 -3.6545448
0.37495562 11.376548 -3.6631262
0.62611425 11.376081 -3.6608429
0.87583917 11.376947 -3.6609819
1.1249107 11.37705 -3.6622448
1.372844 11.373987 -3.6614628
1.625962 11.375711 -3.6613357
1.8759931 11.377321 -3.6591229
2.1263392 11.374208 -3.6617818
2.3746262 11.375697 -3.6579645
2.6227801 11.376418 -3.6606572
2.8737364 11.377879 -3.6592286
3.122287 11.372755 -3.6587937
3.3746009 11.376924 -3.6587622
3.6245432 11.375711 -3.6596277
3.874543 11.371961 -3.6588764
4.127809 11.378346 -3.6575
4.3742175 11.376304 -3.6600127
4.6235433 11.376959 -3.6546352
4.8734012 11.378659 -3.6567998
5.1125555 11.378181 -3.6256027
5.2694817 11.365245 -3.5562646
-0.080932364 11.621097 -3.5918756
0.14406954 11.628071 -3.6553729
0.38726661 11.627467 -3.6630118
0.639862 11.624226 -3.6606956
0.88431227 11.623638 -3.6624219
1.1360344 11.627096 -3.6621544
1.3753067 11.624496 -3.6597047
1.6207029 11.62698 -3.6603792
1.8707442 11.627325 -3.659936
2.1138065 11.62488 -3.661809
2.3833127 11.625434 -3.6586211
2.6301196 11.624748 -3.6599972
2.8778977 11.625425 -3.6604645
3.1239758 11.625018 -3.6595025
3.374428 11.624849 -3.6575077
3.6208992 11.62647 -3.6603758
3.8571441 11.623647 -3.6584413
4.1102881 11.625439 -3.6590149
4.3383203 11.624276 -3.6604531
4.6052089 11.625944 -3.6542952
4.8561926 11.626102 -3.6591234
5.1032367 11.624916 -3.6265552
5.2713504 11.617714 -3.5736585
-0.084226348 11.873271 -3.595475
0.15270928 11.867167 -3.6559317
0.3939611 11.867506 -3.662425
0.64137721 11.864604 -3.6618776
0.88095921 11.866932 -3.6628423
1.1260067 11.864509 -3.6622148
1.3673773 11.866985 -3.661813
1.6325238 11.863154 -3.661768
1.8853222 11.865777 -3.660341
2.1482916 11.859161 -3.6606045
2.3798409 11.867761 -3.6596816
2.6228852 11.864514 -3.6614926
2.8712366 11.864557 -3.6605771
3.113548 11.863928 -3.6581256
3.3533077 11.858928 -3.6594875
3.6015313 11.866744 -3.6602688
3.8574772 11.862547 -3.6578989
4.116477 11.865049 -3.6568029
4.3749981 11.859266 -3.6585975
4.616858 11.865359 -3.655551
4.8572197 11.862419 -3.6575844
5.1073751 11.867409 -3.6268198
5.2715936 11.876687 -3.5626762
-0.08132267 12.121666 -3.5965466
0.14129078 12.106392 -3.6560202
0.38186836 12.108072 -3.6631041
0.63153452 12.10132 -3.660763
0.88757092 12.109752 -3.6643882
1.1534739 12.099497 -3.6601894
1.3945153 12.10391 -3.6641459
1.6399474 12.09791 -3.6592255
1.8811209 12.105973 -3.6610036
2.1259546 12.096766 -3.659631
2.3704245 12.106647 -3.6607323
2.6128266 12.104831 -3.6587963
2.8510566 12.099221 -3.6609464
3.1212029 12.104413 -3.6570845
3.3723099 12.094312 -3.6584661
3.6261654 12.104365 -3.6588678
3.8772826 12.095966 -3.6571772
4.1250038 12.105644 -3.6589658
4.357523 12.095954 -3.6581225
4.6080632 12.106117 -3.6564004
4.8357625 12.096187 -3.6565578
5.0987201 12.113766 -3.6293213
5.2721419 12.131173 -3.5691888
-0.081071541 12.374644 -3.5938411
0.16039103 12.329026 -3.6540263
0.41994199 12.317843 -3.6630549
0.65632731 12.328872 -3.6596582
0.89778429 12.318812 -3.6620557
1.1383967 12.326684 -3.6593502
1.3747677 12.318439 -3.6607723
1.6357479 12.328881 -3.6584628
1.8819654 12.316748 -3.6604965
2.1248264 12.324151 -3.658705
2.3825891 12.319523 -3.6609774
2.629643 12.31429 -3.6597342
2.8812535 12.325214 -3.659529
3.1188254 12.317755 -3.6574457
3.3663912 12.32368 -3.6581161
3.593636 12.317246 -3.657347
3.858752 12.32483 -3.6551702
4.1045218 12.313682 -3.6585393
4.3492436 12.322079 -3.6575611
4.6041422 12.316411 -3.6564519
4.8511147 12.320262 -3.6553888
5.0992479 12.329298 -3.6304426
5.271956 12.375444 -3.5538487
-0.080867738 12.627259 -3.5944829
0.13793848 12.583829 -3.6550119
0.39074782 12.572701 -3.6630652
0.63526499 12.587906 -3.6592891
0.89387733 12.568352 -3.6630237
1.1443479 12.586685 -3.6617
1.3977104 12.564797 -3.6620064
1.6342981 12.586911 -3.6617658
1.8800714 12.568204 -3.6615989
2.1231651 12.584986 -3.6601055
2.3599772 12.567301 -3.6598835
2.6165693 12.5648 -3.6587927
2.8705385 12.586942 -3.658453
3.124862 12.567377 -3.6579123
3.381294 12.584329 -3.660326
3.62166 12.563425 -3.6599479
3.8690042 12.58484 -3.6566811
4.1094122 12.563394 -3.6585634
4.3560233 12.58418 -3.6571755
4.5929728 12.56968 -3.6569111
4.8536801 12.587645 -3.6536443
5.0988097 12.58118 -3.6293955
5.2707548 12.61708 -3.561846
-0.081018031 12.871716 -3.5944691
0.15691829 12.795012 -3.6533628
0.40458655 12.768666 -3.6621599
0.63184345 12.799891 -3.659483
0.89467597 12.767104 -3.660233
1.1388485 12.804974 -3.6597102
1.3914353 12.762898 -3.6612158
1.6395614 12.799776 -3.6590624
1.8841721 12.76405 -3.6585939
2.1416914 12.796928 -3.6580057
2.3880863 12.762244 -3.659375
2.6197653 12.761558 -3.6578262
2.8585169 12.797065 -3.6580579
3.1111646 12.76216 -3.6568947
3.3647251 12.798381 -3.6572688
3.6070232 12.76121 -3.6555109
3.8684583 12.79959 -3.6558769
4.1061468 12.762078 -3.6566749
4.3681951 12.795469 -3.6565363
4.6030445 12.765753 -3.6552713
4.8493423 12.796047 -3.655736
5.083899 12.790627 -3.6246698
5.2702823 12.868548 -3.5580549
-0.079393178 13.126271 -3.5975368
0.14547843 13.063436 -3.6568217
0.40922406 13.053094 -3.6596425
0.64557457 13.048152 -3.662786
0.89398676 13.034772 -3.6601746
1.1321821 13.063646 -3.6608772
1.380833 13.037109 -3.6602354
1.6229548 13.065948 -3.6607444
1.8719285 13.038506 -3.6586812
2.1290758 13.062885 -3.6597738
2.3789945 13.035637 -3.6591187
2.6420979 13.033598 -3.6567249
2.8771155 13.059802 -3.6608148
3.1244771 13.037406 -3.6583452
3.3710423 13.066541 -3.6558394
3.6087015 13.035151 -3.658632
3.8574402 13.064471 -3.6563306
4.1014218 13.028502 -3.6570339
4.3602896 13.045506 -3.6579661
4.6036415 13.053506 -3.6559162
4.8735805 13.036671 -3.656667
5.1142783 13.09114 -3.625896
5.2713161 13.128778 -3.5558696
-0.080262043 13.37654 -3.5950842
0.1446207 13.304792 -3.6541593
0.38244203 13.306137 -3.6599936
0.62728697 13.277639 -3.6618652
0.88925731 13.290722 -3.6592569
1.1366599 13.286669 -3.6623611
1.3955816 13.27178 -3.6577752
1.6396302 13.302945 -3.6597509
1.8892311 13.272607 -3.6579387
2.1289837 13.308266 -3.6587269
2.3748274 13.274597 -3.6584408
2.6120794 13.269762 -3.6540527
2.8565454 13.305731 -3.6584339
3.1203332 13.27699 -3.6593616
3.369014 13.303773 -3.6547537
3.6256142 13.269883 -3.6570854
3.8796368 13.305097 -3.6563628
4.1195297 13.26766 -3.6551867
4.3575163 13.273618 -3.65926
4.6084986 13.305148 -3.6533241
4.8440413 13.27321 -3.6550634
5.1038418 13.337541 -3.6253467
5.2724624 13.373008 -3.5611026
-0.079753883 13.625608 -3.5949862
0.16081068 13.482352 -3.6546612
0.39959723 13.510666 -3.6620705
0.65316236 13.462401 -3.6600842
0.88889265 13.504524 -3.6586039
1.1386647 13.454488 -3.6607225
1.3944339 13.457232 -3.6572399
1.6282611 13.511662 -3.6581695
1.8849276 13.455008 -3.6596265
2.1302638 13.506263 -3.6584599
2.3820834 13.451306 -3.6594977
2.6349335 13.45139 -3.6553593
2.870939 13.503545 -3.6612024
3.1053226 13.454672 -3.6590762
3.3658392 13.513443 -3.6547894
3.6138349 13.455297 -3.6586528
3.8499916 13.457252 -3.6558847
4.1161108 13.50547 -3.6546094
4.353138 13.452448 -3.6587589
4.6106434 13.50789 -3.6526468
4.8529592 13.452731 -3.6571722
5.0966201 13.537668 -3.6263974
5.2725072 13.628155 -3.5562766
-0.081669256 13.876844 -3.5919018
0.14683366 13.840449 -3.6507804
0.39264822 13.828263 -3.6609592
0.65084124 13.826252 -3.6599169
0.90059799 13.838024 -3.6607356
1.1510847 13.824945 -3.6613178
1.3882747 13.821823 -3.6584687
1.6260104 13.844481 -3.6599567
1.890478 13.828012 -3.659765
2.1248403 13.838839 -3.6579003
2.3683763 13.8225 -3.6602407
2.6206295 13.825287 -3.6550293
2.8771083 13.838608 -3.661634
3.1299186 13.82053 -3.6553755
3.369144 13.842729 -3.6556504
3.6050751 13.823656 -3.6596465
3.8610497 13.821814 -3.6557381
4.1121869 13.838893 -3.6557152
4.3447242 13.818354 -3.6580546
4.5880289 13.843225 -3.6553521
4.8450985 13.866484 -3.6565707
5.1030836 13.886805 -3.6279047
5.271009 13.881284 -3.5447011
-0.078812115 14.127821 -3.5915289
0.14822006 14.126575 -3.6536076
0.39472684 14.127406 -3.662957
0.64200443 14.122462 -3.6603246
0.87827557 14.12475 -3.6593382
1.1441656 14.124945 -3.6616147
1.3853182 14.121893 -3.6596413
1.6272098 14.124481 -3.658344
1.8794913 14.127497 -3.659193
2.1353433 14.122627 -3.6585236
2.3835526 14.121182 -3.6591544
2.6244898 14.12139 -3.6559579
2.8641684 14.122828 -3.6615336
3.1205359 14.121715 -3.6558871
3.370934 14.125542 -3.6577282
3.615742 14.12222 -3.6573887
3.857007 14.120697 -3.6550591
4.1229587 14.120602 -3.6560495
4.3628173 14.119714 -3.6570239
4.6057448 14.120091 -3.6535885
4.8590474 14.12405 -3.6559241
5.093194 14.125183 -3.6247499
5.270782 14.127345 -3.559186
-0.080470808 14.374854 -3.5905099
0.15274687 14.357292 -3.6515439
0.42011759 14.350731 -3.6624818
0.64844131 14.358328 -3.661504
0.89956814 14.349185 -3.6588995
1.1403056 14.350062 -3.6635585
1.3912685 14.358195 -3.6598072
1.6341618 14.348974 -3.6573629
1.8703637 14.350841 -3.6595719
2.1239452 14.35693 -3.659169
2.3939626 14.346252 -3.6615777
2.6380908 14.340152 -3.6564519
2.8702209 14.355818 -3.660903
3.1094699 14.346747 -3.6578436
3.3720591 14.34762 -3.6591208
3.6160004 14.354729 -3.6566899
3.8470225 14.347854 -3.6578717
4.092813 14.346085 -3.6583505
4.3655043 14.354982 -3.6595807
4.6103911 14.344573 -3.65536
4.8493395 14.34744 -3.6570678
5.0997524 14.360868 -3.6248715
5.2707934 14.370277 -3.5439472
-0.080151267 14.624886 -3.5912905
0.14565733 14.589098 -3.6518543
0.39582634 14.577891 -3.6621253
0.65164047 14.583002 -3.661809
0.89808303 14.570858 -3.6577177
1.1286947 14.575521 -3.6603117
1.3808134 14.588718 -3.6607323
1.6470147 14.571207 -3.659189
1.8908708 14.570843 -3.6595829
2.1306958 14.589989 -3.6573546
2.3745582 14.571883 -3.6584632
2.6356182 14.568807 -3.6566198
2.8729749 14.588117 -3.6582284
3.1090074 14.569303 -3.6573126
3.3548386 14.571256 -3.6595693
3.6221313 14.586075 -3.6566658
3.8687356 14.567653 -3.6549809
4.1100206 14.568089 -3.6550827
4.3575597 14.586993 -3.6572587
4.5968285 14.565914 -3.6545162
4.8427501 14.564779 -3.6567419
5.1004119 14.605384 -3.6241875
5.2717543 14.626396 -3.5526638
-0.080474302 14.872765 -3.5926538
0.14525682 14.822325 -3.6545618
0.37963954 14.83887 -3.6624615
0.64574885 14.825675 -3.6605628
0.89906824 14.823444 -3.6591678
1.1336675 14.843039 -3.6596889
1.3772707 14.82339 -3.6604133
1.6415138 14.822404 -3.6580386
1.8810859 14.822602 -3.6576531
2.1242232 14.839249 -3.6588881
2.3728993 14.822639 -3.6577761
2.6319864 14.824548 -3.6586432
2.8786345 14.838076 -3.6579196
3.1208413 14.820826 -3.6575851
3.3602207 14.818891 -3.6589649
3.6232493 14.838442 -3.6562123
3.8680933 14.823271 -3.6556466
4.1108727 14.822808 -3.6577263
4.3515844 14.821095 -3.6593494
4.6136222 14.837616 -3.6552329
4.8597293 14.81999 -3.6575727
5.0991559 14.836221 -3.6249378
5.2728238 14.860552 -3.5480585
-0.082389474 15.122621 -3.5915024
0.1372845 15.049859 -3.6546826
0.40771207 15.038905 -3.6587641
0.66377956 15.03003 -3.6605239
0.90630662 15.027592 -3.6601665
1.1325213 15.060067 -3.6598012
1.3909532 15.023498 -3.6610627
1.6366787 15.028558 -3.6593451
1.874549 15.037545 -3.6582611
2.1148734 15.047522 -3.6598823
2.3829212 15.028885 -3.6577597
2.6389382 15.02904 -3.6561382
2.8770661 15.060197 -3.6577389
3.1105082 15.025343 -3.6554286
3.3646359 15.024484 -3.658093
3.6088715 15.021038 -3.6587119
3.8572729 15.056816 -3.6552801
4.0901093 15.026854 -3.6568346
4.3581157 15.024188 -3.6565461
4.6147399 15.044003 -3.6535668
4.8538213 15.03808 -3.6555028
5.0902972 15.051404 -3.6256959
5.2713771 15.115773 -3.555634
-0.080142647 15.374701 -3.592169
0.1554904 15.289767 -3.6542759
0.40078309 15.252902 -3.6616352
0.64072281 15.253778 -3.6584985
0.88478559 15.281679 -3.65997
1.1541916 15.259289 -3.6591842
1.40177 15.247959 -3.6597066
1.6357343 15.251825 -3.6583722
1.8765399 15.288667 -3.6584136
2.130964 15.246207 -3.6604991
2.3798614 15.24935 -3.6587396
2.6177449 15.243729 -3.6566443
2.8609796 15.28836 -3.6584177
3.1224728 15.245451 -3.6551313
3.375252 15.24554 -3.6566303
3.6160462 15.248878 -3.6591821
3.8610401 15.287927 -3.6556304
4.1082201 15.246645 -3.6560407
4.3502831 15.244882 -3.6568241
4.588706 15.248185 -3.6554391
4.8452344 15.291842 -3.6558211
5.0920568 15.28291 -3.6240153
5.2697568 15.366651 -3.5470603
-0.064252153 15.561081 -3.5906274
0.13448568 15.591982 -3.601486
0.37509549 15.593114 -3.6043782
0.62704313 15.591679 -3.606102
0.87973607 15.591866 -3.6044784
1.1269993 15.591375 -3.6005123
1.3734388 15.592477 -3.6046271
1.6243763 15.592407 -3.6039848
1.8733956 15.591603 -3.6006417
2.1262593 15.593376 -3.6024053
2.3782144 15.590469 -3.6040931
2.6250432 15.592111 -3.6027286
2.8758223 15.591123 -3.6050844
3.1240139 15.592902 -3.6010935
3.375006 15.591358 -3.6028295
3.6242034 15.592107 -3.6030264
3.8753958 15.592502 -3.5987041
4.1265011 15.591343 -3.6042194
4.3764124 15.591983 -3.6035168
4.6245408 15.592119 -3.6045079
4.8760357 15.592659 -3.6014566
5.0955887 15.580921 -3.5961502
5.2634544 15.535775 -3.5349367
-0.071776554 -0.062811226 -3.3693497
0.13612476 -0.08817526 -3.3757598
0.37477779 -0.087030508 -3.3765185
0.62597382 -0.08721108 -3.3705299
0.87345004 -0.087818928 -3.3770473
1.1217549 -0.088029854 -3.3717134
1.3713171 -0.086875163 -3.3747275
1.6239606 -0.086925983 -3.3723533
1.8766752 -0.087045208 -3.3743844
2.1272464 -0.087825149 -3.3752449
2.376498 -0.087742634 -3.3744822
2.6262987 -0.087133624 -3.3744648
2.8737063 -0.086809121 -3.3740227
3.1241901 -0.088034362 -3.3750637
3.3777807 -0.087427147 -3.3716023
3.6233509 -0.087093085 -3.3765039
3.8732522 -0.087185666 -3.3705976
4.124958 -0.087465636 -3.3748517
4.3767128 -0.087050691 -3.3735888
4.62293 -0.088706568 -3.373271
4.8720374 -0.086819284 -3.3756614
5.0980411 -0.078408442 -3.3734283
5.2606087 -0.026815236 -3.3793123
-0.096812941 0.13526678 -3.3734741
0.097811081 0.067930795 -3.3688102
0.37831292 0.02425519 -3.3742983
0.6273281 0.024406528 -3.3806894
0.87141722 0.024769975 -3.3797781
1.1311671 0.024833173 -3.3673885
1.3783642 0.025854584 -3.3727324
1.6201818 0.025366617 -3.3776164
1.8697649 0.025655199 -3.385859
2.1231637 0.024868961 -3.366046
2.3716323 0.026985139 -3.3607874
2.6259127 0.026784608 -3.3601127
2.8765461 0.025776921 -3.3655663
3.1317496 0.025136359 -3.3776865
3.3824492 0.025641708 -3.3810976
3.6207383 0.025833473 -3.3758903
3.8738613 0.025445592 -3.3659377
4.1253099 0.025221027 -3.3735127
4.3704395 0.023964634 -3.3820331
4.6141787 0.02382393 -3.3784962
4.869308 0.024914538 -3.3725841
5.1661997 0.13189194 -3.373632
5.2707434 0.1321757 -3.3771458
-0.098013006 0.37712386 -3.3742886
0.030835817 0.38583648 -3.3890831
5.1734638 0.37625018 -3.3740034
5.269721 0.38152611 -3.3783057
-0.097501583 0.62496179 -3.3760686
0.028038064 0.63535148 -3.3915358
5.1724958 0.62324506 -3.3726437
5.2689395 0.63126886 -3.3754475
-0.096686684 0.87459683 -3.3743293
0.029789407 0.87642157 -3.3822196
5.172081 0.87285262 -3.3689115
5.2684784 0.8825528 -3.3718128
-0.096471719 1.1272403 -3.3727429
0.029705454 1.1155667 -3.3876872
5.1710687 1.1242723 -3.3713708
5.2693667 1.1295635 -3.3731039
-0.098120846 1.3753895 -3.3724525
0.028166154 1.3748946 -3.3922267
5.1712651 1.373505 -3.3724592
5.2684999 1.3716826 -3.3729501
-0.10020809 1.6237868 -3.3711562
0.029365048 1.6195414 -3.3894904
5.1710806 1.6232494 -3.3729076
5.2712598 1.6164674 -3.3712058
-0.097325779 1.8749264 -3.3736749
0.027578844 1.8716357 -3.3855317
5.1704926 1.8769194 -3.3745093
5.2701707 1.8731126 -3.3730819
-0.099531665 2.1258004 -3.3731313
0.028871784 2.1175218 -3.3828008
5.1718187 2.1291509 -3.3747427
5.2694149 2.1221707 -3.377609
-0.098526329 2.3734498 -3.3716168
0.026529564 2.3769886 -3.3870769
5.1704078 2.3738785 -3.3748324
5.2708306 2.370326 -3.3769608
-0.1002056 2.6255219 -3.3741486
0.028790809 2.6179285 -3.3812649
5.1697073 2.6241968 -3.3726525
5.2703857 2.6286201 -3.3764322
-0.097565144 2.874645 -3.3743095
0.030807111 2.868741 -3.381999
5.1695294 2.8713484 -3.3744981
5.2692404 2.8759184 -3.3732302
-0.096975297 3.1245196 -3.3717525
0.025431212 3.1216893 -3.3925619
5.1710167 3.1246285 -3.3755181
5.2699714 3.1214154 -3.3734548
-0.099419765 3.3736339 -3.3702478
0.028599018 3.3735523 -3.3834412
5.1703296 3.3753805 -3.3753374
5.268836 3.369313 -3.3740625
-0.10028544 3.6232712 -3.3737626
0.026915399 3.6106868 -3.3850074
5.1726151 3.6227448 -3.3720474
